# .PCD v.7 - Point Cloud Data file format
VERSION .7
FIELDS x y z intensity
SIZE 4 4 4 4
TYPE F F F F
COUNT 1 1 1 1
WIDTH 1954
HEIGHT 1
VIEWPOINT 0 0 0 1 0 0 0
POINTS 1954
DATA ascii
1.209 -5.652 -1.499 0.11
1.227 -5.652 -1.5 0.19
1.237 -5.654 -1.501 0.21
1.258 -5.667 -1.506 0.1
1.276 -5.661 -1.505 0.18
1.295 -5.662 -1.507 0.2
1.315 -5.669 -1.51 0.1
1.331 -5.658 -1.508 0.2
1.351 -5.663 -1.51 0.11
1.364 -5.678 -1.515 0.2
1.38 -5.666 -1.513 0.11
1.398 -5.663 -1.514 0.2
1.419 -5.672 -1.518 0.11
1.437 -5.668 -1.518 0.2
1.456 -5.669 -1.519 0.11
1.474 -5.664 -1.519 0.2
1.484 -5.665 -1.52 0.1
1.505 -5.672 -1.523 0.19
1.522 -5.667 -1.523 0.11
1.542 -5.668 -1.525 0.2
1.561 -5.669 -1.527 0.11
1.582 -5.677 -1.53 0.18
1.597 -5.661 -1.527 0.21
1.606 -5.656 -1.527 0.1
1.625 -5.657 -1.528 0.2
1.645 -5.661 -1.531 0.11
1.665 -5.663 -1.533 0.2
1.686 -5.669 -1.536 0.11
1.704 -5.664 -1.536 0.19
1.724 -5.666 -1.539 0.1
1.74 -5.655 -1.537 0.18
1.752 -5.663 -1.54 0.2
1.773 -5.667 -1.543 0.1
1.794 -5.67 -1.546 0.18
1.811 -5.663 -1.545 0.21
1.832 -5.666 -1.548 0.1
1.872 -5.73 -1.568 0.09
1.877 -5.684 -1.556 0.08
1.882 -5.67 -1.553 0.19
1.896 -5.653 -1.55 0.05
1.922 -5.673 -1.557 0.18
1.939 -5.663 -1.556 0.19
1.961 -5.668 -1.56 0.17
1.978 -5.661 -1.56 0.18
2.001 -5.668 -1.563 0.17
2.009 -5.663 -1.563 0.17
2.026 -5.655 -1.562 0.04
2.049 -5.663 -1.567 0.08
2.067 -5.656 -1.567 0.04
2.084 -5.648 -1.566 0.0
2.073 -5.564 -1.543 0.0
2.118 -5.631 -1.565 0.0
2.127 -5.628 -1.565 0.0
2.129 -5.582 -1.553 0.0
2.17 -5.636 -1.571 0.0
2.194 -5.645 -1.576 0.0
2.213 -5.64 -1.577 0.0
2.234 -5.644 -1.58 0.0
2.254 -5.642 -1.582 0.0
2.265 -5.642 -1.583 0.0
2.281 -5.632 -1.582 0.0
2.302 -5.634 -1.584 0.0
2.323 -5.633 -1.587 0.0
2.439 -5.588 -1.588 0.0
2.463 -5.595 -1.592 0.0
2.482 -5.591 -1.593 0.0
2.513 -5.614 -1.603 0.0
2.53 -5.605 -1.602 0.0
2.536 -5.594 -1.6 0.0
2.547 -5.572 -1.596 0.0
2.568 -5.572 -1.598 0.0
2.577 -5.545 -1.593 0.0
2.588 -5.523 -1.588 0.0
2.583 -5.468 -1.574 0.03
2.622 -5.505 -1.588 0.03
2.615 -5.468 -1.577 0.03
2.623 -5.44 -1.571 0.04
2.647 -5.448 -1.576 0.14
2.666 -5.443 -1.577 0.22
2.706 -5.481 -1.592 0.19
2.726 -5.478 -1.594 0.13
2.753 -5.49 -1.6 0.2
2.749 -5.46 -1.592 0.11
2.759 -5.437 -1.588 0.2
2.779 -5.434 -1.589 0.11
2.794 -5.421 -1.588 0.19
2.813 -5.416 -1.589 0.2
2.83 -5.407 -1.589 0.09
2.845 -5.395 -1.588 0.19
2.854 -5.39 -1.588 0.21
2.867 -5.375 -1.586 0.1
2.889 -5.376 -1.589 0.18
2.905 -5.365 -1.589 0.21
2.921 -5.354 -1.588 0.22
2.948 -5.364 -1.594 0.16
2.96 -5.346 -1.591 0.3
2.968 -5.339 -1.591 0.23
2.99 -5.34 -1.594 0.11
2.999 -5.316 -1.589 0.19
3.007 -5.291 -1.584 0.11
3.03 -5.293 -1.588 0.16
3.004 -5.209 -1.564 0.22
3.016 -5.192 -1.562 0.25
3.031 -5.18 -1.561 0.19
3.083 -5.251 -1.586 0.14
3.072 -5.195 -1.57 0.18
3.051 -5.121 -1.549 0.14
3.021 -5.035 -1.525 0.31
3.078 -5.093 -1.547 0.25
3.094 -5.084 -1.547 0.27
3.114 -5.08 -1.549 0.23
3.134 -5.095 -1.555 0.29
3.144 -5.076 -1.552 0.37
3.155 -5.059 -1.55 0.23
3.166 -5.041 -1.547 0.19
3.154 -4.987 -1.533 0.34
3.22 -5.057 -1.559 0.23
3.224 -5.027 -1.553 0.2
3.217 -4.999 -1.545 0.36
3.242 -5.004 -1.55 0.27
3.257 -4.992 -1.549 0.27
3.268 -4.974 -1.547 0.21
3.276 -4.952 -1.543 0.25
3.293 -4.945 -1.544 0.32
3.34 -4.981 -1.56 0.3
3.334 -4.955 -1.553 0.29
3.339 -4.929 -1.547 0.31
3.367 -4.937 -1.554 0.31
3.366 -4.903 -1.546 0.25
3.401 -4.921 -1.555 0.39
3.416 -4.908 -1.555 0.21
3.435 -4.904 -1.557 0.27
3.456 -4.918 -1.563 0.21
3.457 -4.886 -1.556 0.31
3.462 -4.86 -1.551 0.18
3.475 -4.846 -1.55 0.26
3.52 -4.877 -1.564 0.24
3.526 -4.853 -1.56 0.27
3.54 -4.841 -1.56 0.26
3.565 -4.858 -1.568 0.32
3.594 -4.866 -1.574 0.31
3.59 -4.828 -1.565 0.32
3.603 -4.814 -1.564 0.29
3.617 -4.801 -1.563 0.3
3.651 -4.816 -1.573 0.3
3.666 -4.804 -1.573 0.21
3.698 -4.814 -1.58 0.43
3.678 -4.773 -1.568 0.25
3.685 -4.751 -1.564 0.34
3.701 -4.741 -1.564 0.28
3.734 -4.752 -1.573 0.23
3.763 -4.758 -1.579 0.35
3.804 -4.78 -1.591 0.22
3.835 -4.787 -1.598 0.36
3.828 -4.763 -1.591 0.3
3.853 -4.763 -1.596 0.3
3.892 -4.781 -1.607 0.33
3.892 -4.751 -1.6 0.34
3.916 -4.749 -1.604 0.3
3.938 -4.746 -1.607 0.26
3.962 -4.745 -1.611 0.31
3.966 -4.734 -1.61 0.25
3.97 -4.709 -1.605 0.3
3.988 -4.701 -1.607 0.42
3.998 -4.682 -1.604 0.29
4.018 -4.675 -1.607 0.33
4.046 -4.679 -1.613 0.37
4.059 -4.663 -1.611 0.29
4.09 -4.685 -1.622 0.34
4.115 -4.683 -1.626 0.23
4.127 -4.667 -1.625 0.32
4.131 -4.643 -1.621 0.3
4.145 -4.628 -1.62 0.37
4.171 -4.628 -1.625 0.27
4.22 -4.654 -1.639 0.27
4.225 -4.644 -1.638 0.27
4.221 -4.611 -1.631 0.28
4.236 -4.598 -1.631 0.27
4.256 -4.592 -1.634 0.27
4.256 -4.563 -1.628 0.23
4.279 -4.558 -1.631 0.27
4.313 -4.565 -1.639 0.27
4.307 -4.545 -1.634 0.29
4.306 -4.516 -1.628 0.28
4.315 -4.496 -1.625 0.06
4.347 -4.501 -1.632 0.0
4.333 -4.458 -1.621 0.0
4.055 -4.118 -1.499 0.0
4.072 -4.109 -1.5 0.0
4.079 -4.103 -1.5 0.02
4.104 -4.102 -1.505 0.03
4.132 -4.104 -1.511 0.07
4.17 -4.117 -1.521 0.17
4.185 -4.106 -1.522 0.23
4.215 -4.11 -1.529 0.18
4.239 -4.107 -1.533 0.23
4.264 -4.118 -1.54 0.23
4.314 -4.141 -1.555 0.24
4.334 -4.134 -1.557 0.21
4.362 -4.135 -1.563 0.28
4.388 -4.133 -1.568 0.24
4.423 -4.141 -1.577 0.2
4.443 -4.133 -1.58 0.27
4.464 -4.14 -1.585 0.25
4.492 -4.14 -1.591 0.2
4.518 -4.138 -1.596 0.27
4.541 -4.132 -1.6 0.24
4.572 -4.135 -1.607 0.2
4.604 -4.137 -1.614 0.27
4.631 -4.136 -1.619 0.25
4.655 -4.144 -1.625 0.21
4.658 -4.12 -1.622 0.25
4.685 -4.119 -1.627 0.21
4.698 -4.104 -1.627 0.11
4.718 -4.095 -1.63 0.19
4.748 -4.096 -1.636 0.2
4.767 -4.086 -1.638 0.18
4.817 -4.116 -1.655 0.2
4.848 -4.116 -1.661 0.45
4.856 -4.097 -1.659 0.29
4.854 -4.069 -1.654 0.28
4.864 -4.051 -1.653 0.18
4.872 -4.032 -1.651 0.3
4.881 -4.013 -1.65 0.24
4.878 -3.986 -1.644 0.27
4.877 -3.972 -1.642 0.23
4.896 -3.962 -1.644 0.25
4.908 -3.946 -1.644 0.23
4.94 -3.946 -1.651 0.2
4.961 -3.938 -1.654 0.24
4.981 -3.928 -1.657 0.2
4.986 -3.907 -1.654 0.23
5.001 -3.906 -1.657 0.18
5.018 -3.894 -1.659 0.25
5.041 -3.886 -1.663 0.23
5.077 -3.889 -1.671 0.25
5.108 -3.888 -1.678 0.28
5.117 -3.869 -1.677 0.27
5.126 -3.851 -1.676 0.27
5.117 -3.831 -1.67 0.27
5.124 -3.812 -1.669 0.41
5.171 -3.822 -1.681 0.26
5.171 -3.796 -1.677 0.26
5.216 -3.804 -1.688 0.35
5.217 -3.78 -1.684 0.31
5.25 -3.779 -1.692 0.31
5.228 -3.751 -1.682 0.3
5.232 -3.729 -1.679 0.3
5.236 -3.707 -1.677 0.23
5.259 -3.698 -1.681 0.28
5.256 -3.671 -1.676 0.29
5.297 -3.676 -1.686 0.26
5.287 -3.644 -1.678 0.3
5.305 -3.644 -1.683 0.27
5.334 -3.64 -1.689 0.23
5.322 -3.606 -1.681 0.34
5.358 -3.607 -1.689 0.35
5.341 -3.571 -1.679 0.29
5.391 -3.58 -1.692 0.32
5.375 -3.545 -1.683 0.23
5.423 -3.565 -1.698 0.31
5.433 -3.547 -1.697 0.36
5.417 -3.512 -1.688 0.24
5.42 -3.489 -1.685 0.29
5.432 -3.473 -1.686 0.35
5.433 -3.45 -1.683 0.25
5.407 -3.409 -1.67 0.45
5.447 -3.411 -1.68 0.34
5.468 -3.413 -1.685 0.28
5.463 -3.385 -1.68 0.3
5.47 -3.366 -1.679 0.32
5.509 -3.366 -1.688 0.34
5.514 -3.346 -1.686 0.23
5.503 -3.315 -1.679 0.3
5.525 -3.305 -1.683 0.36
5.522 -3.291 -1.681 0.32
5.546 -3.282 -1.685 0.27
5.554 -3.263 -1.684 0.27
5.556 -3.241 -1.682 0.28
5.578 -3.23 -1.685 0.34
5.586 -3.212 -1.685 0.3
5.567 -3.177 -1.675 0.25
5.576 -3.171 -1.677 0.3
5.608 -3.166 -1.684 0.37
5.611 -3.145 -1.682 0.32
5.593 -3.111 -1.672 0.23
5.613 -3.099 -1.676 0.2
5.612 -3.076 -1.672 0.28
5.615 -3.054 -1.67 0.25
5.615 -3.043 -1.669 0.23
5.643 -3.035 -1.675 0.3
5.459 -2.913 -1.613 0.0
5.516 -2.921 -1.628 0.0
5.054 -2.634 -1.476 0.0
5.089 -2.632 -1.485 0.05
5.11 -2.633 -1.49 0.14
5.156 -2.636 -1.502 0.16
5.188 -2.632 -1.509 0.18
5.252 -2.644 -1.527 0.09
5.332 -2.664 -1.549 0.18
5.351 -2.652 -1.553 0.22
5.407 -2.66 -1.568 0.18
5.434 -2.662 -1.575 0.24
5.479 -2.663 -1.586 0.19
5.511 -2.658 -1.594 0.25
5.542 -2.651 -1.601 0.22
5.561 -2.639 -1.604 0.11
5.579 -2.626 -1.607 0.19
5.614 -2.621 -1.615 0.1
5.617 -2.601 -1.614 0.2
5.67 -2.615 -1.629 0.27
5.68 -2.598 -1.629 0.24
5.681 -2.577 -1.627 0.21
5.692 -2.56 -1.628 0.44
5.683 -2.535 -1.623 0.33
5.715 -2.528 -1.63 0.28
5.7 -2.5 -1.623 0.28
5.711 -2.494 -1.625 0.35
5.682 -2.46 -1.614 0.29
5.651 -2.425 -1.602 0.37
5.66 -2.408 -1.603 0.25
5.716 -2.411 -1.617 0.28
5.745 -2.402 -1.624 0.25
5.754 -2.384 -1.624 0.2
5.713 -2.357 -1.611 0.23
5.761 -2.356 -1.623 0.17
5.769 -2.338 -1.623 0.23
5.76 -2.313 -1.618 0.21
5.742 -2.285 -1.611 0.25
5.733 -2.26 -1.606 0.3
5.771 -2.254 -1.615 0.25
5.808 -2.259 -1.625 0.26
5.808 -2.237 -1.623 0.29
5.797 -2.212 -1.618 0.29
5.763 -2.178 -1.605 0.28
5.786 -2.166 -1.61 0.33
5.764 -2.137 -1.602 0.25
5.76 -2.115 -1.598 0.33
5.752 -2.102 -1.595 0.29
5.743 -2.078 -1.59 0.25
5.716 -2.048 -1.581 0.33
5.719 -2.029 -1.58 0.38
5.726 -2.011 -1.58 0.37
5.717 -1.988 -1.575 0.32
5.727 -1.971 -1.576 0.34
5.73 -1.962 -1.576 0.29
5.724 -1.94 -1.573 0.23
5.775 -1.937 -1.586 0.37
5.761 -1.912 -1.58 0.22
5.775 -1.897 -1.582 0.39
5.777 -1.877 -1.581 0.31
5.781 -1.858 -1.581 0.34
5.812 -1.849 -1.588 0.3
5.782 -1.829 -1.579 0.31
5.79 -1.811 -1.579 0.33
5.788 -1.791 -1.577 0.29
5.79 -1.771 -1.576 0.28
5.781 -1.749 -1.571 0.44
5.74 -1.717 -1.558 0.24
5.735 -1.695 -1.555 0.21
5.739 -1.687 -1.555 0.27
5.744 -1.669 -1.555 0.25
5.748 -1.65 -1.555 0.27
5.758 -1.634 -1.556 0.25
5.758 -1.614 -1.555 0.26
5.78 -1.601 -1.56 0.27
5.799 -1.586 -1.564 0.3
5.841 -1.588 -1.575 0.31
5.883 -1.58 -1.586 0.31
5.953 -1.579 -1.605 0.26
6.001 -1.572 -1.617 0.29
6.062 -1.568 -1.634 0.26
6.132 -1.565 -1.652 0.26
6.2 -1.562 -1.671 0.25
6.244 -1.563 -1.683 0.33
6.254 -1.545 -1.684 0.27
6.248 -1.522 -1.681 0.29
6.251 -1.502 -1.681 0.29
6.255 -1.483 -1.681 0.3
6.26 -1.463 -1.681 0.29
6.264 -1.443 -1.681 0.3
6.263 -1.422 -1.679 0.33
6.258 -1.411 -1.677 0.28
6.234 -1.385 -1.669 0.26
6.205 -1.358 -1.659 0.2
6.205 -1.337 -1.658 0.29
6.215 -1.319 -1.659 0.22
6.217 -1.299 -1.659 0.28
6.216 -1.278 -1.657 0.29
6.216 -1.268 -1.657 0.27
6.214 -1.248 -1.655 0.29
6.205 -1.225 -1.651 0.3
6.207 -1.205 -1.651 0.25
6.205 -1.185 -1.649 0.27
6.21 -1.166 -1.65 0.27
6.216 -1.147 -1.65 0.26
6.21 -1.135 -1.648 0.26
6.221 -1.117 -1.65 0.19
6.225 -1.098 -1.65 0.27
6.23 -1.078 -1.651 0.23
6.239 -1.06 -1.652 0.2
6.242 -1.04 -1.652 0.24
6.249 -1.021 -1.654 0.21
6.243 -1.01 -1.651 0.12
6.25 -0.991 -1.652 0.18
6.251 -0.971 -1.652 0.12
6.241 -0.95 -1.648 0.19
6.256 -0.932 -1.651 0.11
6.253 -0.911 -1.65 0.2
6.257 -0.892 -1.65 0.11
6.255 -0.881 -1.649 0.21
6.256 -0.862 -1.649 0.11
6.259 -0.842 -1.649 0.19
6.265 -0.823 -1.65 0.11
6.271 -0.804 -1.651 0.16
6.27 -0.783 -1.65 0.22
6.267 -0.763 -1.648 0.23
6.27 -0.753 -1.649 0.11
6.266 -0.733 -1.647 0.2
6.271 -0.713 -1.648 0.21
6.269 -0.693 -1.647 0.18
6.273 -0.674 -1.647 0.23
6.283 -0.655 -1.649 0.2
6.27 -0.634 -1.645 0.22
6.28 -0.625 -1.648 0.22
6.263 -0.603 -1.642 0.17
6.27 -0.584 -1.644 0.27
6.267 -0.564 -1.642 0.24
6.274 -0.545 -1.644 0.19
6.274 -0.525 -1.643 0.26
6.279 -0.505 -1.644 0.25
6.27 -0.495 -1.642 0.25
6.28 -0.476 -1.644 0.23
6.283 -0.456 -1.644 0.25
6.282 -0.436 -1.644 0.24
6.268 -0.415 -1.639 0.23
6.283 -0.396 -1.643 0.25
6.281 -0.376 -1.642 0.23
6.279 -0.366 -1.642 0.2
6.282 -0.347 -1.642 0.28
6.287 -0.327 -1.643 0.25
6.29 -0.308 -1.644 0.26
6.281 -0.287 -1.641 0.17
6.29 -0.268 -1.643 0.29
6.289 -0.248 -1.643 0.25
6.293 -0.229 -1.644 0.27
6.284 -0.218 -1.641 0.29
6.296 -0.199 -1.644 0.26
6.289 -0.179 -1.642 0.28
6.29 -0.159 -1.642 0.29
6.313 -0.14 -1.649 0.25
6.291 -0.12 -1.642 0.17
6.279 -0.1 -1.639 0.31
6.295 -0.09 -1.643 0.25
6.295 -0.07 -1.643 0.27
6.29 -0.051 -1.642 0.27
6.288 -0.031 -1.641 0.28
6.296 -0.011 -1.643 0.27
6.093 0.001 -1.647 0.29
6.099 0.02 -1.648 0.28
6.103 0.03 -1.649 0.29
6.105 0.049 -1.65 0.26
6.093 0.068 -1.647 0.3
6.12 0.087 -1.655 0.26
6.11 0.106 -1.652 0.29
6.096 0.125 -1.648 0.33
6.107 0.145 -1.651 0.25
6.109 0.154 -1.652 0.27
6.097 0.173 -1.648 0.3
6.1 0.192 -1.649 0.29
6.074 0.211 -1.642 0.28
6.093 0.231 -1.648 0.27
6.104 0.25 -1.651 0.27
6.099 0.269 -1.65 0.28
6.089 0.278 -1.647 0.29
6.088 0.297 -1.647 0.26
6.087 0.317 -1.647 0.28
6.098 0.336 -1.651 0.27
6.093 0.355 -1.649 0.25
6.095 0.375 -1.651 0.25
6.098 0.394 -1.652 0.25
6.095 0.413 -1.651 0.18
6.104 0.423 -1.654 0.26
6.104 0.443 -1.655 0.24
6.101 0.462 -1.654 0.21
6.094 0.48 -1.652 0.25
6.106 0.501 -1.656 0.22
6.108 0.52 -1.657 0.22
6.099 0.539 -1.655 0.22
6.1 0.548 -1.656 0.18
6.111 0.569 -1.66 0.26
6.111 0.588 -1.66 0.2
6.096 0.606 -1.656 0.12
6.104 0.626 -1.659 0.21
6.096 0.645 -1.657 0.11
6.1 0.665 -1.659 0.21
6.102 0.675 -1.66 0.11
6.104 0.694 -1.661 0.18
6.087 0.712 -1.657 0.22
6.079 0.73 -1.655 0.18
6.086 0.75 -1.658 0.23
6.099 0.771 -1.662 0.2
6.083 0.789 -1.658 0.23
6.087 0.799 -1.66 0.19
6.077 0.817 -1.658 0.22
6.08 0.837 -1.66 0.18
6.066 0.855 -1.656 0.25
6.063 0.874 -1.656 0.19
6.07 0.894 -1.659 0.23
6.067 0.913 -1.659 0.21
6.055 0.921 -1.656 0.19
6.065 0.942 -1.66 0.27
6.041 0.958 -1.653 0.22
6.047 0.978 -1.656 0.18
6.046 0.998 -1.657 0.26
6.034 1.015 -1.654 0.24
6.027 1.033 -1.653 0.2
6.046 1.056 -1.66 0.28
6.035 1.064 -1.657 0.25
6.037 1.084 -1.658 0.26
6.026 1.101 -1.656 0.27
6.023 1.12 -1.656 0.25
6.015 1.139 -1.655 0.3
6.014 1.158 -1.656 0.28
6.006 1.176 -1.655 0.27
6.02 1.188 -1.659 0.25
5.988 1.202 -1.651 0.2
6.004 1.225 -1.657 0.29
5.985 1.24 -1.652 0.25
5.993 1.262 -1.656 0.28
5.981 1.279 -1.653 0.28
5.975 1.297 -1.653 0.27
5.996 1.312 -1.66 0.25
5.982 1.328 -1.657 0.25
5.971 1.345 -1.655 0.18
5.965 1.364 -1.654 0.31
5.958 1.382 -1.653 0.25
5.948 1.399 -1.652 0.28
5.95 1.419 -1.653 0.27
5.949 1.429 -1.654 0.29
5.96 1.452 -1.658 0.25
5.944 1.467 -1.655 0.31
5.939 1.486 -1.655 0.25
5.947 1.508 -1.659 0.27
5.941 1.526 -1.658 0.27
5.929 1.543 -1.656 0.27
5.935 1.555 -1.659 0.3
5.919 1.57 -1.656 0.29
5.924 1.592 -1.658 0.25
5.917 1.61 -1.658 0.3
5.906 1.627 -1.656 0.28
5.905 1.646 -1.657 0.26
5.905 1.666 -1.659 0.27
5.909 1.688 -1.662 0.3
5.897 1.694 -1.659 0.27
5.89 1.712 -1.658 0.29
5.885 1.731 -1.658 0.25
5.868 1.746 -1.655 0.31
5.866 1.765 -1.656 0.29
5.885 1.791 -1.663 0.25
5.862 1.794 -1.657 0.3
5.871 1.817 -1.662 0.25
5.856 1.833 -1.659 0.27
5.844 1.849 -1.657 0.32
5.857 1.874 -1.663 0.25
5.847 1.891 -1.662 0.31
5.838 1.908 -1.661 0.3
5.833 1.927 -1.661 0.29
5.832 1.937 -1.662 0.31
5.815 1.951 -1.658 0.3
5.807 1.969 -1.658 0.29
5.826 1.996 -1.666 0.25
5.798 2.007 -1.659 0.29
5.796 2.026 -1.66 0.28
5.793 2.046 -1.661 0.27
5.782 2.052 -1.659 0.28
5.787 2.074 -1.662 0.28
5.777 2.091 -1.661 0.29
5.757 2.104 -1.657 0.25
5.756 2.125 -1.659 0.33
5.751 2.143 -1.66 0.28
5.748 2.163 -1.661 0.3
5.732 2.167 -1.657 0.25
5.74 2.19 -1.661 0.29
5.724 2.205 -1.658 0.34
5.724 2.226 -1.661 0.27
5.712 2.242 -1.659 0.29
5.71 2.262 -1.661 0.3
5.701 2.279 -1.66 0.26
5.703 2.29 -1.662 0.29
5.695 2.308 -1.662 0.33
5.679 2.322 -1.659 0.31
5.67 2.339 -1.658 0.27
5.666 2.359 -1.66 0.28
5.664 2.379 -1.661 0.31
5.662 2.399 -1.663 0.29
5.644 2.412 -1.66 0.29
5.647 2.424 -1.662 0.32
5.64 2.441 -1.662 0.3
5.621 2.455 -1.658 0.32
5.617 2.474 -1.66 0.24
5.613 2.493 -1.661 0.34
5.605 2.511 -1.661 0.31
5.59 2.515 -1.657 0.27
5.593 2.537 -1.661 0.32
5.583 2.554 -1.66 0.28
5.577 2.572 -1.661 0.28
5.579 2.594 -1.664 0.32
5.562 2.608 -1.661 0.3
5.551 2.624 -1.66 0.31
5.549 2.644 -1.662 0.29
5.552 2.656 -1.665 0.29
5.54 2.672 -1.663 0.31
5.535 2.691 -1.665 0.31
5.511 2.701 -1.66 0.3
5.51 2.722 -1.662 0.29
5.501 2.739 -1.662 0.28
5.493 2.756 -1.662 0.29
5.486 2.764 -1.661 0.31
5.498 2.792 -1.668 0.27
5.476 2.802 -1.663 0.29
5.469 2.82 -1.664 0.29
5.465 2.84 -1.666 0.31
5.451 2.854 -1.664 0.29
5.452 2.877 -1.667 0.3
5.437 2.88 -1.664 0.3
5.43 2.898 -1.665 0.3
5.424 2.917 -1.666 0.29
5.415 2.934 -1.666 0.29
5.401 2.948 -1.664 0.27
5.391 2.965 -1.664 0.29
5.396 2.99 -1.668 0.32
5.381 2.992 -1.665 0.29
5.378 3.013 -1.667 0.29
5.36 3.025 -1.665 0.31
5.354 3.044 -1.666 0.27
5.351 3.065 -1.668 0.28
5.346 3.084 -1.67 0.28
5.322 3.092 -1.665 0.29
5.314 3.11 -1.665 0.29
5.314 3.121 -1.667 0.29
5.302 3.137 -1.666 0.29
5.296 3.156 -1.667 0.29
5.3 3.181 -1.672 0.28
5.279 3.191 -1.668 0.29
5.266 3.205 -1.667 0.28
5.261 3.214 -1.667 0.29
5.255 3.233 -1.669 0.27
5.25 3.253 -1.671 0.29
5.238 3.268 -1.67 0.27
5.212 3.274 -1.665 0.2
5.208 3.295 -1.667 0.29
5.193 3.308 -1.665 0.25
5.195 3.333 -1.67 0.27
5.187 3.339 -1.668 0.29
5.189 3.363 -1.673 0.28
5.169 3.373 -1.67 0.28
5.161 3.392 -1.671 0.28
5.155 3.411 -1.672 0.31
5.14 3.424 -1.671 0.28
5.128 3.439 -1.67 0.27
5.122 3.447 -1.67 0.3
5.105 3.459 -1.668 0.28
5.091 3.473 -1.667 0.3
5.093 3.497 -1.671 0.26
5.085 3.516 -1.672 0.3
5.072 3.53 -1.672 0.27
5.058 3.544 -1.671 0.3
5.03 3.548 -1.665 0.26
5.035 3.564 -1.668 0.31
5.027 3.582 -1.67 0.29
5.014 3.596 -1.669 0.34
5.01 3.618 -1.672 0.27
4.99 3.627 -1.668 0.27
4.983 3.646 -1.67 0.31
4.975 3.664 -1.671 0.28
4.969 3.671 -1.671 0.32
4.953 3.683 -1.67 0.3
4.939 3.698 -1.669 0.24
4.942 3.724 -1.674 0.32
4.912 3.725 -1.667 0.28
4.915 3.752 -1.673 0.33
4.896 3.762 -1.67 0.29
4.885 3.766 -1.668 0.27
4.879 3.786 -1.671 0.29
4.872 3.805 -1.672 0.32
4.855 3.817 -1.671 0.27
4.836 3.826 -1.668 0.29
4.834 3.85 -1.672 0.33
4.813 3.858 -1.668 0.27
4.812 3.869 -1.67 0.32
4.795 3.88 -1.668 0.31
4.777 3.89 -1.666 0.29
4.769 3.909 -1.668 0.31
4.751 3.919 -1.666 0.29
4.75 3.944 -1.67 0.34
4.741 3.961 -1.671 0.3
4.724 3.96 -1.667 0.27
4.715 3.977 -1.668 0.32
4.708 3.997 -1.671 0.31
4.687 4.004 -1.667 0.27
4.684 4.028 -1.671 0.31
4.665 4.036 -1.668 0.28
4.663 4.061 -1.673 0.3
4.656 4.067 -1.672 0.3
4.638 4.078 -1.671 0.32
4.631 4.097 -1.673 0.3
4.613 4.107 -1.671 0.28
4.608 4.129 -1.674 0.3
4.595 4.144 -1.674 0.27
4.587 4.162 -1.676 0.31
4.571 4.174 -1.675 0.3
4.563 4.179 -1.674 0.28
4.548 4.193 -1.673 0.29
4.526 4.199 -1.67 0.22
4.519 4.218 -1.672 0.32
4.508 4.235 -1.673 0.29
4.494 4.248 -1.673 0.38
4.479 4.261 -1.672 0.44
4.471 4.266 -1.672 0.31
4.456 4.279 -1.671 0.52
4.447 4.297 -1.673 0.35
4.44 4.318 -1.676 0.29
4.429 4.334 -1.677 0.35
4.413 4.346 -1.676 0.39
4.403 4.364 -1.677 0.44
4.389 4.377 -1.677 0.33
4.383 4.384 -1.677 0.36
4.373 4.402 -1.679 0.36
4.356 4.413 -1.678 0.37
4.348 4.432 -1.68 0.34
4.338 4.45 -1.682 0.39
4.324 4.464 -1.682 0.36
4.323 4.491 -1.687 0.28
4.32 4.502 -1.689 0.26
4.302 4.511 -1.687 0.25
4.294 4.532 -1.69 0.24
4.273 4.538 -1.687 0.18
4.267 4.56 -1.691 0.28
4.259 4.581 -1.694 0.23
4.246 4.595 -1.694 0.2
4.241 4.605 -1.695 0.13
4.224 4.615 -1.694 0.2
4.225 4.646 -1.701 0.23
4.199 4.646 -1.696 0.12
4.187 4.662 -1.697 0.2
4.172 4.675 -1.697 0.18
4.173 4.706 -1.704 0.26
4.158 4.704 -1.7 0.19
4.149 4.724 -1.703 0.24
4.132 4.734 -1.702 0.18
4.128 4.76 -1.707 0.23
4.11 4.769 -1.705 0.19
4.101 4.789 -1.708 0.22
4.091 4.808 -1.71 0.16
4.077 4.807 -1.707 0.23
4.067 4.825 -1.71 0.18
4.058 4.845 -1.712 0.23
4.039 4.854 -1.711 0.18
4.026 4.869 -1.712 0.24
4.007 4.877 -1.71 0.19
4.005 4.906 -1.716 0.22
3.98 4.907 -1.712 0.18
3.981 4.924 -1.716 0.24
3.962 4.932 -1.714 0.18
3.952 4.952 -1.717 0.23
3.941 4.97 -1.719 0.19
3.924 4.981 -1.719 0.24
3.911 4.996 -1.72 0.19
3.897 5.01 -1.72 0.25
3.897 5.027 -1.724 0.18
3.872 5.027 -1.72 0.25
3.857 5.041 -1.72 0.19
3.848 5.062 -1.724 0.23
3.831 5.072 -1.723 0.21
3.82 5.091 -1.725 0.12
3.8 5.098 -1.724 0.2
3.792 5.121 -1.727 0.18
3.783 5.125 -1.727 0.26
3.774 5.146 -1.73 0.2
3.751 5.149 -1.727 0.12
3.731 5.156 -1.725 0.21
3.713 5.164 -1.724 0.18
3.706 5.19 -1.729 0.26
3.689 5.2 -1.729 0.22
3.689 5.217 -1.733 0.23
3.669 5.224 -1.731 0.12
3.645 5.224 -1.727 0.21
3.631 5.239 -1.728 0.18
3.622 5.261 -1.732 0.26
3.607 5.276 -1.733 0.25
3.589 5.284 -1.732 0.18
3.583 5.294 -1.734 0.27
3.569 5.309 -1.735 0.25
3.55 5.317 -1.734 0.2
3.541 5.339 -1.738 0.27
3.52 5.344 -1.735 0.23
3.508 5.363 -1.738 0.19
3.493 5.377 -1.739 0.27
3.474 5.385 -1.738 0.24
3.464 5.387 -1.737 0.2
3.455 5.411 -1.741 0.28
3.434 5.415 -1.739 0.24
3.422 5.434 -1.742 0.25
3.404 5.443 -1.741 0.26
3.387 5.454 -1.741 0.26
3.373 5.469 -1.743 0.2
3.366 5.478 -1.744 0.28
3.35 5.49 -1.745 0.24
3.329 5.494 -1.743 0.26
3.317 5.514 -1.746 0.27
3.306 5.535 -1.749 0.27
3.279 5.529 -1.744 0.21
3.264 5.544 -1.745 0.28
3.248 5.556 -1.746 0.25
3.24 5.562 -1.746 0.28
3.225 5.578 -1.748 0.27
3.215 5.599 -1.752 0.26
3.187 5.593 -1.746 0.29
3.174 5.609 -1.749 0.26
3.165 5.636 -1.754 0.27
3.143 5.638 -1.751 0.3
3.135 5.644 -1.752 0.28
3.12 5.659 -1.754 0.27
3.101 5.667 -1.753 0.29
3.084 5.677 -1.753 0.28
3.069 5.693 -1.755 0.27
3.059 5.717 -1.76 0.27
3.037 5.719 -1.758 0.27
3.035 5.738 -1.762 0.28
3.013 5.739 -1.759 0.29
2.995 5.748 -1.759 0.3
2.982 5.768 -1.763 0.27
2.96 5.77 -1.76 0.27
2.941 5.778 -1.76 0.24
2.924 5.789 -1.76 0.27
2.913 5.79 -1.759 0.25
2.898 5.806 -1.761 0.27
2.884 5.824 -1.764 0.25
2.867 5.834 -1.765 0.29
2.85 5.847 -1.766 0.25
2.825 5.842 -1.761 0.22
2.813 5.863 -1.765 0.27
2.796 5.875 -1.766 0.25
2.795 5.897 -1.772 0.25
2.766 5.883 -1.765 0.21
2.752 5.902 -1.768 0.27
2.741 5.928 -1.774 0.22
2.715 5.919 -1.768 0.21
2.702 5.942 -1.773 0.27
2.681 5.943 -1.77 0.23
2.671 5.946 -1.77 0.26
2.651 5.952 -1.769 0.22
2.641 5.98 -1.775 0.24
2.618 5.979 -1.773 0.18
2.603 5.996 -1.775 0.23
2.584 6.003 -1.775 0.19
2.569 6.022 -1.778 0.24
2.558 6.02 -1.777 0.19
2.539 6.028 -1.777 0.24
2.519 6.034 -1.776 0.18
2.504 6.051 -1.779 0.24
2.49 6.072 -1.783 0.19
2.468 6.074 -1.781 0.25
2.449 6.08 -1.78 0.2
2.432 6.095 -1.783 0.24
2.421 6.095 -1.782 0.19
2.406 6.113 -1.785 0.22
2.384 6.112 -1.782 0.18
2.368 6.128 -1.785 0.25
2.349 6.137 -1.785 0.19
2.335 6.157 -1.789 0.25
2.313 6.158 -1.787 0.2
2.302 6.159 -1.787 0.12
2.285 6.172 -1.788 0.2
2.266 6.179 -1.788 0.11
2.25 6.197 -1.792 0.18
2.23 6.202 -1.791 0.21
2.21 6.207 -1.79 0.19
2.19 6.213 -1.79 0.23
2.169 6.218 -1.789 0.2
2.163 6.23 -1.792 0.22
2.147 6.248 -1.795 0.19
2.129 6.26 -1.797 0.21
2.108 6.261 -1.795 0.2
2.09 6.275 -1.798 0.21
2.07 6.28 -1.797 0.21
2.048 6.279 -1.795 0.22
2.041 6.291 -1.798 0.19
2.025 6.309 -1.801 0.12
2.003 6.308 -1.799 0.18
1.984 6.317 -1.8 0.22
1.966 6.329 -1.802 0.19
1.944 6.33 -1.8 0.23
1.925 6.34 -1.801 0.2
1.908 6.353 -1.803 0.12
1.893 6.339 -1.798 0.18
1.874 6.349 -1.799 0.11
1.854 6.355 -1.799 0.2
1.837 6.37 -1.802 0.11
1.811 6.357 -1.797 0.2
1.798 6.387 -1.804 0.11
1.773 6.374 -1.798 0.18
1.766 6.388 -1.802 0.11
1.741 6.377 -1.797 0.21
1.726 6.399 -1.802 0.11
1.705 6.4 -1.8 0.2
1.686 6.41 -1.802 0.11
1.664 6.411 -1.8 0.21
1.645 6.42 -1.802 0.11
1.633 6.415 -1.799 0.2
1.616 6.433 -1.803 0.11
1.597 6.44 -1.804 0.18
1.576 6.443 -1.803 0.21
1.556 6.448 -1.803 0.2
1.537 6.461 -1.806 0.12
1.513 6.45 -1.801 0.21
1.496 6.47 -1.806 0.11
1.487 6.474 -1.806 0.2
1.467 6.481 -1.807 0.11
1.442 6.465 -1.8 0.2
1.426 6.492 -1.807 0.11
1.403 6.483 -1.803 0.2
1.385 6.497 -1.806 0.11
1.365 6.505 -1.807 0.2
1.356 6.511 -1.808 0.11
1.334 6.509 -1.807 0.19
1.316 6.525 -1.81 0.11
1.295 6.529 -1.81 0.18
1.274 6.529 -1.809 0.22
1.255 6.543 -1.812 0.17
1.234 6.539 -1.809 0.24
1.224 6.547 -1.811 0.19
1.204 6.55 -1.811 0.22
1.185 6.564 -1.814 0.19
1.162 6.552 -1.809 0.21
1.144 6.573 -1.814 0.19
1.123 6.578 -1.815 0.22
1.1 6.567 -1.811 0.19
1.081 6.578 -1.813 0.23
1.071 6.579 -1.813 0.18
1.05 6.585 -1.813 0.23
1.029 6.586 -1.813 0.2
1.011 6.606 -1.818 0.12
0.99 6.607 -1.817 0.2
0.968 6.605 -1.816 0.11
0.95 6.621 -1.819 0.18
0.938 6.611 -1.816 0.22
0.917 6.618 -1.817 0.18
0.897 6.625 -1.818 0.24
0.876 6.627 -1.818 0.18
0.855 6.628 -1.818 0.23
0.835 6.635 -1.819 0.19
0.813 6.63 -1.817 0.23
0.794 6.649 -1.822 0.19
0.782 6.635 -1.817 0.22
0.761 6.634 -1.816 0.19
0.741 6.648 -1.819 0.24
0.721 6.654 -1.821 0.18
0.699 6.65 -1.819 0.25
0.68 6.666 -1.823 0.2
0.658 6.664 -1.822 0.12
0.648 6.665 -1.822 0.18
0.627 6.663 -1.821 0.22
0.605 6.661 -1.819 0.19
0.585 6.675 -1.823 0.25
0.565 6.68 -1.824 0.2
0.544 6.688 -1.826 0.22
0.523 6.69 -1.826 0.18
0.512 6.687 -1.824 0.23
0.491 6.684 -1.823 0.18
0.47 6.684 -1.823 0.25
0.449 6.689 -1.824 0.2
0.428 6.694 -1.825 0.22
0.408 6.705 -1.828 0.2
0.386 6.691 -1.823 0.24
0.365 6.698 -1.825 0.19
0.354 6.693 -1.823 0.25
0.334 6.7 -1.825 0.2
0.312 6.695 -1.823 0.25
0.291 6.7 -1.824 0.17
0.271 6.712 -1.828 0.23
0.249 6.703 -1.825 0.2
0.229 6.712 -1.827 0.25
0.218 6.718 -1.829 0.21
0.197 6.713 -1.827 0.12
0.176 6.706 -1.825 0.21
0.155 6.704 -1.824 0.17
0.134 6.713 -1.827 0.26
0.113 6.717 -1.828 0.19
0.091 6.715 -1.827 0.24
0.081 6.719 -1.828 0.19
0.06 6.716 -1.827 0.23
0.039 6.716 -1.827 0.18
0.018 6.72 -1.828 0.25
-0.003 6.722 -1.829 0.18
-0.025 6.723 -1.829 0.23
-0.046 6.731 -1.832 0.19
-0.067 6.727 -1.831 0.22
-0.077 6.727 -1.831 0.21
-0.099 6.723 -1.829 0.22
-0.12 6.722 -1.829 0.18
-0.141 6.726 -1.831 0.24
-0.162 6.727 -1.831 0.2
-0.183 6.719 -1.829 0.12
-0.204 6.717 -1.828 0.21
-0.225 6.718 -1.829 0.2
-0.236 6.721 -1.83 0.24
-0.257 6.726 -1.832 0.19
-0.278 6.718 -1.829 0.24
-0.3 6.726 -1.832 0.19
-0.32 6.72 -1.831 0.24
-0.341 6.717 -1.83 0.18
-0.363 6.721 -1.832 0.25
-0.374 6.734 -1.836 0.19
-0.395 6.731 -1.835 0.23
-0.415 6.714 -1.831 0.19
-0.437 6.715 -1.831 0.24
-0.459 6.725 -1.834 0.2
-0.479 6.714 -1.832 0.22
-0.499 6.705 -1.829 0.19
-0.511 6.716 -1.833 0.24
-0.531 6.706 -1.831 0.22
-0.552 6.699 -1.829 0.18
-0.575 6.72 -1.836 0.26
-0.594 6.697 -1.829 0.2
-0.616 6.703 -1.832 0.12
-0.638 6.711 -1.834 0.21
-0.647 6.69 -1.829 0.17
-0.669 6.704 -1.833 0.26
-0.692 6.715 -1.837 0.21
-0.712 6.705 -1.835 0.22
-0.733 6.705 -1.836 0.22
-0.754 6.702 -1.836 0.22
-0.774 6.688 -1.832 0.22
-0.796 6.692 -1.834 0.21
-0.807 6.698 -1.836 0.23
-0.826 6.676 -1.831 0.19
-0.848 6.687 -1.834 0.25
-0.87 6.688 -1.836 0.19
-0.89 6.682 -1.834 0.25
-0.912 6.681 -1.835 0.21
-0.932 6.674 -1.834 0.23
-0.942 6.669 -1.833 0.2
-0.964 6.67 -1.834 0.24
-0.987 6.682 -1.838 0.19
-1.006 6.669 -1.836 0.25
-1.028 6.668 -1.836 0.18
-1.048 6.663 -1.836 0.24
-1.068 6.652 -1.833 0.19
-1.089 6.652 -1.834 0.24
-1.1 6.65 -1.834 0.18
-1.122 6.653 -1.836 0.24
-1.143 6.653 -1.837 0.18
-1.164 6.649 -1.837 0.24
-1.185 6.647 -1.838 0.19
-1.204 6.634 -1.835 0.25
-1.227 6.642 -1.838 0.18
-1.235 6.627 -1.834 0.23
-1.258 6.634 -1.838 0.2
-1.28 6.636 -1.839 0.11
-1.3 6.624 -1.837 0.18
-1.319 6.611 -1.834 0.22
-1.344 6.631 -1.842 0.19
-1.361 6.608 -1.836 0.23
-1.384 6.615 -1.839 0.2
-1.395 6.613 -1.839 0.23
-1.415 6.606 -1.839 0.2
-1.435 6.6 -1.838 0.23
-1.457 6.601 -1.84 0.19
-1.476 6.585 -1.837 0.23
-1.497 6.584 -1.838 0.19
-1.519 6.583 -1.839 0.23
-1.526 6.566 -1.834 0.21
-1.548 6.567 -1.836 0.11
-1.573 6.582 -1.842 0.18
-1.588 6.553 -1.835 0.23
-1.609 6.552 -1.836 0.18
-1.633 6.558 -1.839 0.24
-1.652 6.549 -1.838 0.2
-1.673 6.544 -1.838 0.23
-1.689 6.562 -1.845 0.2
-1.701 6.527 -1.836 0.23
-1.726 6.536 -1.84 0.19
-1.747 6.532 -1.841 0.23
-1.763 6.51 -1.836 0.23
-1.786 6.514 -1.838 0.11
-1.805 6.505 -1.837 0.2
-1.816 6.504 -1.838 0.11
-1.838 6.505 -1.84 0.2
-1.859 6.501 -1.841 0.11
-1.876 6.482 -1.837 0.2
-1.899 6.484 -1.839 0.11
-1.927 6.505 -1.847 0.18
-1.936 6.463 -1.836 0.21
-1.96 6.468 -1.839 0.19
-1.973 6.472 -1.842 0.24
-1.991 6.458 -1.839 0.21
-2.01 6.45 -1.839 0.22
-2.035 6.458 -1.843 0.21
-2.05 6.434 -1.838 0.11
-2.069 6.424 -1.837 0.2
-2.092 6.426 -1.839 0.11
-2.102 6.423 -1.839 0.2
-2.123 6.418 -1.84 0.11
-2.141 6.406 -1.838 0.21
-2.163 6.405 -1.84 0.11
-2.182 6.394 -1.839 0.2
-2.209 6.409 -1.846 0.2
-2.224 6.386 -1.841 0.23
-2.235 6.384 -1.841 0.18
-2.257 6.384 -1.843 0.25
-2.276 6.373 -1.842 0.22
-2.295 6.364 -1.842 0.11
-2.313 6.352 -1.84 0.2
-2.334 6.346 -1.841 0.11
-2.354 6.341 -1.841 0.18
-2.374 6.333 -1.841 0.12
-2.379 6.315 -1.837 0.21
-2.401 6.313 -1.838 0.11
-2.428 6.323 -1.844 0.18
-2.441 6.3 -1.839 0.12
-2.466 6.306 -1.843 0.16
-2.483 6.29 -1.841 0.23
-2.5 6.275 -1.838 0.19
-2.52 6.269 -1.839 0.24
-2.528 6.261 -1.838 0.16
-2.552 6.262 -1.841 0.25
-2.575 6.263 -1.843 0.2
-2.59 6.244 -1.84 0.12
-2.61 6.236 -1.84 0.18
-2.63 6.229 -1.841 0.12
-2.641 6.227 -1.841 0.17
-2.659 6.215 -1.84 0.12
-2.676 6.201 -1.838 0.2
-2.705 6.214 -1.845 0.11
-2.709 6.172 -1.834 0.2
-2.735 6.178 -1.839 0.1
-2.755 6.169 -1.839 0.18
-2.774 6.16 -1.839 0.22
-2.782 6.153 -1.838 0.18
-2.806 6.154 -1.841 0.23
-2.825 6.144 -1.841 0.19
-2.84 6.126 -1.838 0.21
-2.857 6.114 -1.837 0.18
-2.877 6.105 -1.837 0.23
-2.9 6.104 -1.839 0.2
-2.914 6.085 -1.836 0.21
-2.919 6.071 -1.833 0.16
-2.944 6.073 -1.837 0.27
-2.961 6.06 -1.836 0.25
-2.983 6.057 -1.838 0.26
-3.001 6.045 -1.837 0.25
-3.017 6.03 -1.835 0.18
-3.033 6.015 -1.833 0.26
-3.041 6.007 -1.832 0.23
-3.06 5.998 -1.832 0.2
-3.083 5.996 -1.835 0.27
-3.103 5.988 -1.836 0.25
-3.123 5.98 -1.836 0.2
-3.14 5.969 -1.836 0.27
-3.156 5.952 -1.833 0.25
-3.163 5.944 -1.832 0.27
-3.183 5.936 -1.833 0.26
-3.204 5.931 -1.834 0.23
-3.226 5.927 -1.837 0.27
-3.238 5.904 -1.832 0.32
-3.263 5.905 -1.836 0.26
-3.27 5.875 -1.829 0.3
-3.291 5.87 -1.831 0.27
-3.299 5.863 -1.831 0.29
-3.328 5.871 -1.837 0.25
-3.341 5.85 -1.833 0.27
-3.355 5.833 -1.831 0.29
-3.365 5.807 -1.826 0.28
-3.387 5.803 -1.828 0.27
-3.41 5.801 -1.831 0.29
-3.418 5.794 -1.831 0.27
-3.436 5.782 -1.83 0.28
-3.453 5.769 -1.829 0.26
-3.47 5.757 -1.829 0.26
-3.486 5.742 -1.828 0.29
-3.503 5.73 -1.827 0.28
-3.527 5.729 -1.831 0.26
-3.545 5.718 -1.831 0.27
-3.554 5.712 -1.831 0.26
-3.573 5.702 -1.831 0.26
-3.585 5.681 -1.828 0.3
-3.605 5.673 -1.829 0.25
-3.632 5.677 -1.834 0.28
-3.633 5.639 -1.825 0.18
-3.656 5.636 -1.828 0.3
-3.665 5.63 -1.828 0.23
-3.678 5.612 -1.826 0.28
-3.695 5.599 -1.825 0.28
-3.721 5.6 -1.829 0.27
-3.732 5.579 -1.826 0.26
-3.749 5.567 -1.826 0.27
-3.767 5.555 -1.826 0.27
-3.771 5.543 -1.824 0.2
-3.795 5.541 -1.827 0.28
-3.816 5.533 -1.829 0.25
-3.821 5.504 -1.823 0.25
-3.844 5.5 -1.826 0.27
-3.859 5.485 -1.824 0.27
-3.875 5.471 -1.824 0.26
-3.894 5.462 -1.825 0.27
-3.911 5.467 -1.829 0.22
-3.922 5.447 -1.826 0.24
-3.936 5.43 -1.824 0.25
-3.95 5.413 -1.823 0.27
-3.963 5.396 -1.821 0.26
-3.98 5.383 -1.821 0.25
-4.014 5.394 -1.829 0.24
-4.001 5.358 -1.819 0.21
-4.028 5.359 -1.824 0.28
-4.045 5.347 -1.824 0.23
-4.045 5.313 -1.816 0.18
-4.075 5.316 -1.822 0.26
-4.089 5.301 -1.821 0.25
-4.094 5.273 -1.816 0.2
-4.124 5.276 -1.822 0.27
-4.126 5.262 -1.819 0.23
-4.139 5.245 -1.817 0.18
-4.161 5.239 -1.82 0.27
-4.184 5.234 -1.823 0.21
-4.186 5.203 -1.816 0.12
-4.211 5.2 -1.82 0.21
-4.21 5.166 -1.812 0.18
-4.231 5.175 -1.818 0.27
-4.241 5.155 -1.816 0.23
-4.259 5.143 -1.816 0.19
-4.274 5.128 -1.816 0.27
-4.285 5.109 -1.813 0.21
-4.302 5.097 -1.814 0.18
-4.324 5.09 -1.817 0.26
-4.324 5.073 -1.813 0.23
-4.345 5.066 -1.815 0.17
-4.367 5.059 -1.818 0.26
-4.375 5.037 -1.814 0.19
-4.39 5.022 -1.814 0.22
-4.417 5.021 -1.819 0.21
-4.422 4.995 -1.814 0.12
-4.45 4.994 -1.819 0.18
-4.442 4.97 -1.813 0.11
-4.459 4.958 -1.813 0.21
-4.464 4.932 -1.809 0.17
-4.487 4.927 -1.812 0.26
-4.491 4.9 -1.807 0.23
-4.518 4.898 -1.812 0.2
-4.531 4.881 -1.811 0.25
-4.537 4.873 -1.811 0.19
-4.551 4.857 -1.81 0.25
-4.564 4.84 -1.809 0.22
-4.57 4.816 -1.805 0.18
-4.597 4.814 -1.81 0.26
-4.597 4.784 -1.804 0.22
-4.619 4.777 -1.807 0.2
-4.637 4.765 -1.808 0.26
-4.636 4.75 -1.804 0.23
-4.65 4.734 -1.804 0.19
-4.667 4.722 -1.805 0.26
-4.674 4.699 -1.802 0.25
-4.686 4.681 -1.8 0.26
-4.694 4.66 -1.798 0.17
-4.718 4.655 -1.802 0.28
-4.721 4.643 -1.8 0.25
-4.733 4.626 -1.799 0.28
-4.75 4.613 -1.8 0.27
-4.762 4.596 -1.799 0.27
-4.775 4.579 -1.798 0.28
-4.786 4.562 -1.797 0.26
-4.799 4.545 -1.797 0.29
-4.804 4.521 -1.793 0.27
-4.814 4.516 -1.794 0.26
-4.838 4.51 -1.798 0.28
-4.843 4.487 -1.794 0.27
-4.846 4.462 -1.79 0.27
-4.866 4.452 -1.792 0.29
-4.863 4.421 -1.785 0.25
-4.865 4.395 -1.781 0.23
-4.872 4.388 -1.781 0.3
-4.891 4.377 -1.783 0.36
-4.899 4.357 -1.781 0.38
-4.913 4.341 -1.781 0.4
-4.935 4.334 -1.784 0.36
-4.937 4.308 -1.78 0.38
-4.958 4.299 -1.783 0.37
-4.959 4.286 -1.78 0.38
-4.975 4.273 -1.782 0.39
-4.981 4.251 -1.779 0.39
-5.005 4.244 -1.783 0.33
-5.009 4.221 -1.779 0.43
-5.035 4.215 -1.784 0.35
-5.033 4.187 -1.778 0.45
-5.045 4.184 -1.78 0.46
-5.073 4.18 -1.786 0.46
-5.085 4.163 -1.785 0.29
-5.097 4.146 -1.785 0.33
-5.098 4.12 -1.78 0.27
-5.109 4.103 -1.78 0.32
-5.117 4.083 -1.778 0.29
-5.129 4.066 -1.778 0.3
-5.146 4.066 -1.782 0.29
-5.152 4.045 -1.779 0.32
-5.165 4.029 -1.779 0.3
-5.178 4.013 -1.779 0.3
-5.192 3.998 -1.78 0.3
-5.2 3.978 -1.778 0.27
-5.221 3.968 -1.782 0.3
-5.215 3.951 -1.777 0.3
-5.232 3.938 -1.779 0.29
-5.238 3.917 -1.777 0.31
-5.252 3.902 -1.777 0.31
-5.266 3.886 -1.778 0.29
-5.283 3.873 -1.779 0.29
-5.289 3.852 -1.777 0.3
-5.309 3.841 -1.78 0.29
-5.31 3.829 -1.778 0.29
-5.328 3.817 -1.78 0.3
-5.343 3.802 -1.782 0.3
-5.352 3.783 -1.78 0.3
-5.367 3.769 -1.782 0.3
-5.387 3.757 -1.784 0.3
-5.403 3.744 -1.786 0.32
-5.403 3.731 -1.784 0.28
-5.408 3.71 -1.782 0.3
-5.442 3.708 -1.789 0.32
-5.446 3.685 -1.787 0.28
-5.456 3.667 -1.786 0.33
-5.471 3.652 -1.787 0.27
-5.472 3.628 -1.784 0.29
-5.494 3.63 -1.789 0.29
-5.502 3.611 -1.788 0.29
-5.518 3.597 -1.79 0.33
-5.535 3.582 -1.792 0.29
-5.543 3.563 -1.79 0.28
-5.555 3.547 -1.791 0.32
-5.568 3.53 -1.792 0.35
-5.574 3.521 -1.792 0.3
-5.588 3.506 -1.793 0.31
-5.597 3.487 -1.792 0.3
-5.605 3.468 -1.791 0.31
-5.627 3.457 -1.795 0.3
-5.636 3.438 -1.794 0.29
-5.647 3.421 -1.794 0.3
-5.651 3.399 -1.792 0.31
-5.662 3.393 -1.794 0.26
-5.672 3.375 -1.794 0.28
-5.686 3.359 -1.795 0.31
-5.692 3.339 -1.793 0.28
-5.697 3.318 -1.792 0.31
-5.729 3.312 -1.799 0.27
-5.731 3.29 -1.796 0.28
-5.735 3.28 -1.795 0.29
-5.75 3.264 -1.797 0.29
-5.762 3.247 -1.798 0.3
-5.777 3.232 -1.799 0.28
-5.791 3.216 -1.8 0.28
-5.794 3.194 -1.798 0.29
-5.789 3.167 -1.793 0.32
-5.812 3.156 -1.798 0.26
-5.816 3.146 -1.797 0.27
-5.827 3.129 -1.798 0.3
-5.835 3.11 -1.797 0.3
-5.845 3.091 -1.797 0.29
-5.851 3.071 -1.796 0.3
-5.863 3.054 -1.797 0.26
-5.881 3.04 -1.799 0.29
-5.889 3.032 -1.8 0.27
-5.89 3.009 -1.798 0.27
-5.906 2.994 -1.8 0.29
-5.905 2.97 -1.797 0.25
-5.928 2.959 -1.801 0.32
-5.929 2.936 -1.798 0.27
-5.945 2.921 -1.8 0.3
-5.948 2.91 -1.8 0.29
-5.955 2.891 -1.799 0.3
-5.968 2.874 -1.8 0.3
-5.97 2.852 -1.798 0.28
-5.987 2.837 -1.801 0.29
-5.993 2.817 -1.8 0.28
-5.995 2.795 -1.798 0.29
-6.008 2.789 -1.8 0.32
-6.006 2.765 -1.797 0.31
-6.011 2.745 -1.796 0.2
-6.02 2.726 -1.796 0.3
-6.032 2.709 -1.797 0.25
-6.037 2.688 -1.796 0.27
-6.056 2.674 -1.799 0.26
-6.056 2.663 -1.798 0.12
-6.051 2.638 -1.794 0.19
-6.054 2.616 -1.792 0.05
-6.074 2.603 -1.796 0.0
-6.059 2.574 -1.789 0.0
-6.069 2.556 -1.789 0.0
-6.075 2.536 -1.789 0.0
-6.032 2.496 -1.773 0.0
-6.393 1.724 -1.8 0.0
-6.39 1.713 -1.798 0.0
-6.399 1.694 -1.799 0.06
-6.433 1.681 -1.808 0.14
-6.436 1.66 -1.807 0.24
-6.434 1.638 -1.805 0.25
-6.452 1.621 -1.809 0.26
-6.449 1.599 -1.807 0.25
-6.46 1.58 -1.808 0.29
-6.47 1.572 -1.811 0.27
-6.464 1.549 -1.807 0.28
-6.474 1.53 -1.809 0.28
-6.481 1.51 -1.809 0.28
-6.482 1.488 -1.808 0.25
-6.5 1.471 -1.812 0.27
-6.495 1.448 -1.809 0.3
-6.488 1.436 -1.807 0.29
-6.5 1.417 -1.809 0.28
-6.517 1.4 -1.813 0.27
-6.501 1.375 -1.807 0.27
-6.516 1.357 -1.81 0.25
-6.524 1.337 -1.811 0.28
-6.532 1.317 -1.812 0.29
-6.533 1.296 -1.811 0.29
-6.531 1.285 -1.81 0.26
-6.535 1.265 -1.81 0.28
-6.537 1.244 -1.809 0.29
-6.545 1.224 -1.811 0.27
-6.535 1.201 -1.807 0.21
-6.545 1.181 -1.808 0.29
-6.548 1.161 -1.808 0.25
-6.567 1.154 -1.813 0.25
-6.558 1.131 -1.809 0.18
-6.563 1.11 -1.81 0.29
-6.566 1.09 -1.81 0.25
-6.576 1.07 -1.812 0.27
-6.581 1.05 -1.812 0.26
-6.59 1.03 -1.814 0.27
-6.597 1.01 -1.815 0.26
-6.602 1.0 -1.816 0.24
-6.588 0.977 -1.811 0.21
-6.599 0.957 -1.813 0.27
-6.606 0.937 -1.814 0.24
-6.608 0.916 -1.814 0.19
-6.617 0.896 -1.816 0.27
-6.625 0.876 -1.818 0.22
-6.629 0.866 -1.818 0.2
-6.624 0.844 -1.816 0.24
-6.623 0.823 -1.815 0.22
-6.627 0.802 -1.816 0.19
-6.641 0.783 -1.819 0.26
-6.632 0.761 -1.816 0.2
-6.646 0.741 -1.819 0.25
-6.647 0.73 -1.819 0.19
-6.657 0.71 -1.821 0.24
-6.65 0.689 -1.818 0.2
-6.659 0.668 -1.821 0.23
-6.665 0.648 -1.822 0.2
-6.656 0.626 -1.818 0.23
-6.665 0.606 -1.821 0.19
-6.676 0.596 -1.823 0.21
-6.674 0.575 -1.822 0.19
-6.668 0.553 -1.82 0.23
-6.724 0.547 -1.836 0.2
-6.726 0.526 -1.836 0.22
-6.728 0.505 -1.836 0.19
-6.737 0.484 -1.838 0.22
-6.727 0.462 -1.835 0.19
-6.722 0.441 -1.833 0.23
-6.723 0.43 -1.833 0.18
-6.732 0.409 -1.836 0.25
-6.716 0.387 -1.831 0.19
-6.729 0.367 -1.834 0.25
-6.713 0.345 -1.829 0.23
-6.718 0.324 -1.83 0.19
-6.72 0.303 -1.831 0.27
-6.712 0.281 -1.828 0.23
-6.703 0.27 -1.825 0.16
-6.723 0.25 -1.831 0.29
-6.714 0.229 -1.828 0.25
-6.72 0.208 -1.829 0.26
-6.721 0.187 -1.829 0.23
-6.7 0.165 -1.823 0.2
-6.718 0.144 -1.828 0.29
-6.713 0.134 -1.827 0.25
-6.711 0.113 -1.826 0.28
-6.715 0.091 -1.827 0.27
-6.729 0.07 -1.831 0.26
-6.727 0.049 -1.831 0.27
-6.725 0.028 -1.83 0.29
-6.733 0.007 -1.832 0.28
-6.729 -0.004 -1.831 0.29
-6.718 -0.025 -1.828 0.3
-6.735 -0.046 -1.833 0.27
-6.721 -0.067 -1.829 0.3
-6.729 -0.088 -1.831 0.29
-6.732 -0.109 -1.832 0.28
-6.726 -0.13 -1.831 0.29
-6.734 -0.141 -1.833 0.27
-6.743 -0.162 -1.836 0.26
-6.736 -0.183 -1.834 0.28
-6.743 -0.205 -1.836 0.29
-6.743 -0.226 -1.836 0.27
-6.742 -0.247 -1.836 0.29
-6.741 -0.268 -1.836 0.29
-6.717 -0.289 -1.829 0.2
-6.732 -0.3 -1.834 0.3
-6.725 -0.321 -1.832 0.24
-6.736 -0.342 -1.836 0.27
-6.729 -0.363 -1.834 0.28
-6.722 -0.384 -1.832 0.27
-6.721 -0.405 -1.832 0.29
-6.723 -0.427 -1.833 0.29
-6.727 -0.437 -1.834 0.26
-6.754 -0.461 -1.843 0.25
-6.735 -0.48 -1.838 0.27
-6.714 -0.5 -1.832 0.18
-6.73 -0.523 -1.837 0.29
-6.719 -0.543 -1.834 0.24
-6.725 -0.565 -1.837 0.27
-6.744 -0.588 -1.843 0.26
-6.72 -0.596 -1.836 0.23
-6.728 -0.618 -1.839 0.25
-6.728 -0.64 -1.839 0.25
-6.712 -0.659 -1.836 0.19
-6.712 -0.681 -1.836 0.28
-6.718 -0.703 -1.838 0.25
-6.704 -0.722 -1.835 0.2
-6.72 -0.735 -1.84 0.26
-6.714 -0.756 -1.839 0.22
-6.702 -0.775 -1.836 0.2
-6.705 -0.797 -1.838 0.25
-6.706 -0.819 -1.839 0.23
-6.692 -0.838 -1.836 0.18
-6.707 -0.862 -1.841 0.27
-6.698 -0.871 -1.838 0.23
-6.691 -0.892 -1.837 0.2
-6.711 -0.916 -1.844 0.25
-6.71 -0.937 -1.845 0.18
-6.696 -0.957 -1.841 0.25
-6.691 -0.977 -1.841 0.2
-6.692 -0.999 -1.842 0.25
-6.675 -1.007 -1.837 0.22
-6.674 -1.028 -1.838 0.2
-6.678 -1.051 -1.84 0.23
-6.669 -1.071 -1.838 0.23
-6.665 -1.092 -1.838 0.19
-6.658 -1.112 -1.837 0.26
-6.651 -1.132 -1.836 0.25
-6.64 -1.152 -1.834 0.2
-6.653 -1.165 -1.838 0.27
-6.632 -1.183 -1.833 0.25
-6.629 -1.203 -1.833 0.2
-6.642 -1.227 -1.838 0.28
-6.621 -1.245 -1.833 0.25
-6.626 -1.268 -1.836 0.27
-6.617 -1.287 -1.834 0.28
-6.615 -1.298 -1.834 0.29
-6.611 -1.319 -1.834 0.26
-6.616 -1.341 -1.837 0.29
-6.617 -1.363 -1.839 0.29
-6.602 -1.382 -1.836 0.28
-6.614 -1.406 -1.841 0.28
-6.604 -1.426 -1.839 0.29
-6.6 -1.435 -1.838 0.29
-6.607 -1.459 -1.842 0.28
-6.6 -1.479 -1.841 0.29
-6.579 -1.496 -1.836 0.3
-6.591 -1.52 -1.841 0.28
-6.575 -1.539 -1.838 0.27
-6.587 -1.563 -1.843 0.26
-6.602 -1.589 -1.849 0.32
-6.609 -1.602 -1.852 0.27
-6.628 -1.628 -1.859 0.28
-6.632 -1.652 -1.862 0.31
-6.586 -1.662 -1.85 0.27
-6.6 -1.687 -1.855 0.32
-6.585 -1.706 -1.852 0.28
-6.57 -1.724 -1.85 0.26
-6.556 -1.731 -1.846 0.32
-6.534 -1.747 -1.841 0.3
-6.536 -1.77 -1.843 0.32
-6.545 -1.794 -1.848 0.4
-6.512 -1.807 -1.839 0.29
-6.449 -1.811 -1.822 0.28
-6.382 -1.814 -1.804 0.29
-6.319 -1.817 -1.787 0.28
-6.259 -1.811 -1.769 0.3
-6.193 -1.812 -1.751 0.31
-6.138 -1.817 -1.736 0.28
-6.069 -1.817 -1.717 0.28
-6.01 -1.82 -1.701 0.27
-5.959 -1.824 -1.687 0.2
-5.953 -1.843 -1.687 0.3
-5.954 -1.854 -1.688 0.23
-5.935 -1.868 -1.684 0.05
-5.951 -1.894 -1.691 0.0
-5.925 -1.906 -1.685 0.0
-5.921 -1.925 -1.685 0.0
-5.902 -1.94 -1.681 0.0
-5.927 -1.968 -1.691 0.0
-5.969 -1.993 -1.705 0.0
-5.769 -2.795 -1.739 0.0
-5.698 -2.782 -1.719 0.04
-5.664 -2.787 -1.71 0.14
-5.624 -2.79 -1.7 0.1
-5.572 -2.786 -1.686 0.18
-5.531 -2.787 -1.676 0.11
-5.471 -2.778 -1.659 0.18
-5.417 -2.761 -1.643 0.19
-5.354 -2.75 -1.625 0.09
-5.347 -2.767 -1.626 0.0
-5.297 -2.763 -1.612 0.0
-5.268 -2.768 -1.605 0.0
-5.298 -2.806 -1.618 0.0
-5.724 -3.057 -1.761 0.03
-5.801 -3.121 -1.79 0.17
-5.775 -3.119 -1.783 0.12
-5.777 -3.144 -1.787 0.19
-5.757 -3.157 -1.784 0.05
-5.712 -3.155 -1.772 0.16
-5.722 -3.184 -1.779 0.19
-5.744 -3.22 -1.789 0.09
-5.766 -3.256 -1.8 0.18
-5.749 -3.259 -1.796 0.23
-5.744 -3.28 -1.798 0.22
-5.737 -3.3 -1.799 0.21
-5.723 -3.316 -1.798 0.16
-5.707 -3.331 -1.796 0.24
-5.677 -3.337 -1.789 0.23
-5.685 -3.365 -1.795 0.11
-5.714 -3.395 -1.807 0.2
-5.72 -3.423 -1.813 0.2
-5.706 -3.439 -1.812 0.28
-5.674 -3.444 -1.804 0.2
-5.653 -3.456 -1.801 0.23
-5.657 -3.482 -1.806 0.25
-5.667 -3.513 -1.813 0.25
-5.658 -3.532 -1.814 0.26
-5.634 -3.53 -1.808 0.23
-5.61 -3.539 -1.803 0.24
-5.58 -3.544 -1.797 0.29
-5.543 -3.545 -1.788 0.24
-5.576 -3.592 -1.803 0.25
-5.541 -3.594 -1.795 0.25
-5.559 -3.63 -1.805 0.34
-5.53 -3.624 -1.797 0.3
-5.537 -3.653 -1.803 0.3
-5.54 -3.68 -1.808 0.25
-5.53 -3.699 -1.809 0.28
-5.512 -3.712 -1.807 0.29
-5.49 -3.722 -1.803 0.32
-5.482 -3.742 -1.804 0.28
-5.458 -3.738 -1.798 0.32
-5.44 -3.751 -1.796 0.25
-5.44 -3.776 -1.8 0.23
-5.395 -3.77 -1.788 0.32
-5.375 -3.781 -1.785 0.29
-5.347 -3.787 -1.78 0.26
-5.332 -3.801 -1.779 0.27
-5.325 -3.809 -1.778 0.2
-5.297 -3.814 -1.773 0.28
-5.287 -3.832 -1.773 0.25
-5.284 -3.855 -1.777 0.2
-5.263 -3.865 -1.773 0.27
-5.244 -3.877 -1.771 0.24
-5.241 -3.9 -1.774 0.2
-5.223 -3.912 -1.772 0.28
-5.208 -3.913 -1.769 0.24
-5.2 -3.933 -1.77 0.19
-5.186 -3.948 -1.77 0.27
-5.183 -3.972 -1.773 0.23
-5.181 -3.996 -1.777 0.21
-5.158 -4.004 -1.773 0.25
-5.16 -4.032 -1.779 0.23
-5.163 -4.047 -1.782 0.19
-5.134 -4.05 -1.776 0.27
-5.107 -4.056 -1.771 0.23
-5.087 -4.066 -1.768 0.15
-5.119 -4.118 -1.785 0.16
-5.07 -4.105 -1.772 0.21
-5.04 -4.106 -1.765 0.17
-5.032 -4.113 -1.764 0.26
-5.0 -4.113 -1.757 0.22
-5.003 -4.142 -1.763 0.11
-5.009 -4.174 -1.77 0.21
-4.972 -4.17 -1.761 0.21
-4.949 -4.176 -1.758 0.24
-4.914 -4.173 -1.749 0.23
-4.907 -4.194 -1.751 0.18
-4.907 -4.208 -1.754 0.33
-4.872 -4.204 -1.746 0.26
-4.847 -4.209 -1.741 0.2
-4.826 -4.217 -1.738 0.23
-4.802 -4.223 -1.734 0.19
-4.783 -4.233 -1.732 0.25
-4.751 -4.231 -1.725 0.25
-4.738 -4.232 -1.722 0.26
-4.721 -4.245 -1.721 0.27
-4.697 -4.249 -1.716 0.28
-4.661 -4.243 -1.707 0.29
-4.636 -4.247 -1.703 0.27
-4.606 -4.246 -1.696 0.27
-4.577 -4.246 -1.69 0.26
-4.558 -4.241 -1.685 0.25
-4.53 -4.243 -1.68 0.27
-4.491 -4.232 -1.669 0.27
-4.479 -4.247 -1.67 0.29
-4.45 -4.246 -1.663 0.29
-4.423 -4.247 -1.658 0.26
-4.377 -4.229 -1.644 0.19
-4.363 -4.229 -1.642 0.28
-4.324 -4.217 -1.631 0.25
-4.293 -4.213 -1.624 0.21
-4.269 -4.216 -1.619 0.13
-4.236 -4.21 -1.612 0.21
-4.211 -4.211 -1.607 0.11
-4.195 -4.221 -1.605 0.0
-4.168 -4.221 -1.6 0.0
-4.147 -4.212 -1.594 0.0
-4.14 -4.232 -1.597 0.0
-4.203 -4.324 -1.628 0.0
-4.315 -4.469 -1.681 0.01
-4.373 -4.558 -1.711 0.12
-4.401 -4.616 -1.729 0.2
-4.42 -4.666 -1.744 0.28
-4.408 -4.668 -1.741 0.26
-4.372 -4.659 -1.733 0.33
-4.362 -4.677 -1.734 0.3
-4.335 -4.678 -1.729 0.3
-4.317 -4.687 -1.727 0.26
-4.315 -4.715 -1.733 0.28
-4.288 -4.716 -1.728 0.29
-4.265 -4.705 -1.721 0.34
-4.24 -4.707 -1.717 0.27
-4.218 -4.712 -1.714 0.28
-4.188 -4.708 -1.707 0.23
-4.19 -4.74 -1.714 0.34
-4.175 -4.753 -1.714 0.27
-4.136 -4.738 -1.704 0.38
-4.121 -4.736 -1.7 0.32
-4.106 -4.749 -1.7 0.29
-4.064 -4.73 -1.688 0.29
-4.08 -4.779 -1.702 0.34
-4.04 -4.762 -1.691 0.26
-4.004 -4.75 -1.681 0.27
-3.995 -4.77 -1.684 0.29
-3.991 -4.781 -1.686 0.27
-3.968 -4.783 -1.682 0.21
-3.958 -4.801 -1.684 0.27
-3.917 -4.782 -1.672 0.31
-3.904 -4.798 -1.673 0.25
-3.886 -4.805 -1.672 0.26
-3.884 -4.834 -1.678 0.29
-3.848 -4.821 -1.668 0.27
-3.832 -4.816 -1.665 0.29
-3.814 -4.824 -1.663 0.29
-3.806 -4.845 -1.666 0.31
-3.797 -4.866 -1.67 0.33
-3.752 -4.838 -1.655 0.19
-3.736 -4.85 -1.655 0.3
-3.71 -4.846 -1.649 0.23
-3.694 -4.841 -1.646 0.26
-3.666 -4.836 -1.639 0.25
-3.657 -4.855 -1.642 0.32
-3.658 -4.89 -1.651 0.38
-3.628 -4.881 -1.643 0.29
-3.6 -4.875 -1.637 0.23
-3.575 -4.873 -1.632 0.26
-3.572 -4.885 -1.634 0.26
-3.559 -4.899 -1.636 0.32
-3.547 -4.915 -1.637 0.33
-3.519 -4.909 -1.631 0.27
-3.5 -4.915 -1.629 0.31
-3.491 -4.935 -1.633 0.37
-3.456 -4.918 -1.623 0.25
-3.441 -4.912 -1.619 0.32
-3.443 -4.948 -1.628 0.32
-3.424 -4.954 -1.626 0.25
-3.405 -4.96 -1.624 0.34
-3.386 -4.966 -1.623 0.34
-3.361 -4.963 -1.618 0.39
-3.364 -5.002 -1.628 0.38
-3.367 -5.04 -1.637 0.21
-3.351 -5.034 -1.633 0.27
-3.34 -5.051 -1.636 0.38
-3.321 -5.056 -1.634 0.36
-3.302 -5.062 -1.632 0.26
-3.302 -5.098 -1.641 0.42
-3.286 -5.108 -1.641 0.3
-3.231 -5.057 -1.62 0.21
-3.226 -5.067 -1.622 0.27
-3.218 -5.089 -1.626 0.23
-3.212 -5.115 -1.631 0.21
-3.19 -5.115 -1.628 0.26
-3.17 -5.12 -1.626 0.29
-3.157 -5.135 -1.628 0.41
-3.168 -5.189 -1.643 0.27
-3.173 -5.216 -1.65 0.3
-3.142 -5.201 -1.642 0.29
-3.124 -5.209 -1.641 0.28
-3.104 -5.212 -1.639 0.3
-3.094 -5.234 -1.643 0.33
-3.064 -5.22 -1.635 0.3
-3.047 -5.228 -1.634 0.38
-3.057 -5.284 -1.65 0.25
-3.039 -5.271 -1.644 0.25
-2.981 -5.208 -1.62 0.3
-2.964 -5.216 -1.619 0.34
-2.948 -5.225 -1.619 0.21
-2.951 -5.27 -1.631 0.3
-2.967 -5.338 -1.651 0.22
-2.963 -5.371 -1.658 0.25
-2.96 -5.386 -1.662 0.19
-2.947 -5.403 -1.665 0.29
-2.935 -5.421 -1.667 0.22
-2.87 -5.34 -1.638 0.27
-2.903 -5.444 -1.669 0.26
-2.877 -5.435 -1.663 0.27
-2.849 -5.423 -1.656 0.23
-2.846 -5.438 -1.66 0.16
-2.85 -5.49 -1.673 0.3
-2.834 -5.5 -1.674 0.23
-2.827 -5.53 -1.681 0.24
-2.819 -5.558 -1.687 0.33
-2.783 -5.529 -1.675 0.28
-2.729 -5.463 -1.651 0.28
-2.742 -5.511 -1.665 0.27
-2.724 -5.519 -1.665 0.29
-2.72 -5.555 -1.673 0.26
-2.702 -5.562 -1.673 0.23
-2.683 -5.567 -1.672 0.32
-2.661 -5.567 -1.669 0.29
-2.636 -5.56 -1.664 0.32
-2.62 -5.548 -1.659 0.2
-2.596 -5.542 -1.655 0.38
-2.589 -5.573 -1.662 0.25
-2.566 -5.569 -1.658 0.25
-2.553 -5.586 -1.661 0.35
-2.538 -5.599 -1.662 0.27
-2.518 -5.602 -1.661 0.3
-2.513 -5.614 -1.663 0.29
-2.485 -5.599 -1.656 0.29
-2.473 -5.62 -1.66 0.41
-2.438 -5.587 -1.647 0.28
-2.422 -5.6 -1.649 0.29
-2.401 -5.598 -1.646 0.2
-2.375 -5.586 -1.64 0.27
-2.356 -5.59 -1.639 0.2
-2.347 -5.594 -1.639 0.25
-2.323 -5.585 -1.634 0.18
-2.308 -5.598 -1.636 0.23
-2.288 -5.6 -1.634 0.19
-2.273 -5.612 -1.636 0.25
-2.265 -5.644 -1.643 0.21
-2.253 -5.668 -1.648 0.31
-2.249 -5.682 -1.652 0.27
-2.227 -5.678 -1.648 0.27
-2.212 -5.692 -1.651 0.26
-2.186 -5.678 -1.644 0.2
-2.164 -5.674 -1.641 0.27
-2.142 -5.672 -1.638 0.23
-2.129 -5.689 -1.641 0.2
-2.114 -5.676 -1.636 0.25
-2.093 -5.676 -1.634 0.2
-2.074 -5.678 -1.633 0.25
-2.045 -5.654 -1.623 0.23
-2.029 -5.666 -1.625 0.23
-2.016 -5.685 -1.629 0.25
-1.999 -5.693 -1.629 0.23
-1.979 -5.694 -1.628 0.2
-1.971 -5.701 -1.629 0.25
-1.947 -5.689 -1.623 0.23
-1.929 -5.693 -1.623 0.18
-1.912 -5.701 -1.623 0.27
-1.891 -5.7 -1.621 0.24
-1.872 -5.702 -1.62 0.19
-1.855 -5.711 -1.621 0.27
-1.842 -5.701 -1.617 0.25
-1.826 -5.713 -1.619 0.26
-1.811 -5.728 -1.622 0.25
-1.783 -5.7 -1.612 0.18
-1.769 -5.72 -1.616 0.28
-1.745 -5.704 -1.609 0.25
-1.726 -5.706 -1.608 0.2
-1.72 -5.718 -1.611 0.28
-1.697 -5.708 -1.607 0.25
-1.68 -5.715 -1.607 0.25
-1.658 -5.708 -1.603 0.21
-1.638 -5.705 -1.601 0.28
-1.621 -5.712 -1.602 0.25
-1.605 -5.727 -1.604 0.23
-1.583 -5.681 -1.59 0.24
-1.568 -5.697 -1.593 0.24
-1.554 -5.715 -1.597 0.27
-1.531 -5.703 -1.592 0.27
-1.515 -5.715 -1.594 0.26
-1.497 -5.716 -1.593 0.26
-1.475 -5.708 -1.589 0.27
-1.465 -5.707 -1.588 0.27
-1.445 -5.702 -1.585 0.27
-1.428 -5.71 -1.587 0.26
-1.406 -5.698 -1.582 0.21
-1.392 -5.719 -1.587 0.27
-1.374 -5.723 -1.587 0.25
-1.353 -5.713 -1.582 0.27
-1.333 -5.709 -1.58 0.26
-1.322 -5.702 -1.577 0.26
-1.303 -5.702 -1.576 0.25
-1.286 -5.708 -1.576 0.27
-1.268 -5.712 -1.576 0.27
-1.249 -5.713 -1.575 0.2
-1.23 -5.709 -1.573 0.28
-1.21 -5.707 -1.571 0.24
-1.199 -5.696 -1.568 0.2
-1.183 -5.713 -1.571 0.27
-1.161 -5.694 -1.565 0.25
-1.143 -5.698 -1.565 0.27
-1.125 -5.699 -1.564 0.2
-1.108 -5.708 -1.566 0.28
-1.089 -5.706 -1.564 0.25
-1.08 -5.708 -1.564 0.2
-1.061 -5.704 -1.562 0.28
-1.041 -5.698 -1.559 0.25
-1.022 -5.693 -1.557 0.27
-1.005 -5.702 -1.559 0.23
-0.984 -5.688 -1.554 0.17
-0.969 -5.706 -1.558 0.28
-0.958 -5.698 -1.555 0.24
-0.939 -5.694 -1.553 0.19
-0.922 -5.701 -1.554 0.27
-0.903 -5.694 -1.551 0.25
-0.885 -5.699 -1.552 0.2
-0.868 -5.709 -1.554 0.26
-0.85 -5.71 -1.554 0.23
-0.838 -5.688 -1.547 0.2
-0.821 -5.7 -1.55 0.27
-0.801 -5.688 -1.545 0.25
-0.784 -5.698 -1.548 0.21
-0.767 -5.706 -1.549 0.25
-0.748 -5.697 -1.546 0.24
-0.729 -5.694 -1.544 0.19
-0.721 -5.7 -1.546 0.27
-0.703 -5.699 -1.545 0.23
-0.684 -5.693 -1.543 0.19
-0.666 -5.699 -1.544 0.26
-0.647 -5.688 -1.54 0.24
-0.629 -5.69 -1.54 0.18
-0.612 -5.696 -1.541 0.27
-0.602 -5.695 -1.54 0.24
-0.583 -5.683 -1.536 0.18
-0.567 -5.706 -1.543 0.26
-0.548 -5.696 -1.539 0.24
-0.529 -5.683 -1.535 0.19
-0.512 -5.696 -1.538 0.27
-0.493 -5.686 -1.535 0.23
