# .PCD v.7 - Point Cloud Data file format
VERSION .7
FIELDS x y z intensity
SIZE 4 4 4 4
TYPE F F F F
COUNT 1 1 1 1
WIDTH 1840
HEIGHT 1
VIEWPOINT 0 0 0 1 0 0 0
POINTS 1840
DATA ascii
15.313 14.591 -0.238 0.28
17.295 16.58 -0.297 0.27
17.105 16.501 -0.293 0.32
17.04 16.542 -0.293 0.19
15.234 14.886 -0.242 0.37
16.846 16.56 -0.29 0.3
16.989 16.806 -0.296 0.2
16.89 16.814 -0.295 0.36
16.742 16.719 -0.291 0.33
16.661 16.743 -0.29 0.24
16.513 16.699 -0.287 0.31
16.449 16.739 -0.287 0.26
16.478 16.874 -0.289 0.26
16.284 16.781 -0.285 0.34
17.925 18.585 -0.336 0.26
16.252 16.906 -0.287 0.27
17.737 18.565 -0.333 0.29
16.155 17.018 -0.287 0.3
16.089 17.056 -0.287 0.18
17.701 18.88 -0.338 0.0
17.772 19.074 -0.342 0.0
17.653 19.067 -0.34 0.0
17.582 19.051 -0.338 0.0
17.458 19.035 -0.336 0.0
17.372 19.062 -0.336 0.11
16.838 18.712 -0.323 0.34
16.745 18.726 -0.322 0.38
16.692 18.786 -0.322 0.55
15.095 17.046 -0.272 0.2
14.151 16.185 -0.246 0.54
14.026 16.145 -0.243 0.36
13.957 16.168 -0.243 0.38
13.883 16.185 -0.242 0.38
13.81 16.202 -0.241 0.46
13.791 16.284 -0.242 0.41
13.755 16.293 -0.242 0.32
13.696 16.327 -0.242 0.32
13.619 16.339 -0.241 0.33
13.539 16.347 -0.24 0.33
13.461 16.357 -0.239 0.31
13.393 16.379 -0.239 0.34
13.312 16.385 -0.238 0.25
13.19 16.288 -0.234 0.18
13.226 16.437 -0.237 0.14
14.125 17.664 -0.269 0.28
14.145 17.804 -0.272 0.19
14.156 17.933 -0.274 0.18
12.876 16.421 -0.232 0.23
12.812 16.446 -0.232 0.33
12.721 16.435 -0.231 0.34
12.659 16.408 -0.229 0.34
12.613 16.455 -0.23 0.3
12.553 16.484 -0.229 0.4
12.483 16.499 -0.229 0.34
14.168 18.843 -0.289 0.12
14.177 18.978 -0.292 0.17
14.197 19.13 -0.294 0.28
14.244 19.257 -0.297 0.13
12.133 16.518 -0.225 0.35
12.063 16.53 -0.224 0.34
11.993 16.544 -0.223 0.3
11.921 16.554 -0.223 0.37
11.848 16.562 -0.222 0.3
11.776 16.571 -0.221 0.36
11.732 16.564 -0.22 0.3
11.655 16.566 -0.22 0.21
11.521 16.485 -0.217 0.37
11.452 16.496 -0.216 0.41
11.384 16.509 -0.215 0.39
11.317 16.523 -0.215 0.41
11.251 16.537 -0.214 0.4
11.241 16.636 -0.216 0.42
11.286 16.758 -0.219 0.4
11.3 16.893 -0.221 0.35
11.316 17.033 -0.224 0.42
11.33 17.17 -0.226 0.35
11.339 17.301 -0.229 0.41
11.354 17.443 -0.231 0.4
11.379 17.602 -0.234 0.29
11.426 17.735 -0.237 0.56
11.74 18.347 -0.252 0.21
8.994 14.164 -0.147 0.18
8.929 14.16 -0.146 0.55
8.874 14.171 -0.145 0.27
8.789 14.135 -0.144 0.37
8.771 14.205 -0.145 0.31
8.714 14.213 -0.144 0.36
8.673 14.196 -0.144 0.41
8.629 14.224 -0.144 0.34
8.599 14.276 -0.144 0.41
8.576 14.339 -0.145 0.26
8.557 14.409 -0.146 0.54
8.517 14.446 -0.147 0.38
8.478 14.483 -0.147 0.24
8.531 14.626 -0.15 0.36
8.689 15.004 -0.158 0.19
11.298 19.634 -0.27 0.16
11.234 19.666 -0.27 0.27
11.168 19.695 -0.27 0.27
11.079 19.681 -0.268 0.2
10.998 19.681 -0.268 0.18
10.755 19.463 -0.261 0.32
10.686 19.483 -0.261 0.36
10.613 19.493 -0.26 0.46
10.544 19.512 -0.26 0.36
10.467 19.517 -0.259 0.46
10.51 19.746 -0.264 0.39
10.354 19.6 -0.26 0.11
10.342 19.652 -0.261 0.35
10.274 19.674 -0.26 0.23
10.252 19.782 -0.262 0.26
10.173 19.782 -0.261 0.2
10.112 19.816 -0.261 0.41
10.034 19.817 -0.261 0.25
9.952 19.809 -0.26 0.17
9.93 19.843 -0.26 0.45
9.846 19.829 -0.259 0.23
9.768 19.83 -0.258 0.23
9.527 19.651 -0.253 0.36
9.451 19.652 -0.252 0.46
9.386 19.675 -0.252 0.3
9.342 19.663 -0.251 0.61
9.258 19.645 -0.25 0.35
9.236 19.759 -0.252 0.18
9.166 19.77 -0.252 0.19
7.144 15.55 -0.154 0.32
7.088 15.557 -0.153 0.32
7.048 15.598 -0.154 0.37
7.013 15.653 -0.155 0.42
8.881 19.886 -0.252 0.3
8.808 19.892 -0.251 0.31
8.743 19.912 -0.251 0.31
8.674 19.927 -0.251 0.31
8.585 19.892 -0.249 0.32
8.394 19.791 -0.246 0.37
8.359 19.795 -0.245 0.39
8.287 19.799 -0.245 0.47
8.219 19.81 -0.245 0.38
8.15 19.821 -0.244 0.43
8.083 19.833 -0.244 0.5
6.51 16.132 -0.16 0.3
6.456 16.145 -0.159 0.27
7.878 19.864 -0.243 0.36
6.557 16.621 -0.17 0.41
6.289 16.091 -0.157 0.25
6.267 16.185 -0.159 0.39
6.243 16.276 -0.16 0.18
6.036 15.886 -0.151 0.4
6.038 16.041 -0.154 0.31
5.963 15.997 -0.153 0.26
5.931 15.987 -0.152 0.44
5.958 16.214 -0.157 0.29
5.899 16.21 -0.157 0.28
5.727 15.894 -0.149 0.36
5.682 15.927 -0.149 0.4
5.722 16.197 -0.155 0.39
5.681 16.245 -0.156 0.22
5.626 16.169 -0.154 0.41
5.668 16.453 -0.16 0.24
5.54 16.25 -0.155 0.24
5.45 16.152 -0.152 0.36
5.441 16.294 -0.155 0.21
5.411 16.373 -0.156 0.33
5.415 16.561 -0.16 0.2
5.358 16.563 -0.16 0.0
5.533 17.193 -0.174 0.13
5.492 17.251 -0.175 0.23
5.425 17.228 -0.174 0.21
5.231 16.798 -0.164 0.34
5.154 16.736 -0.162 0.38
6.117 20.07 -0.235 0.22
6.052 20.081 -0.235 0.27
6.018 20.083 -0.235 0.45
5.956 20.104 -0.235 0.33
5.903 20.159 -0.235 0.61
5.833 20.154 -0.235 0.32
5.778 20.201 -0.235 0.25
5.738 20.304 -0.237 0.3
5.682 20.347 -0.238 0.2
5.645 20.34 -0.238 0.17
5.577 20.343 -0.237 0.23
5.512 20.356 -0.237 0.11
5.448 20.371 -0.237 0.15
5.382 20.381 -0.237 0.12
5.313 20.378 -0.236 0.17
5.246 20.385 -0.236 0.27
5.169 20.351 -0.235 0.16
5.112 20.258 -0.233 0.15
5.032 20.212 -0.232 0.38
4.97 20.234 -0.232 0.38
4.901 20.228 -0.231 0.47
4.841 20.257 -0.232 0.3
4.774 20.256 -0.231 0.49
4.712 20.281 -0.231 0.31
4.641 20.263 -0.231 0.62
4.611 20.278 -0.231 0.38
3.41 15.248 -0.123 0.17
4.522 20.48 -0.235 0.53
4.546 20.898 -0.243 0.2
4.569 21.325 -0.252 0.27
4.516 21.406 -0.254 0.33
4.451 21.428 -0.254 0.51
4.42 21.45 -0.254 0.24
4.664 22.99 -0.287 0.26
4.547 23.156 -0.29 0.58
2.974 15.445 -0.125 0.2
2.869 15.159 -0.118 0.25
2.936 15.782 -0.131 0.35
3.314 17.949 -0.178 0.31
2.796 15.437 -0.124 0.23
3.832 21.484 -0.252 0.16
3.767 21.506 -0.253 0.31
3.699 21.517 -0.253 0.55
2.888 17.153 -0.16 0.22
3.336 20.175 -0.224 0.4
3.273 20.184 -0.224 0.43
3.24 20.181 -0.223 0.23
3.177 20.197 -0.224 0.44
3.111 20.193 -0.223 0.46
3.093 20.501 -0.23 0.18
3.079 20.845 -0.237 0.76
3.017 20.88 -0.237 0.19
2.833 20.759 -0.234 0.59
4.82 36.023 -0.557 0.39
2.705 20.792 -0.235 0.0
5.269 41.324 -0.668 0.15
2.574 20.807 -0.235 0.0
9.587 78.95 -1.463 0.0
2.477 20.827 -0.235 0.0
9.109 78.091 -1.443 0.06
4.128 36.503 -0.565 0.23
4.002 36.419 -0.563 0.26
3.577 33.54 -0.502 0.22
3.469 33.523 -0.502 0.19
2.04 21.101 -0.239 0.62
2.67 27.985 -0.384 0.12
1.917 20.855 -0.234 0.18
1.855 20.899 -0.235 0.54
1.787 20.883 -0.234 0.75
1.682 20.416 -0.224 0.34
1.617 20.405 -0.224 0.31
1.551 20.394 -0.224 0.63
1.487 20.395 -0.224 0.17
1.444 20.248 -0.221 0.52
1.392 20.42 -0.224 0.32
1.328 20.424 -0.224 0.52
1.265 20.448 -0.224 0.32
1.2 20.446 -0.224 0.53
1.137 20.464 -0.225 0.32
1.072 20.465 -0.225 0.55
1.041 20.481 -0.225 0.32
0.976 20.478 -0.225 0.53
0.913 20.497 -0.225 0.32
0.848 20.498 -0.225 0.53
0.784 20.514 -0.225 0.33
0.72 20.513 -0.225 0.52
0.656 20.533 -0.226 0.33
0.623 20.522 -0.225 0.52
0.56 20.546 -0.226 0.32
0.495 20.543 -0.226 0.53
0.431 20.557 -0.226 0.32
0.367 20.594 -0.227 0.5
0.303 20.629 -0.228 0.54
0.173 15.532 -0.121 0.19
0.124 15.524 -0.12 0.52
0.099 15.526 -0.12 0.4
0.051 15.58 -0.122 0.44
0.012 21.071 -0.237 0.26
-0.055 21.081 -0.237 0.26
-0.121 21.081 -0.237 0.2
-0.25 20.754 -0.23 0.55
-0.282 20.701 -0.229 0.53
-0.346 20.656 -0.228 0.41
-0.411 20.659 -0.228 0.42
-0.476 20.67 -0.228 0.43
-0.541 20.684 -0.229 0.41
-0.607 20.688 -0.229 0.41
-0.672 20.692 -0.229 0.43
-0.739 20.74 -0.23 0.35
-0.773 20.789 -0.231 0.52
-0.852 21.142 -0.239 0.58
-0.921 21.207 -0.24 0.25
-0.989 21.216 -0.24 0.26
-1.056 21.221 -0.24 0.27
-1.123 21.24 -0.241 0.28
-1.191 21.248 -0.241 0.24
-1.223 21.218 -0.241 0.18
-1.275 20.969 -0.235 0.14
-1.336 20.887 -0.234 0.45
-1.399 20.852 -0.233 0.62
-1.462 20.808 -0.232 0.3
-1.527 20.805 -0.232 0.52
-1.596 20.836 -0.233 0.32
-1.66 20.823 -0.233 0.52
-1.695 20.843 -0.233 0.31
-1.761 20.845 -0.234 0.53
-1.828 20.859 -0.234 0.32
-1.894 20.857 -0.234 0.51
-1.963 20.887 -0.235 0.31
-2.028 20.871 -0.235 0.52
-2.096 20.894 -0.235 0.31
-2.129 20.897 -0.235 0.52
-2.197 20.906 -0.236 0.32
-2.263 20.901 -0.236 0.5
-2.332 20.93 -0.236 0.31
-2.398 20.918 -0.236 0.52
-2.467 20.942 -0.237 0.31
-2.534 20.943 -0.237 0.51
-2.569 20.96 -0.238 0.3
-2.635 20.95 -0.238 0.5
-2.706 20.983 -0.239 0.32
-2.77 20.963 -0.238 0.52
-2.84 20.986 -0.239 0.32
-2.908 20.989 -0.239 0.5
-2.977 21.001 -0.24 0.3
-3.043 20.996 -0.24 0.59
-3.078 21.005 -0.24 0.25
-3.146 21.003 -0.24 0.6
-3.185 20.819 -0.237 0.34
-3.281 21.007 -0.241 0.35
-3.35 21.012 -0.241 0.39
-3.418 21.013 -0.241 0.5
-3.257 19.629 -0.212 0.3
-3.312 19.575 -0.211 0.35
-3.343 19.572 -0.211 0.38
-3.408 19.583 -0.212 0.38
-3.481 19.637 -0.213 0.15
-3.828 21.221 -0.247 0.65
-3.929 21.395 -0.251 0.0
-4.36 21.283 -0.25 0.23
-4.427 21.273 -0.251 0.39
-4.49 21.24 -0.25 0.46
-4.515 21.194 -0.249 0.45
-4.588 21.211 -0.25 0.36
-4.659 21.214 -0.25 0.45
-4.73 21.22 -0.251 0.37
-4.802 21.229 -0.251 0.46
-4.878 21.255 -0.252 0.31
-4.968 21.34 -0.254 0.62
-5.006 21.352 -0.255 0.0
-5.459 21.457 -0.259 0.33
-5.523 21.425 -0.259 0.38
-5.546 21.375 -0.258 0.64
-5.61 21.344 -0.258 0.32
-5.683 21.35 -0.258 0.42
-5.758 21.361 -0.259 0.28
-5.829 21.36 -0.259 0.61
-5.896 21.34 -0.259 0.35
-5.949 21.273 -0.258 0.28
-6.044 21.354 -0.26 0.18
-6.094 21.402 -0.262 0.46
-6.168 21.404 -0.262 0.25
-6.224 21.346 -0.261 0.69
-6.329 21.457 -0.264 0.0
-7.29 24.444 -0.33 0.1
-6.352 20.809 -0.251 0.52
-6.15 20.028 -0.234 0.19
-6.211 20.003 -0.234 0.27
-6.267 19.963 -0.234 0.32
-6.314 19.893 -0.233 0.31
-6.387 19.908 -0.233 0.52
-6.443 19.867 -0.233 0.29
-6.48 19.768 -0.231 0.41
-6.567 19.927 -0.235 0.35
-6.644 19.95 -0.236 0.38
-6.713 19.95 -0.236 0.41
-6.789 19.969 -0.237 0.36
-6.858 19.964 -0.238 0.43
-6.932 19.975 -0.238 0.35
-7.004 19.979 -0.239 0.38
-7.076 19.985 -0.239 0.38
-7.12 20.008 -0.24 0.39
-7.191 20.008 -0.241 0.38
-7.267 20.023 -0.242 0.4
-7.342 20.034 -0.242 0.39
-7.416 20.041 -0.243 0.37
-7.489 20.044 -0.244 0.37
-7.565 20.056 -0.244 0.37
-7.64 20.062 -0.245 0.38
-7.681 20.076 -0.246 0.38
-7.756 20.083 -0.246 0.38
-7.835 20.1 -0.247 0.44
-7.909 20.101 -0.248 0.36
-7.986 20.112 -0.249 0.37
-8.064 20.124 -0.249 0.38
-8.141 20.133 -0.25 0.38
-8.183 20.147 -0.251 0.38
-8.259 20.152 -0.252 0.39
-8.338 20.163 -0.252 0.37
-8.414 20.168 -0.253 0.41
-8.494 20.18 -0.254 0.34
-8.571 20.187 -0.255 0.41
-8.647 20.189 -0.255 0.34
-8.693 20.209 -0.256 0.41
-8.773 20.22 -0.257 0.31
-8.85 20.223 -0.258 0.41
-8.929 20.23 -0.259 0.32
-9.01 20.242 -0.259 0.37
-9.084 20.236 -0.26 0.46
-9.158 20.231 -0.261 0.34
-9.178 20.107 -0.258 0.41
-9.142 19.944 -0.255 0.41
-9.203 19.911 -0.255 0.32
-9.3 19.957 -0.257 0.28
-9.39 19.987 -0.258 0.38
-9.572 20.209 -0.264 0.34
-9.646 20.202 -0.264 0.43
-9.738 20.231 -0.266 0.0
-11.959 24.659 -0.37 0.0
-12.021 24.689 -0.371 0.07
-12.108 24.671 -0.371 0.16
-12.211 24.684 -0.372 0.18
-10.237 20.521 -0.276 0.14
-10.336 20.557 -0.277 0.59
-12.474 24.629 -0.374 0.29
-12.588 24.661 -0.375 0.0
-12.657 24.702 -0.377 0.16
-10.803 20.751 -0.285 0.16
-10.805 20.597 -0.283 0.57
-10.855 20.534 -0.282 0.4
-10.926 20.512 -0.282 0.42
-10.996 20.489 -0.282 0.41
-10.959 20.343 -0.279 0.37
-10.982 20.233 -0.278 0.25
-11.168 20.423 -0.283 0.48
-8.56 15.524 -0.167 0.18
-8.594 15.471 -0.166 0.31
-8.627 15.416 -0.165 0.56
-8.703 15.438 -0.166 0.29
-11.62 20.48 -0.289 0.29
-14.048 24.679 -0.39 0.41
-14.047 24.498 -0.387 0.2
-14.075 24.369 -0.385 0.25
-14.105 24.243 -0.383 0.14
-12.181 20.779 -0.3 0.44
-12.258 20.76 -0.3 0.53
-14.184 23.858 -0.377 0.25
-14.151 23.719 -0.374 0.32
-14.171 23.584 -0.372 0.19
-12.706 20.841 -0.307 0.37
-12.771 20.801 -0.307 0.51
-12.835 20.759 -0.307 0.38
-12.917 20.746 -0.307 0.41
-13.012 20.752 -0.309 0.33
-13.069 20.771 -0.309 0.42
-13.059 20.61 -0.306 0.36
-13.115 20.555 -0.306 0.3
-13.349 20.778 -0.313 0.26
-13.459 20.807 -0.315 0.52
-13.357 20.506 -0.308 0.24
-13.427 20.472 -0.308 0.35
-13.541 20.577 -0.311 0.27
-13.66 20.616 -0.313 0.43
-13.799 20.684 -0.316 0.2
-14.0 20.845 -0.321 0.47
-13.992 20.692 -0.319 0.21
-14.204 20.864 -0.324 0.35
-14.298 20.861 -0.325 0.34
-14.29 20.779 -0.324 0.3
-14.387 20.78 -0.325 0.44
-14.469 20.759 -0.325 0.28
-14.601 20.809 -0.328 0.21
-14.606 20.678 -0.326 0.48
-14.577 20.5 -0.322 0.22
-26.706 37.343 -0.758 0.21
-26.824 37.261 -0.758 0.18
-37.681 51.843 -1.139 0.51
-38.043 51.997 -1.146 0.26
-38.306 52.012 -1.149 0.11
-38.582 52.044 -1.153 0.16
-38.858 52.074 -1.157 0.29
-39.141 52.111 -1.161 0.27
-39.417 52.136 -1.165 0.26
-39.604 52.213 -1.169 0.26
-39.879 52.235 -1.173 0.24
-40.167 52.271 -1.177 0.25
-40.447 52.295 -1.181 0.25
-40.73 52.32 -1.185 0.25
-41.015 52.347 -1.189 0.11
-41.306 52.378 -1.194 0.15
-41.511 52.468 -1.198 0.12
-41.788 52.478 -1.202 0.0
-41.882 52.259 -1.199 0.0
-41.929 51.983 -1.195 0.0
-42.051 51.799 -1.194 0.0
-42.351 51.836 -1.198 0.0
-42.657 51.877 -1.203 0.0
-42.87 51.969 -1.208 0.0
-43.127 51.948 -1.211 0.0
-43.425 51.973 -1.215 0.0
-43.675 51.941 -1.218 0.0
-43.978 51.968 -1.222 0.0
-44.233 51.938 -1.225 0.0
-45.325 52.883 -1.255 0.0
-46.645 53.228 -1.279 0.1
-46.857 53.133 -1.28 0.16
-47.201 53.186 -1.286 0.0
-47.484 53.167 -1.29 0.0
-47.849 53.238 -1.296 0.0
-38.259 42.426 -0.993 0.0
-38.294 42.198 -0.99 0.0
-38.421 42.071 -0.99 0.0
-38.901 42.329 -1.0 0.0
-14.431 15.482 -0.239 0.11
-14.459 15.415 -0.238 0.25
-14.463 15.321 -0.237 0.0
-14.576 15.393 -0.239 0.12
-27.012 28.379 -0.616 0.0
-51.446 53.746 -1.355 0.0
-51.788 53.764 -1.36 0.0
-52.144 53.795 -1.366 0.0
-52.859 54.191 -1.382 0.0
-36.938 37.62 -0.9 0.07
-37.022 37.587 -0.901 0.16
-37.098 37.428 -0.9 0.0
-37.177 37.273 -0.899 0.11
-37.268 37.131 -0.898 0.16
-37.467 37.095 -0.9 0.09
-37.514 36.909 -0.898 0.08
-37.51 36.673 -0.895 0.0
-56.46 54.701 -1.443 0.33
-56.506 54.403 -1.44 0.0
-56.878 54.417 -1.445 0.0
-57.289 54.467 -1.452 0.0
-37.344 35.27 -0.872 0.07
-37.257 34.966 -0.866 0.09
-37.35 34.834 -0.866 0.0
-37.507 34.87 -0.869 0.1
-37.217 34.383 -0.857 0.0
-37.424 34.357 -0.86 0.0
-38.222 34.214 -0.871 0.0
-37.223 33.214 -0.841 0.0
-37.382 33.146 -0.843 0.0
-37.438 32.986 -0.841 0.0
-37.16 32.533 -0.831 0.1
-36.868 32.074 -0.82 0.0
-37.094 32.066 -0.823 0.07
-37.002 31.784 -0.818 0.14
-37.309 31.844 -0.823 0.21
-37.293 31.73 -0.822 0.11
-37.091 31.357 -0.813 0.0
-37.403 31.42 -0.819 0.12
-37.248 31.091 -0.812 0.21
-37.809 31.359 -0.825 0.15
-37.867 31.207 -0.824 0.37
-38.018 31.131 -0.825 0.19
-38.124 31.118 -0.827 0.17
-37.847 30.694 -0.817 0.21
-38.25 30.822 -0.825 0.0
-38.252 30.626 -0.822 0.0
-37.777 30.051 -0.807 0.0
-37.96 30.002 -0.809 0.14
-37.965 29.813 -0.807 0.0
-37.809 29.499 -0.8 0.05
-37.688 29.309 -0.796 0.14
-37.749 29.166 -0.795 0.12
-38.295 29.397 -0.807 0.14
-38.433 29.312 -0.808 0.14
-38.441 29.127 -0.806 0.13
-38.554 29.023 -0.807 0.16
-38.938 29.121 -0.814 0.27
-39.106 29.151 -0.818 0.2
-39.231 29.053 -0.819 0.17
-39.085 28.755 -0.812 0.15
-39.101 28.578 -0.81 0.13
-39.154 28.428 -0.809 0.16
-39.504 28.493 -0.816 0.1
-39.564 28.348 -0.815 0.14
-39.652 28.317 -0.817 0.0
-39.911 28.313 -0.821 0.0
-43.171 30.424 -0.902 0.0
-42.84 29.99 -0.891 0.0
-40.67 28.279 -0.834 0.0
-37.602 25.969 -0.753 0.07
-40.362 27.69 -0.821 0.0
-40.547 27.724 -0.825 0.0
-39.754 26.998 -0.803 0.0
-39.758 26.818 -0.8 0.12
-40.064 26.843 -0.806 0.16
-40.154 26.72 -0.806 0.0
-40.401 26.702 -0.81 0.12
-40.349 26.486 -0.807 0.0
-40.145 26.261 -0.801 0.12
-40.152 26.086 -0.799 0.18
-40.321 26.016 -0.801 0.23
-40.414 25.897 -0.801 0.27
-41.008 26.096 -0.814 0.0
-41.13 25.993 -0.815 0.0
-46.695 29.309 -0.951 0.0
-52.34 32.627 -1.088 0.0
-44.193 27.447 -0.886 0.0
-43.106 26.585 -0.857 0.09
-41.071 25.15 -0.805 0.23
-41.132 25.01 -0.804 0.0
-41.358 24.97 -0.808 0.11
-31.635 18.957 -0.568 0.16
-40.526 24.121 -0.784 0.23
-40.604 23.995 -0.784 0.27
-40.562 23.884 -0.782 0.0
-42.984 25.13 -0.839 0.0
-42.955 24.933 -0.836 0.0
-41.18 23.729 -0.791 0.0
-41.213 23.575 -0.79 0.0
-41.857 23.77 -0.804 0.0
-41.848 23.591 -0.802 0.13
-41.09 23.078 -0.783 0.19
-41.141 22.937 -0.783 0.0
-41.268 22.838 -0.784 0.0
-41.379 22.73 -0.785 0.0
-66.999 36.548 -1.395 0.03
-41.46 22.437 -0.783 0.0
-43.585 23.412 -0.832 0.13
-43.576 23.23 -0.83 0.0
-43.427 23.063 -0.826 0.16
-43.718 23.042 -0.831 0.2
-43.909 22.967 -0.834 0.0
-47.936 24.885 -0.927 0.0
-42.115 21.692 -0.788 0.1
-42.205 21.57 -0.789 0.0
-42.313 21.458 -0.79 0.0
-46.708 23.598 -0.892 0.0
-46.785 23.453 -0.892 0.0
-46.86 23.307 -0.892 0.0
-46.672 23.03 -0.886 0.0
-46.496 22.762 -0.88 0.06
-46.641 22.651 -0.882 0.0
-46.827 22.56 -0.885 0.14
-42.661 20.468 -0.787 0.21
-42.76 20.35 -0.788 0.0
-42.093 19.871 -0.771 0.12
-42.152 19.737 -0.771 0.0
-46.822 21.748 -0.877 0.16
-26.395 12.146 -0.404 0.0
-42.01 19.11 -0.763 0.0
-48.936 22.079 -0.921 0.06
-49.26 22.04 -0.926 0.11
-43.434 19.266 -0.791 0.38
-43.516 19.14 -0.792 0.0
-43.657 19.038 -0.794 0.0
-43.555 18.831 -0.79 0.0
-64.856 27.813 -1.275 0.0
-49.074 20.764 -0.912 0.12
-43.444 18.218 -0.783 0.08
-48.982 20.363 -0.907 0.16
-49.051 20.212 -0.907 0.22
-49.039 20.027 -0.906 0.2
-49.048 19.851 -0.904 0.23
-49.025 19.752 -0.903 0.2
-49.025 19.573 -0.902 0.3
-42.24 16.707 -0.747 0.0
-42.315 16.583 -0.748 0.0
-65.788 25.559 -1.275 0.0
-44.543 16.575 -0.791 0.42
-44.577 16.428 -0.791 0.22
-44.549 16.259 -0.789 0.34
-44.528 16.094 -0.788 0.19
-44.535 15.938 -0.787 0.34
-44.529 15.778 -0.785 0.2
-44.508 15.692 -0.784 0.34
-44.491 15.529 -0.783 0.18
-44.506 15.377 -0.782 0.36
-44.499 15.219 -0.781 0.2
-44.516 15.069 -0.78 0.37
-44.49 14.904 -0.779 0.18
-44.472 14.743 -0.777 0.32
-44.341 14.622 -0.774 0.0
-51.613 15.952 -0.928 0.0
-50.548 15.449 -0.903 0.0
-50.559 15.365 -0.903 0.0
-50.582 15.199 -0.902 0.0
-50.595 15.029 -0.902 0.0
-50.635 14.868 -0.901 0.0
-50.769 14.735 -0.903 0.0
-50.76 14.559 -0.902 0.0
-50.92 14.432 -0.905 0.0
-51.091 14.394 -0.908 0.08
-51.119 14.229 -0.908 0.0
-51.215 14.082 -0.909 0.0
-51.36 13.949 -0.911 0.0
-49.001 13.142 -0.859 0.06
-49.0 12.976 -0.858 0.0
-49.069 12.83 -0.858 0.0
-69.638 12.707 -1.279 0.0
-57.952 -10.88 -1.031 0.0
-77.454 -16.939 -1.457 0.0
-75.92 -16.854 -1.426 0.0
-75.113 -16.799 -1.409 0.0
-74.939 -17.008 -1.406 0.0
-73.453 -16.914 -1.375 0.0
-72.183 -16.861 -1.349 0.0
-71.366 -16.907 -1.333 0.0
-70.102 -16.841 -1.307 0.0
-69.024 -16.812 -1.285 0.0
-67.416 -16.645 -1.251 0.0
-66.827 -16.611 -1.239 0.0
-65.745 -16.562 -1.217 0.0
-64.825 -16.547 -1.198 0.0
-63.69 -16.472 -1.174 0.0
-62.881 -16.474 -1.158 0.0
-61.938 -16.435 -1.139 0.0
-59.494 -15.988 -1.087 0.0
-59.36 -16.052 -1.084 0.0
-57.68 -15.793 -1.049 0.03
-57.52 -15.944 -1.046 0.0
-57.175 -16.042 -1.04 0.0
-56.441 -16.028 -1.025 0.0
-55.047 -15.819 -0.996 0.0
-54.938 -15.975 -0.995 0.0
-53.655 -15.694 -0.967 0.0
-53.495 -15.83 -0.965 0.06
-52.081 -15.59 -0.935 0.19
-51.469 -15.584 -0.923 0.1
-50.473 -15.456 -0.902 0.08
-48.907 -15.146 -0.868 0.0
-48.848 -15.296 -0.868 0.0
-49.888 -15.707 -0.892 0.0
-49.52 -15.762 -0.885 0.0
-48.898 -15.734 -0.872 0.0
-48.306 -15.711 -0.86 0.0
-47.753 -15.698 -0.849 0.0
-47.17 -15.671 -0.837 0.0
-46.647 -15.66 -0.827 0.0
-45.949 -15.587 -0.812 0.0
-45.315 -15.452 -0.799 0.0
-45.115 -15.542 -0.795 0.0
-44.622 -15.53 -0.786 0.0
-44.104 -15.505 -0.775 0.0
-43.616 -15.488 -0.765 0.0
-43.154 -15.477 -0.756 0.0
-42.667 -15.454 -0.746 0.0
-42.26 -15.382 -0.738 0.0
-41.794 -15.362 -0.729 0.0
-41.397 -15.364 -0.721 0.0
-40.92 -15.333 -0.711 0.0
-40.509 -15.325 -0.703 0.07
-40.066 -15.302 -0.694 0.13
-39.663 -15.291 -0.686 0.09
-39.257 -15.276 -0.678 0.0
-38.905 -15.21 -0.671 0.13
-38.524 -15.201 -0.663 0.09
-38.14 -15.188 -0.656 0.09
-37.741 -15.167 -0.648 0.09
-37.367 -15.154 -0.64 0.09
-37.016 -15.147 -0.634 0.08
-36.669 -15.14 -0.627 0.09
-36.338 -15.071 -0.62 0.08
-35.982 -15.056 -0.613 0.14
-35.651 -15.049 -0.606 0.23
-35.313 -15.038 -0.6 0.24
-34.959 -15.017 -0.593 0.24
-34.658 -15.017 -0.587 0.11
-34.352 -15.013 -0.581 0.16
-34.05 -14.945 -0.575 0.29
-33.771 -14.95 -0.569 0.2
-33.455 -14.936 -0.563 0.18
-33.175 -14.936 -0.558 0.29
-32.88 -14.928 -0.552 0.26
-32.567 -14.91 -0.546 0.19
-32.279 -14.901 -0.54 0.18
-32.014 -14.901 -0.535 0.3
-31.786 -14.856 -0.531 0.2
-31.507 -14.847 -0.525 0.19
-31.24 -14.841 -0.52 0.21
-30.746 -14.725 -0.51 0.16
-30.469 -14.711 -0.504 0.25
-30.241 -14.718 -0.5 0.2
-30.144 -14.788 -0.499 0.17
-29.949 -14.751 -0.495 0.39
-29.714 -14.752 -0.491 0.18
-29.489 -14.756 -0.486 0.35
-29.224 -14.739 -0.481 0.22
-29.012 -14.746 -0.477 0.22
-28.74 -14.722 -0.472 0.21
-28.492 -14.709 -0.467 0.21
-28.244 -14.637 -0.462 0.28
-28.079 -14.663 -0.459 0.2
-27.855 -14.659 -0.455 0.23
-27.624 -14.648 -0.451 0.2
-27.391 -14.635 -0.446 0.3
-27.174 -14.629 -0.442 0.23
-26.971 -14.629 -0.438 0.27
-26.679 -14.58 -0.432 0.23
-26.481 -14.526 -0.428 0.26
-26.372 -14.574 -0.427 0.45
-26.169 -14.57 -0.423 0.22
-25.976 -14.57 -0.419 0.33
-25.749 -14.549 -0.415 0.23
-25.566 -14.552 -0.412 0.22
-25.373 -14.548 -0.408 0.36
-25.161 -14.479 -0.404 0.16
-25.01 -14.497 -0.401 0.41
-24.815 -14.489 -0.397 0.22
-24.623 -14.481 -0.394 0.26
-24.448 -14.482 -0.391 0.28
-24.267 -14.478 -0.387 0.21
-24.083 -14.471 -0.384 0.25
-23.935 -14.433 -0.381 0.26
-23.758 -14.428 -0.378 0.23
-23.564 -14.412 -0.374 0.2
-23.416 -14.424 -0.372 0.47
-23.26 -14.429 -0.369 0.22
-23.098 -14.429 -0.366 0.25
-22.905 -14.409 -0.362 0.17
-22.765 -14.371 -0.359 0.3
-22.602 -14.368 -0.356 0.3
-21.106 -13.512 -0.32 0.21
-21.016 -13.548 -0.319 0.28
-20.953 -13.601 -0.319 0.34
-20.939 -13.685 -0.319 0.39
-20.944 -13.782 -0.321 0.32
-21.647 -14.341 -0.339 0.28
-21.524 -14.309 -0.337 0.27
-21.381 -14.311 -0.334 0.3
-21.23 -14.307 -0.332 0.27
-21.08 -14.303 -0.329 0.3
-20.943 -14.306 -0.327 0.33
-20.79 -14.298 -0.324 0.26
-20.629 -14.282 -0.321 0.2
-20.534 -14.265 -0.319 0.48
-20.392 -14.262 -0.317 0.24
-20.226 -14.24 -0.314 0.21
-20.098 -14.245 -0.311 0.28
-19.987 -14.261 -0.31 0.39
-19.825 -14.239 -0.307 0.28
-19.681 -14.23 -0.304 0.3
-19.602 -14.22 -0.303 0.33
-19.458 -14.21 -0.3 0.33
-19.319 -14.201 -0.298 0.29
-19.193 -14.202 -0.296 0.29
-19.049 -14.189 -0.293 0.31
-18.929 -14.192 -0.291 0.25
-18.805 -14.191 -0.289 0.28
-18.664 -14.178 -0.286 0.27
-18.578 -14.159 -0.285 0.3
-18.458 -14.159 -0.283 0.3
-18.315 -14.141 -0.28 0.25
-18.196 -14.141 -0.278 0.29
-18.096 -14.155 -0.277 0.34
-17.984 -14.159 -0.275 0.3
-17.86 -14.152 -0.273 0.3
-17.748 -14.109 -0.27 0.32
-17.637 -14.111 -0.269 0.27
-17.509 -14.1 -0.266 0.22
-17.414 -14.114 -0.265 0.44
-17.292 -14.105 -0.263 0.21
-17.189 -14.111 -0.261 0.29
-17.073 -14.107 -0.259 0.29
-16.976 -14.071 -0.257 0.29
-16.876 -14.078 -0.256 0.29
-16.75 -14.063 -0.253 0.25
-16.651 -14.069 -0.252 0.29
-16.532 -14.058 -0.25 0.27
-16.433 -14.063 -0.248 0.32
-16.327 -14.061 -0.247 0.37
-16.208 -14.048 -0.245 0.31
-16.135 -14.029 -0.243 0.3
-16.036 -14.033 -0.242 0.37
-15.792 -13.907 -0.236 0.28
-15.69 -13.905 -0.235 0.27
-15.599 -13.912 -0.233 0.31
-15.524 -13.933 -0.232 0.35
-15.446 -13.951 -0.231 0.33
-15.367 -13.924 -0.23 0.26
-15.284 -13.936 -0.229 0.28
-15.253 -13.996 -0.229 0.3
-15.241 -14.074 -0.23 0.36
-15.14 -14.069 -0.228 0.25
-15.063 -14.086 -0.227 0.34
-14.987 -14.103 -0.226 0.34
-14.918 -14.083 -0.225 0.33
-14.838 -14.095 -0.224 0.32
-14.761 -14.112 -0.223 0.33
-14.684 -14.126 -0.222 0.3
-14.576 -14.111 -0.22 0.26
-14.512 -14.137 -0.22 0.36
-14.411 -14.128 -0.218 0.25
-14.318 -14.126 -0.217 0.28
-14.272 -14.124 -0.216 0.39
-14.201 -14.142 -0.215 0.37
-14.112 -14.143 -0.214 0.32
-14.027 -14.146 -0.213 0.3
-13.949 -14.156 -0.212 0.29
-13.871 -14.165 -0.211 0.32
-13.795 -14.177 -0.21 0.32
-13.738 -14.163 -0.209 0.36
-13.666 -14.178 -0.208 0.34
-13.571 -14.169 -0.206 0.33
-13.503 -14.187 -0.206 0.33
-13.413 -14.181 -0.204 0.27
-13.338 -14.191 -0.203 0.31
-13.26 -14.196 -0.202 0.34
-13.209 -14.187 -0.201 0.3
-13.134 -14.196 -0.2 0.38
-13.053 -14.197 -0.199 0.3
-12.98 -14.207 -0.198 0.3
-12.914 -14.224 -0.198 0.43
-12.826 -14.217 -0.196 0.28
-12.75 -14.223 -0.195 0.32
-12.701 -14.214 -0.195 0.37
-12.646 -14.241 -0.194 0.43
-12.576 -14.253 -0.193 0.32
-12.506 -14.264 -0.193 0.29
-12.43 -14.267 -0.192 0.3
-12.332 -14.245 -0.19 0.25
-12.277 -14.272 -0.19 0.36
-12.202 -14.275 -0.189 0.28
-12.154 -14.264 -0.188 0.28
-12.087 -14.276 -0.187 0.36
-12.01 -14.276 -0.186 0.3
-11.872 -14.203 -0.183 0.35
-11.807 -14.216 -0.182 0.32
-11.801 -14.299 -0.184 0.41
-11.733 -14.308 -0.183 0.3
-11.681 -14.291 -0.182 0.37
-11.559 -14.233 -0.179 0.27
-11.42 -14.153 -0.176 0.4
-11.456 -14.288 -0.179 0.31
-11.058 -13.882 -0.167 0.27
-11.105 -14.031 -0.17 0.37
-11.073 -14.082 -0.171 0.41
-11.213 -14.305 -0.176 0.36
-10.965 -14.08 -0.169 0.29
-10.859 -14.036 -0.167 0.41
-10.83 -14.089 -0.168 0.32
-10.756 -14.085 -0.166 0.42
-10.661 -14.051 -0.165 0.28
-10.663 -14.145 -0.166 0.38
-10.606 -14.163 -0.166 0.4
-10.551 -14.136 -0.165 0.43
-10.471 -14.121 -0.164 0.27
-10.386 -14.099 -0.162 0.33
-10.335 -14.122 -0.162 0.45
-10.329 -14.208 -0.163 0.37
-10.082 -13.96 -0.156 0.42
-10.15 -14.148 -0.16 0.3
-10.245 -14.328 -0.164 0.36
-10.219 -14.386 -0.165 0.35
-10.147 -14.38 -0.164 0.29
-10.085 -14.388 -0.163 0.37
-10.009 -14.375 -0.162 0.28
-9.951 -14.388 -0.162 0.32
-9.752 -14.197 -0.156 0.41
-9.676 -14.182 -0.155 0.36
-9.65 -14.192 -0.155 0.29
-9.479 -14.035 -0.15 0.43
-9.487 -14.143 -0.152 0.38
-9.438 -14.166 -0.152 0.29
-9.335 -14.107 -0.15 0.27
-9.269 -14.103 -0.149 0.54
-9.274 -14.207 -0.151 0.27
-9.207 -14.153 -0.149 0.39
-9.163 -14.184 -0.149 0.3
-9.093 -14.172 -0.148 0.41
-9.126 -14.322 -0.151 0.4
-9.127 -14.423 -0.153 0.35
-9.093 -14.47 -0.153 0.38
-9.026 -14.465 -0.152 0.33
-8.993 -14.462 -0.152 0.38
-8.938 -14.475 -0.152 0.39
-8.882 -14.486 -0.151 0.26
-8.821 -14.488 -0.151 0.29
-8.761 -14.492 -0.15 0.34
-8.7 -14.494 -0.149 0.39
-8.639 -14.495 -0.149 0.3
-8.602 -14.485 -0.148 0.32
-8.546 -14.494 -0.148 0.38
-8.488 -14.5 -0.147 0.32
-8.427 -14.499 -0.147 0.32
-8.348 -14.469 -0.145 0.29
-8.226 -14.361 -0.142 0.27
-8.116 -14.274 -0.139 0.41
-8.064 -14.235 -0.138 0.43
-8.046 -14.307 -0.139 0.33
-7.977 -14.29 -0.138 0.32
-7.957 -14.359 -0.139 0.47
-7.936 -14.428 -0.14 0.32
-7.863 -14.404 -0.139 0.27
-7.771 -14.342 -0.137 0.37
-7.72 -14.302 -0.136 0.45
-7.649 -14.276 -0.135 0.31
-7.587 -14.269 -0.134 0.42
-7.601 -14.404 -0.136 0.34
-7.61 -14.53 -0.139 0.22
-7.481 -14.395 -0.135 0.49
-7.437 -14.422 -0.135 0.34
-7.388 -14.438 -0.135 0.38
-7.337 -14.394 -0.134 0.38
-7.32 -14.472 -0.135 0.41
-7.292 -14.529 -0.136 0.25
-7.209 -14.477 -0.134 0.41
-7.179 -14.532 -0.135 0.34
-7.081 -14.448 -0.132 0.42
-7.031 -14.462 -0.132 0.45
-7.062 -14.582 -0.135 0.32
-6.996 -14.563 -0.134 0.36
-6.943 -14.569 -0.133 0.34
-6.856 -14.504 -0.131 0.4
-6.81 -14.525 -0.131 0.39
-6.749 -14.514 -0.131 0.38
-6.731 -14.595 -0.132 0.34
-6.683 -14.551 -0.131 0.36
-6.618 -14.528 -0.13 0.23
-6.544 -14.487 -0.128 0.49
-6.491 -14.491 -0.128 0.31
-6.427 -14.471 -0.127 0.38
-6.375 -14.477 -0.127 0.43
-6.334 -14.506 -0.127 0.4
-6.285 -14.518 -0.127 0.41
-6.246 -14.49 -0.126 0.34
-6.195 -14.496 -0.125 0.37
-6.119 -14.446 -0.124 0.32
-6.067 -14.448 -0.123 0.51
-6.035 -14.501 -0.124 0.25
-5.931 -14.377 -0.121 0.4
-5.883 -14.388 -0.121 0.32
-5.824 -14.309 -0.119 0.41
-5.766 -14.296 -0.118 0.34
-5.709 -14.284 -0.117 0.44
-5.661 -14.294 -0.117 0.38
-5.614 -14.306 -0.117 0.32
-5.602 -14.41 -0.119 0.38
-5.551 -14.412 -0.119 0.39
-5.532 -14.43 -0.119 0.41
-5.512 -14.513 -0.12 0.45
-5.521 -14.676 -0.124 0.32
-5.43 -14.574 -0.121 0.27
-5.356 -14.514 -0.119 0.4
-5.312 -14.534 -0.119 0.45
-5.247 -14.498 -0.118 0.25
-5.222 -14.501 -0.118 0.46
-5.174 -14.51 -0.118 0.34
-5.132 -14.537 -0.118 0.48
-5.09 -14.563 -0.118 0.32
-5.037 -14.558 -0.118 0.3
-5.002 -14.604 -0.119 0.5
-4.991 -14.722 -0.121 0.39
-4.942 -14.73 -0.121 0.27
-4.877 -14.614 -0.118 0.35
-4.804 -14.548 -0.116 0.36
-4.73 -14.475 -0.114 0.45
-4.681 -14.481 -0.114 0.29
-4.602 -14.391 -0.112 0.38
-4.555 -14.399 -0.112 0.45
-4.524 -14.459 -0.113 0.41
-4.503 -14.472 -0.113 0.3
-4.458 -14.488 -0.113 0.45
-4.447 -14.615 -0.115 0.29
-4.361 -14.497 -0.112 0.48
-4.327 -14.549 -0.113 0.3
-4.254 -14.468 -0.111 0.39
-4.222 -14.528 -0.112 0.34
-4.198 -14.53 -0.112 0.44
-4.149 -14.534 -0.112 0.36
-4.103 -14.545 -0.112 0.43
-4.042 -14.502 -0.111 0.3
-3.983 -14.468 -0.11 0.53
-3.952 -14.533 -0.111 0.3
-3.896 -14.507 -0.11 0.41
-3.885 -14.557 -0.111 0.36
-3.853 -14.619 -0.112 0.41
-3.821 -14.686 -0.113 0.21
-3.729 -14.519 -0.109 0.49
-3.685 -14.537 -0.109 0.35
-3.623 -14.484 -0.108 0.3
-3.571 -14.469 -0.107 0.46
-3.527 -14.489 -0.108 0.36
-3.51 -14.516 -0.108 0.44
-3.462 -14.518 -0.108 0.36
-3.419 -14.54 -0.108 0.41
-3.386 -14.603 -0.109 0.34
-3.348 -14.651 -0.11 0.48
-3.302 -14.659 -0.11 0.34
-3.291 -14.719 -0.111 0.33
-3.257 -14.786 -0.112 0.43
-3.219 -14.835 -0.113 0.42
-3.171 -14.835 -0.113 0.36
-3.121 -14.832 -0.113 0.32
-3.075 -14.843 -0.113 0.34
-2.993 -14.683 -0.109 0.38
-2.945 -14.68 -0.109 0.32
-2.912 -14.638 -0.108 0.36
-2.871 -14.672 -0.108 0.43
-2.826 -14.687 -0.109 0.4
-2.786 -14.727 -0.109 0.44
-2.759 -14.84 -0.111 0.18
-2.69 -14.725 -0.109 0.51
-2.646 -14.743 -0.109 0.3
-2.619 -14.728 -0.109 0.48
-2.581 -14.781 -0.11 0.34
-2.542 -14.832 -0.11 0.41
-2.501 -14.876 -0.111 0.27
-2.441 -14.803 -0.109 0.29
-2.388 -14.775 -0.109 0.38
-2.319 -14.64 -0.106 0.28
-2.292 -14.614 -0.105 0.36
-2.24 -14.584 -0.104 0.39
-2.201 -14.636 -0.105 0.41
-2.151 -14.617 -0.105 0.34
-2.112 -14.669 -0.106 0.38
-2.058 -14.621 -0.104 0.36
-2.029 -14.75 -0.107 0.39
-2.021 -14.864 -0.109 0.4
-1.958 -14.747 -0.107 0.25
-1.899 -14.656 -0.105 0.46
-1.853 -14.662 -0.105 0.31
-1.821 -14.781 -0.107 0.48
-1.758 -14.652 -0.104 0.35
-1.713 -14.671 -0.105 0.42
-1.68 -14.785 -0.107 0.28
-1.642 -14.661 -0.104 0.44
-1.607 -14.759 -0.106 0.26
-1.546 -14.635 -0.103 0.41
-1.501 -14.648 -0.104 0.38
-1.457 -14.668 -0.104 0.4
-1.408 -14.647 -0.103 0.28
-1.358 -14.614 -0.103 0.45
-1.331 -14.562 -0.102 0.34
-1.289 -14.618 -0.103 0.4
-1.244 -14.63 -0.103 0.35
-1.2 -14.656 -0.103 0.34
-1.151 -14.617 -0.102 0.46
-1.118 -14.788 -0.106 0.3
-1.062 -14.666 -0.103 0.48
-1.04 -14.686 -0.104 0.27
-0.998 -14.745 -0.105 0.47
-0.949 -14.704 -0.104 0.33
-0.904 -14.727 -0.104 0.32
-0.858 -14.736 -0.104 0.48
-0.813 -14.76 -0.105 0.37
-0.763 -14.699 -0.104 0.34
-0.739 -14.676 -0.103 0.39
-0.692 -14.678 -0.103 0.42
-0.651 -14.784 -0.105 0.38
-0.602 -14.714 -0.104 0.25
-0.554 -14.686 -0.103 0.45
-0.51 -14.73 -0.104 0.3
-0.463 -14.721 -0.104 0.5
-0.444 -14.846 -0.106 0.29
-0.392 -14.657 -0.102 0.37
-0.346 -14.689 -0.103 0.39
-0.299 -14.616 -0.101 0.34
-0.252 -14.595 -0.101 0.42
-0.207 -14.653 -0.102 0.32
-0.161 -14.644 -0.102 0.45
-0.115 -14.64 -0.102 0.25
-0.093 -14.696 -0.103 0.56
-0.047 -14.861 -0.106 0.35
-0.001 -14.979 -0.109 0.32
0.046 -15.029 -0.11 0.31
0.094 -15.054 -0.111 0.37
0.14 -14.884 -0.107 0.29
0.186 -14.863 -0.107 0.5
0.21 -14.925 -0.108 0.36
0.257 -14.914 -0.108 0.35
0.302 -14.82 -0.106 0.43
0.348 -14.803 -0.105 0.32
0.394 -14.749 -0.104 0.41
0.44 -14.746 -0.104 0.32
0.485 -14.719 -0.104 0.41
0.51 -14.762 -0.105 0.39
0.557 -14.786 -0.105 0.38
0.606 -14.844 -0.106 0.37
0.652 -14.83 -0.106 0.36
0.699 -14.824 -0.106 0.4
0.746 -14.83 -0.106 0.43
0.796 -14.907 -0.108 0.35
0.824 -14.99 -0.11 0.42
0.875 -15.049 -0.111 0.39
0.926 -15.106 -0.112 0.35
0.973 -15.111 -0.112 0.33
1.022 -15.128 -0.113 0.38
1.069 -15.119 -0.113 0.3
1.115 -15.093 -0.112 0.21
1.152 -14.952 -0.109 0.41
1.173 -14.919 -0.109 0.36
1.216 -14.861 -0.108 0.42
1.269 -14.933 -0.109 0.37
1.312 -14.887 -0.108 0.28
1.358 -14.873 -0.108 0.42
1.406 -14.876 -0.108 0.36
1.451 -14.864 -0.108 0.41
1.479 -14.903 -0.109 0.36
1.529 -14.929 -0.11 0.47
1.566 -14.834 -0.108 0.29
1.619 -14.885 -0.109 0.43
1.663 -14.854 -0.108 0.34
1.707 -14.825 -0.108 0.37
1.755 -14.837 -0.108 0.44
1.785 -14.886 -0.109 0.36
1.827 -14.847 -0.109 0.31
1.868 -14.791 -0.108 0.4
1.922 -14.849 -0.109 0.46
1.986 -14.975 -0.112 0.36
2.062 -15.179 -0.116 0.4
2.11 -15.181 -0.116 0.29
2.122 -15.092 -0.114 0.42
2.183 -15.18 -0.116 0.38
2.236 -15.205 -0.117 0.39
2.283 -15.196 -0.117 0.3
2.333 -15.201 -0.117 0.31
2.382 -15.201 -0.118 0.36
2.4 -15.008 -0.114 0.45
2.475 -15.17 -0.117 0.33
2.493 -15.131 -0.116 0.22
2.502 -14.892 -0.112 0.42
2.55 -14.89 -0.112 0.38
2.606 -14.937 -0.113 0.32
2.657 -14.954 -0.113 0.45
2.696 -14.903 -0.112 0.26
2.726 -14.93 -0.113 0.48
2.768 -14.9 -0.113 0.38
2.822 -14.928 -0.113 0.33
2.877 -14.958 -0.114 0.38
2.919 -14.924 -0.114 0.48
2.965 -14.913 -0.114 0.25
3.021 -14.95 -0.115 0.49
3.077 -14.984 -0.116 0.31
3.123 -15.087 -0.118 0.51
3.205 -15.243 -0.122 0.32
3.231 -15.129 -0.119 0.27
3.262 -15.043 -0.118 0.24
3.306 -15.017 -0.117 0.51
3.36 -15.038 -0.118 0.3
3.4 -14.994 -0.117 0.48
3.423 -14.987 -0.117 0.34
3.476 -15.003 -0.118 0.43
3.534 -15.039 -0.119 0.38
3.571 -14.983 -0.118 0.44
3.687 -15.259 -0.124 0.36
3.745 -15.292 -0.125 0.33
3.795 -15.286 -0.125 0.29
3.781 -15.129 -0.122 0.33
3.817 -15.069 -0.121 0.4
3.867 -15.07 -0.121 0.32
3.913 -15.052 -0.121 0.41
3.961 -15.042 -0.121 0.39
4.036 -15.134 -0.123 0.3
4.081 -15.111 -0.123 0.39
4.1 -15.089 -0.123 0.42
4.14 -15.049 -0.122 0.35
4.2 -15.081 -0.123 0.43
4.246 -15.061 -0.123 0.3
4.294 -15.05 -0.123 0.52
4.373 -15.15 -0.126 0.29
4.438 -15.194 -0.127 0.46
4.521 -15.3 -0.129 0.32
4.496 -15.128 -0.126 0.27
4.51 -15.001 -0.123 0.43
4.633 -15.24 -0.129 0.34
4.691 -15.257 -0.13 0.26
4.689 -15.082 -0.126 0.48
4.792 -15.245 -0.13 0.27
4.764 -14.988 -0.125 0.43
4.807 -15.043 -0.126 0.3
4.861 -15.049 -0.126 0.43
4.945 -15.148 -0.129 0.42
4.989 -15.121 -0.129 0.23
5.035 -15.099 -0.129 0.52
5.153 -15.296 -0.133 0.33
5.239 -15.391 -0.136 0.29
5.167 -15.101 -0.13 0.32
5.234 -15.139 -0.131 0.41
5.285 -15.134 -0.131 0.27
5.359 -15.191 -0.133 0.42
5.399 -15.153 -0.132 0.34
5.443 -15.127 -0.132 0.37
5.488 -15.102 -0.132 0.42
5.51 -15.088 -0.132 0.36
5.561 -15.082 -0.132 0.39
5.645 -15.164 -0.134 0.31
5.663 -15.067 -0.132 0.45
5.747 -15.145 -0.135 0.32
5.804 -15.153 -0.135 0.35
5.853 -15.138 -0.135 0.43
5.906 -15.204 -0.137 0.31
5.984 -15.263 -0.139 0.39
6.024 -15.224 -0.138 0.38
6.156 -15.417 -0.143 0.32
6.168 -15.306 -0.141 0.33
6.226 -15.313 -0.142 0.36
6.224 -15.169 -0.139 0.34
6.253 -15.172 -0.139 0.41
6.328 -15.219 -0.141 0.34
6.367 -15.177 -0.14 0.41
6.438 -15.212 -0.141 0.39
6.468 -15.151 -0.14 0.4
6.548 -15.206 -0.142 0.31
6.585 -15.16 -0.141 0.49
6.632 -15.139 -0.141 0.36
6.682 -15.187 -0.143 0.43
6.74 -15.19 -0.143 0.4
6.824 -15.251 -0.145 0.4
6.946 -15.394 -0.149 0.39
7.054 -15.505 -0.152 0.42
6.847 -14.922 -0.139 0.22
6.878 -14.866 -0.138 0.24
6.898 -14.848 -0.138 0.36
6.94 -14.816 -0.138 0.41
7.002 -14.828 -0.139 0.46
7.063 -14.835 -0.139 0.27
7.456 -15.538 -0.156 0.29
7.528 -15.563 -0.157 0.33
7.585 -15.555 -0.158 0.33
7.623 -15.572 -0.158 0.34
7.681 -15.566 -0.159 0.3
7.747 -15.576 -0.16 0.39
7.799 -15.559 -0.16 0.26
7.87 -15.579 -0.161 0.38
7.935 -15.584 -0.162 0.35
7.992 -15.575 -0.162 0.31
8.034 -15.597 -0.163 0.35
8.095 -15.594 -0.163 0.26
8.16 -15.601 -0.164 0.39
8.227 -15.609 -0.165 0.3
8.283 -15.597 -0.165 0.33
8.353 -15.61 -0.166 0.36
8.415 -15.608 -0.167 0.3
8.489 -15.627 -0.168 0.35
8.523 -15.631 -0.168 0.31
8.588 -15.634 -0.169 0.27
8.648 -15.627 -0.169 0.42
8.722 -15.645 -0.17 0.3
8.786 -15.643 -0.171 0.34
8.853 -15.647 -0.172 0.26
8.923 -15.656 -0.173 0.35
8.959 -15.663 -0.173 0.29
9.027 -15.667 -0.174 0.34
9.091 -15.665 -0.175 0.29
9.148 -15.648 -0.175 0.31
9.221 -15.661 -0.176 0.47
9.291 -15.666 -0.177 0.28
9.356 -15.664 -0.177 0.35
9.404 -15.689 -0.178 0.32
9.471 -15.689 -0.179 0.34
9.542 -15.695 -0.18 0.36
9.607 -15.69 -0.181 0.3
9.678 -15.696 -0.182 0.37
9.751 -15.703 -0.182 0.3
9.821 -15.706 -0.183 0.37
9.865 -15.721 -0.184 0.31
9.933 -15.72 -0.185 0.3
10.019 -15.747 -0.186 0.36
10.086 -15.742 -0.187 0.32
10.15 -15.734 -0.188 0.28
10.224 -15.739 -0.188 0.3
10.289 -15.732 -0.189 0.3
10.338 -15.752 -0.19 0.34
10.41 -15.753 -0.191 0.27
10.488 -15.764 -0.192 0.39
10.562 -15.767 -0.193 0.34
10.633 -15.767 -0.194 0.34
10.702 -15.762 -0.194 0.32
10.768 -15.753 -0.195 0.26
10.866 -15.79 -0.197 0.48
10.912 -15.802 -0.198 0.3
10.989 -15.808 -0.199 0.3
11.056 -15.799 -0.199 0.29
11.132 -15.802 -0.2 0.3
11.206 -15.801 -0.201 0.28
11.286 -15.808 -0.202 0.31
11.369 -15.82 -0.203 0.36
11.412 -15.826 -0.204 0.32
11.494 -15.836 -0.205 0.32
11.566 -15.83 -0.206 0.29
11.649 -15.839 -0.207 0.32
11.732 -15.847 -0.208 0.33
11.803 -15.839 -0.209 0.32
11.883 -15.842 -0.21 0.35
11.934 -15.859 -0.211 0.33
12.013 -15.859 -0.212 0.29
12.107 -15.881 -0.214 0.38
12.193 -15.888 -0.215 0.35
12.261 -15.874 -0.215 0.26
12.341 -15.875 -0.217 0.26
12.429 -15.885 -0.218 0.31
12.49 -15.911 -0.219 0.37
12.569 -15.909 -0.22 0.32
12.659 -15.92 -0.221 0.34
12.734 -15.911 -0.222 0.23
12.824 -15.921 -0.224 0.32
12.907 -15.921 -0.225 0.3
12.989 -15.921 -0.226 0.32
13.052 -15.947 -0.227 0.34
13.138 -15.949 -0.228 0.33
13.226 -15.954 -0.229 0.31
13.321 -15.966 -0.231 0.35
13.407 -15.967 -0.232 0.29
13.494 -15.969 -0.233 0.32
13.582 -15.971 -0.235 0.31
13.667 -15.969 -0.236 0.28
13.739 -16.002 -0.237 0.38
13.821 -15.996 -0.238 0.28
13.926 -16.015 -0.24 0.34
14.01 -16.011 -0.241 0.3
14.111 -16.024 -0.243 0.32
14.191 -16.014 -0.244 0.28
14.276 -16.008 -0.245 0.32
14.265 -15.945 -0.244 0.27
14.359 -15.95 -0.245 0.3
14.44 -15.938 -0.246 0.23
9.436 -10.336 -0.088 0.3
9.449 -10.285 -0.088 0.31
9.467 -10.239 -0.087 0.37
9.491 -10.201 -0.087 0.41
9.508 -10.187 -0.087 0.34
9.555 -10.173 -0.088 0.54
15.204 -16.109 -0.259 0.22
15.29 -16.099 -0.26 0.32
15.399 -16.112 -0.262 0.35
15.474 -16.089 -0.263 0.23
15.589 -16.107 -0.265 0.35
15.663 -16.132 -0.266 0.32
15.769 -16.14 -0.268 0.33
15.869 -16.141 -0.27 0.14
10.055 -10.149 -0.094 0.29
10.066 -10.097 -0.094 0.49
10.097 -10.065 -0.094 0.29
10.13 -10.034 -0.094 0.27
9.812 -9.688 -0.084 0.53
9.818 -9.633 -0.083 0.31
9.82 -9.574 -0.082 0.24
9.823 -9.517 -0.082 0.48
9.764 -9.4 -0.079 0.31
9.718 -9.297 -0.077 0.41
9.738 -9.258 -0.077 0.37
9.77 -9.23 -0.077 0.32
9.916 -9.339 -0.081 0.32
9.796 -9.168 -0.076 0.22
9.835 -9.146 -0.077 0.45
9.845 -9.098 -0.076 0.25
10.063 -9.242 -0.081 0.58
17.794 -16.266 -0.3 0.17
17.915 -16.273 -0.302 0.31
18.009 -16.307 -0.304 0.32
18.124 -16.308 -0.306 0.27
18.234 -16.304 -0.308 0.34
18.362 -16.315 -0.31 0.28
18.489 -16.324 -0.312 0.27
18.599 -16.318 -0.314 0.27
18.731 -16.33 -0.316 0.27
18.819 -16.355 -0.318 0.23
18.961 -16.374 -0.32 0.4
19.093 -16.383 -0.322 0.25
19.224 -16.392 -0.325 0.26
19.334 -16.381 -0.326 0.29
19.475 -16.396 -0.329 0.33
19.602 -16.398 -0.331 0.29
19.698 -16.426 -0.333 0.2
19.828 -16.429 -0.335 0.45
19.952 -16.427 -0.337 0.25
20.093 -16.437 -0.339 0.27
20.221 -16.436 -0.341 0.27
20.377 -16.457 -0.344 0.24
20.49 -16.443 -0.346 0.21
20.605 -16.482 -0.348 0.39
20.751 -16.492 -0.351 0.23
20.89 -16.496 -0.353 0.25
21.021 -16.492 -0.355 0.21
21.175 -16.506 -0.358 0.41
21.326 -16.517 -0.36 0.21
21.476 -16.525 -0.363 0.32
21.621 -16.529 -0.366 0.17
21.719 -16.55 -0.367 0.3
21.841 -16.535 -0.369 0.2
22.046 -16.582 -0.373 0.48
22.197 -16.587 -0.376 0.25
22.365 -16.603 -0.379 0.27
22.507 -16.599 -0.381 0.27
22.665 -16.606 -0.384 0.27
22.79 -16.643 -0.387 0.25
22.939 -16.642 -0.389 0.21
23.085 -16.637 -0.392 0.18
23.269 -16.659 -0.395 0.39
23.435 -16.667 -0.398 0.21
23.613 -16.682 -0.401 0.25
23.76 -16.675 -0.404 0.21
23.93 -16.738 -0.407 0.3
24.075 -16.727 -0.41 0.21
24.265 -16.747 -0.413 0.24
24.425 -16.744 -0.416 0.19
24.608 -16.756 -0.419 0.27
24.781 -16.761 -0.422 0.2
24.973 -16.777 -0.426 0.34
25.109 -16.811 -0.429 0.18
25.303 -16.826 -0.432 0.38
25.483 -16.831 -0.435 0.2
25.681 -16.846 -0.439 0.16
25.866 -16.852 -0.442 0.34
26.05 -16.855 -0.445 0.2
26.239 -16.861 -0.449 0.18
26.45 -16.88 -0.453 0.28
26.604 -16.92 -0.456 0.12
15.166 -9.565 -0.171 0.3
15.172 -9.502 -0.17 0.37
15.202 -9.455 -0.17 0.32
15.158 -9.361 -0.168 0.32
15.157 -9.295 -0.168 0.47
15.27 -9.298 -0.17 0.3
15.233 -9.243 -0.169 0.27
15.39 -9.273 -0.172 0.19
15.783 -9.443 -0.181 0.11
15.756 -9.359 -0.179 0.0
16.035 -9.457 -0.185 0.13
29.128 -17.081 -0.503 0.14
29.233 -17.02 -0.504 0.23
29.367 -17.036 -0.507 0.18
29.59 -17.042 -0.511 0.16
29.976 -17.139 -0.519 0.23
30.258 -17.175 -0.524 0.16
30.496 -17.184 -0.529 0.15
30.731 -17.189 -0.533 0.18
31.016 -17.221 -0.539 0.12
31.214 -17.267 -0.543 0.13
31.47 -17.28 -0.548 0.09
31.747 -17.303 -0.553 0.15
31.977 -17.298 -0.557 0.09
32.267 -17.325 -0.563 0.0
32.533 -17.336 -0.568 0.12
32.81 -17.352 -0.573 0.16
33.048 -17.411 -0.578 0.09
33.334 -17.429 -0.584 0.09
33.623 -17.446 -0.589 0.16
33.916 -17.463 -0.595 0.0
34.197 -17.472 -0.6 0.0
34.526 -17.504 -0.607 0.0
34.8 -17.506 -0.612 0.0
35.051 -17.563 -0.617 0.0
35.362 -17.581 -0.623 0.0
35.688 -17.603 -0.629 0.0
36.007 -17.62 -0.635 0.0
36.314 -17.63 -0.641 0.0
36.641 -17.647 -0.648 0.0
36.958 -17.657 -0.654 0.0
37.252 -17.654 -0.659 0.0
37.592 -17.743 -0.667 0.0
37.926 -17.755 -0.673 0.0
38.25 -17.761 -0.679 0.0
38.622 -17.786 -0.686 0.0
38.979 -17.803 -0.693 0.0
39.334 -17.816 -0.7 0.0
39.692 -17.829 -0.707 0.0
40.03 -17.905 -0.714 0.0
40.428 -17.931 -0.722 0.0
40.837 -17.96 -0.73 0.0
41.229 -17.978 -0.738 0.0
41.608 -17.988 -0.745 0.0
42.003 -18.002 -0.753 0.0
42.412 -18.02 -0.761 0.0
42.782 -18.019 -0.768 0.0
43.099 -18.074 -0.775 0.0
43.54 -18.098 -0.784 0.0
43.963 -18.112 -0.792 0.0
44.203 -18.049 -0.796 0.0
44.565 -18.034 -0.803 0.0
45.148 -18.105 -0.815 0.0
45.698 -18.243 -0.827 0.0
46.151 -18.256 -0.836 0.07
46.62 -18.273 -0.845 0.09
47.081 -18.283 -0.854 0.0
47.417 -18.242 -0.86 0.0
47.631 -18.153 -0.864 0.0
47.951 -18.103 -0.87 0.0
48.238 -18.039 -0.875 0.0
48.424 -18.022 -0.878 0.0
48.54 -17.892 -0.88 0.0
48.756 -17.797 -0.883 0.0
48.84 -17.654 -0.884 0.0
48.972 -17.529 -0.886 0.0
49.219 -17.443 -0.89 0.0
49.404 -17.334 -0.893 0.0
49.537 -17.293 -0.895 0.0
49.698 -17.175 -0.897 0.0
35.872 -12.137 -0.589 0.12
35.866 -12.01 -0.588 0.41
35.896 -11.895 -0.588 0.21
36.116 -11.842 -0.592 0.33
36.271 -11.83 -0.595 0.18
36.39 -11.742 -0.597 0.0
36.387 -11.615 -0.596 0.06
50.545 -15.97 -0.906 0.0
51.242 -16.014 -0.921 0.0
40.633 -12.413 -0.686 0.32
40.662 -12.282 -0.686 0.0
40.743 -12.237 -0.687 0.0
53.125 -15.782 -0.957 0.0
53.314 -15.657 -0.96 0.0
49.622 -14.064 -0.876 0.0
50.941 -14.265 -0.904 0.03
42.773 -11.901 -0.726 0.15
42.832 -11.773 -0.726 0.28
42.955 -11.662 -0.728 0.25
43.094 -11.554 -0.73 0.0
43.149 -11.424 -0.731 0.0
52.51 -13.732 -0.933 0.0
52.987 -13.679 -0.942 0.0
53.252 -13.658 -0.948 0.0
53.531 -13.551 -0.953 0.0
53.83 -13.447 -0.958 0.0
52.744 -12.999 -0.934 0.0
53.748 -13.068 -0.955 0.0
54.024 -12.956 -0.96 0.0
54.059 -12.784 -0.96 0.0
54.275 -12.746 -0.964 0.0
54.33 -12.579 -0.964 0.0
54.422 -12.42 -0.965 0.0
54.931 -12.355 -0.975 0.0
55.415 -12.281 -0.985 0.0
56.328 -12.299 -1.004 0.0
57.36 -12.336 -1.025 0.0
58.065 -12.392 -1.04 0.0
59.096 -12.419 -1.061 0.0
62.055 -12.635 -1.123 0.0
63.219 -12.666 -1.147 0.0
65.826 -11.797 -1.197 0.0
65.923 -11.387 -1.198 0.0
64.78 -10.04 -1.169 0.0
65.456 -9.934 -1.183 0.0
66.665 -9.904 -1.208 0.0
67.035 -9.852 -1.216 0.0
68.713 -9.438 -1.249 0.0
68.856 -9.237 -1.252 0.0
68.994 -7.825 -1.251 0.0
67.381 -7.428 -1.216 0.0
67.175 -7.191 -1.212 0.0
66.996 -7.065 -1.207 0.0
59.212 0.149 -1.339 0.0
58.89 0.333 -1.331 0.0
58.015 5.539 -1.315 0.0
58.051 5.727 -1.316 0.0
51.54 5.409 -1.147 0.0
43.854 6.558 -0.952 0.0
38.805 6.864 -0.823 0.0
38.677 6.967 -0.82 0.0
38.564 7.385 -0.819 0.0
33.867 8.154 -0.704 0.0
33.88 8.269 -0.705 0.0
46.228 12.143 -1.042 0.0
45.869 12.203 -1.033 0.04
44.915 12.1 -1.008 0.18
44.474 12.056 -0.997 0.1
44.208 12.133 -0.991 0.17
44.022 12.23 -0.987 0.29
43.792 12.315 -0.982 0.16
43.694 12.435 -0.98 0.36
43.657 12.573 -0.98 0.23
43.655 12.722 -0.981 0.23
43.691 12.806 -0.983 0.18
43.788 12.985 -0.986 0.0
25.15 7.791 -0.482 0.0
32.223 12.606 -0.698 0.27
32.006 12.637 -0.693 0.18
31.927 12.722 -0.692 0.47
31.522 12.675 -0.681 0.22
31.269 12.688 -0.675 0.2
31.188 12.769 -0.674 0.38
31.122 12.799 -0.673 0.2
30.637 12.712 -0.66 0.28
30.499 12.767 -0.657 0.27
30.462 12.864 -0.658 0.33
30.337 12.924 -0.655 0.28
30.337 13.036 -0.656 0.31
30.413 13.183 -0.66 0.31
30.406 13.293 -0.661 0.31
30.38 13.339 -0.661 0.28
30.31 13.422 -0.66 0.15
30.303 13.533 -0.661 0.0
30.373 13.679 -0.664 0.0
30.265 13.744 -0.662 0.09
29.382 13.454 -0.638 0.0
17.647 8.136 -0.302 0.08
17.663 8.177 -0.303 0.21
17.666 8.246 -0.304 0.23
17.671 8.316 -0.305 0.36
17.661 8.38 -0.305 0.27
17.647 8.441 -0.305 0.0
16.945 8.17 -0.286 0.0
16.823 8.176 -0.283 0.0
16.761 8.178 -0.282 0.0
16.614 8.171 -0.278 0.0
16.488 8.173 -0.275 0.0
16.374 8.181 -0.273 0.0
16.252 8.184 -0.27 0.0
16.123 8.182 -0.267 0.0
16.014 8.19 -0.264 0.0
15.907 8.166 -0.262 0.0
15.783 8.166 -0.259 0.12
15.773 8.224 -0.259 0.12
15.9 8.353 -0.264 0.14
15.928 8.432 -0.265 0.22
15.923 8.494 -0.266 0.37
15.928 8.561 -0.267 0.21
15.93 8.594 -0.267 0.18
16.052 8.726 -0.272 0.18
16.072 8.802 -0.273 0.54
14.963 8.254 -0.241 0.14
16.072 8.934 -0.275 0.41
16.081 9.005 -0.276 0.33
16.084 9.073 -0.277 0.32
16.084 9.141 -0.278 0.41
16.094 9.18 -0.278 0.37
16.091 9.245 -0.279 0.38
16.092 9.313 -0.28 0.38
16.08 9.373 -0.281 0.51
15.867 9.316 -0.275 0.21
15.855 9.376 -0.276 0.1
15.872 9.454 -0.277 0.14
16.041 9.658 -0.284 0.55
15.972 9.684 -0.282 0.13
15.892 9.704 -0.281 0.29
15.849 9.746 -0.28 0.0
24.235 15.025 -0.539 0.0
24.071 15.028 -0.535 0.0
23.998 15.035 -0.534 0.0
23.85 15.046 -0.531 0.0
23.721 15.069 -0.528 0.0
21.427 13.703 -0.459 0.0
15.145 9.744 -0.265 0.13
15.092 9.777 -0.264 0.16
21.009 13.716 -0.45 0.32
20.981 13.745 -0.449 0.29
20.725 13.671 -0.443 0.29
20.641 13.708 -0.441 0.3
20.573 13.756 -0.441 0.36
20.455 13.77 -0.438 0.4
20.312 13.767 -0.435 0.31
20.299 13.851 -0.436 0.33
20.247 13.863 -0.435 0.38
20.184 13.913 -0.435 0.38
20.35 14.122 -0.441 0.25
20.211 14.12 -0.438 0.26
20.168 14.184 -0.438 0.35
22.815 16.158 -0.524 0.2
20.112 14.335 -0.439 0.46
20.043 14.333 -0.438 0.2
21.429 15.429 -0.484 0.35
21.466 15.558 -0.487 0.24
21.419 15.627 -0.487 0.31
21.334 15.668 -0.486 0.35
21.37 15.798 -0.488 0.2
21.309 15.856 -0.488 0.26
21.243 15.911 -0.487 0.2
20.987 15.77 -0.48 0.53
21.096 15.957 -0.485 0.22
20.875 15.892 -0.479 0.28
20.729 15.885 -0.476 0.22
18.011 13.887 -0.388 0.41
17.916 13.904 -0.387 0.17
17.788 13.894 -0.384 0.33
17.717 13.884 -0.382 0.32
17.617 13.895 -0.38 0.43
17.459 13.859 -0.377 0.22
17.109 13.669 -0.366 0.3
17.06 13.717 -0.366 0.37
16.989 13.748 -0.365 0.37
16.949 13.804 -0.365 0.36
16.907 13.814 -0.365 0.38
16.828 13.838 -0.363 0.24
16.726 13.842 -0.361 0.45
16.692 13.903 -0.362 0.42
16.631 13.941 -0.361 0.35
16.538 13.952 -0.36 0.29
16.469 13.981 -0.359 0.39
16.451 14.011 -0.359 0.4
16.481 14.127 -0.361 0.29
16.302 14.062 -0.357 0.36
16.065 13.945 -0.35 0.25
15.896 13.886 -0.346 0.39
15.817 13.904 -0.344 0.34
15.821 13.996 -0.346 0.29
15.802 14.024 -0.346 0.35
15.734 14.052 -0.345 0.27
15.505 13.936 -0.339 0.36
15.481 14.002 -0.34 0.38
15.478 14.088 -0.341 0.4
15.295 14.009 -0.336 0.34
15.347 14.146 -0.34 0.35
15.188 14.043 -0.335 0.28
15.107 14.057 -0.333 0.43
15.151 14.186 -0.337 0.29
15.12 14.248 -0.337 0.36
15.186 14.4 -0.341 0.3
15.15 14.457 -0.341 0.36
15.125 14.524 -0.342 0.38
14.985 14.48 -0.339 0.32
14.922 14.464 -0.337 0.32
14.788 14.424 -0.334 0.37
14.784 14.511 -0.335 0.21
14.925 14.743 -0.342 0.52
15.009 14.92 -0.347 0.21
16.73 16.74 -0.412 0.2
14.915 15.014 -0.347 0.27
14.916 15.062 -0.348 0.51
14.877 15.117 -0.348 0.32
16.2 16.569 -0.4 0.26
16.187 16.66 -0.401 0.39
16.146 16.722 -0.401 0.29
16.04 16.718 -0.399 0.32
15.962 16.741 -0.398 0.26
15.899 16.781 -0.398 0.32
15.866 16.798 -0.398 0.4
15.909 16.95 -0.401 0.36
15.792 16.931 -0.399 0.34
15.715 16.956 -0.398 0.28
15.798 17.154 -0.403 0.16
15.55 16.991 -0.396 0.21
15.438 16.975 -0.394 0.53
15.399 16.985 -0.393 0.19
16.849 18.707 -0.452 0.29
16.78 18.747 -0.451 0.29
16.688 18.763 -0.45 0.24
15.294 17.302 -0.397 0.39
14.175 16.238 -0.357 0.15
14.094 16.196 -0.355 0.41
13.998 16.188 -0.353 0.38
13.92 16.2 -0.352 0.47
13.857 16.23 -0.352 0.31
13.791 16.255 -0.351 0.58
13.749 16.309 -0.352 0.35
13.691 16.345 -0.351 0.35
13.636 16.331 -0.35 0.34
13.568 16.354 -0.349 0.34
13.488 16.362 -0.348 0.34
13.412 16.374 -0.347 0.34
13.34 16.391 -0.346 0.34
13.265 16.403 -0.345 0.32
13.188 16.414 -0.344 0.4
13.141 16.408 -0.343 0.34
13.063 16.416 -0.342 0.33
12.992 16.432 -0.342 0.36
12.912 16.436 -0.34 0.25
12.837 16.447 -0.339 0.35
12.772 16.47 -0.339 0.35
12.665 16.438 -0.336 0.35
12.599 16.459 -0.336 0.33
12.575 16.482 -0.336 0.31
12.509 16.502 -0.335 0.49
12.437 16.514 -0.334 0.29
12.367 16.529 -0.334 0.35
12.292 16.538 -0.333 0.19
12.227 16.558 -0.332 0.15
