# .PCD v.7 - Point Cloud Data file format
VERSION .7
FIELDS x y z intensity
SIZE 4 4 4 4
TYPE F F F F
COUNT 1 1 1 1
WIDTH 1960
HEIGHT 1
VIEWPOINT 0 0 0 1 0 0 0
POINTS 1960
DATA ascii
0.851 4.963 -1.736 0.04
0.838 4.977 -1.74 0.07
0.829 4.972 -1.738 0.15
0.813 4.971 -1.737 0.09
0.799 4.983 -1.74 0.16
0.783 4.985 -1.74 0.04
0.767 4.984 -1.739 0.08
0.752 4.996 -1.743 0.08
0.735 4.989 -1.739 0.16
0.729 5.003 -1.744 0.04
0.713 5.002 -1.743 0.08
0.696 4.993 -1.738 0.08
0.68 4.991 -1.737 0.08
0.666 5.01 -1.743 0.08
0.65 5.012 -1.743 0.08
0.636 5.029 -1.749 0.09
0.62 5.022 -1.745 0.09
0.612 5.023 -1.745 0.15
0.595 5.019 -1.743 0.17
0.581 5.036 -1.749 0.09
0.564 5.024 -1.744 0.16
0.548 5.022 -1.743 0.17
0.533 5.037 -1.747 0.16
0.517 5.035 -1.746 0.18
0.508 5.028 -1.743 0.16
0.493 5.038 -1.746 0.17
0.478 5.039 -1.746 0.04
0.463 5.05 -1.749 0.07
0.448 5.064 -1.754 0.09
0.43 5.041 -1.745 0.08
0.414 5.039 -1.744 0.16
0.406 5.047 -1.747 0.04
0.39 5.045 -1.745 0.15
0.374 5.046 -1.745 0.18
0.359 5.058 -1.749 0.17
0.343 5.05 -1.746 0.17
0.328 5.06 -1.749 0.17
0.312 5.065 -1.751 0.17
0.296 5.062 -1.749 0.17
0.288 5.068 -1.752 0.18
0.272 5.073 -1.753 0.16
0.255 5.053 -1.745 0.04
0.24 5.069 -1.751 0.14
0.224 5.07 -1.751 0.18
0.208 5.059 -1.747 0.17
0.192 5.069 -1.75 0.18
0.184 5.064 -1.748 0.04
0.168 5.061 -1.747 0.16
0.152 5.065 -1.748 0.18
0.137 5.067 -1.749 0.16
0.121 5.068 -1.749 0.18
0.105 5.074 -1.751 0.17
0.089 5.1 -1.761 0.18
0.081 5.083 -1.754 0.18
0.065 5.08 -1.753 0.17
0.049 5.078 -1.752 0.16
0.033 5.061 -1.746 0.17
0.017 5.086 -1.755 0.17
0.001 5.084 -1.754 0.16
-0.015 5.088 -1.756 0.09
-0.023 5.075 -1.751 0.04
-0.039 5.084 -1.754 0.15
-0.055 5.093 -1.758 0.18
-0.071 5.087 -1.756 0.17
-0.087 5.089 -1.756 0.18
-0.102 5.072 -1.75 0.16
-0.118 5.073 -1.751 0.18
-0.135 5.079 -1.753 0.16
-0.142 5.073 -1.751 0.16
-0.159 5.084 -1.755 0.16
-0.174 5.072 -1.751 0.16
-0.19 5.069 -1.75 0.17
-0.206 5.074 -1.752 0.17
-0.222 5.077 -1.754 0.18
-0.238 5.071 -1.752 0.04
-0.246 5.078 -1.754 0.15
-0.262 5.075 -1.754 0.05
-0.279 5.084 -1.757 0.14
-0.294 5.077 -1.755 0.19
-0.31 5.073 -1.754 0.17
-0.326 5.07 -1.753 0.18
-0.342 5.074 -1.755 0.17
-0.35 5.076 -1.756 0.17
-0.366 5.069 -1.754 0.17
-0.382 5.066 -1.753 0.16
-0.397 5.065 -1.753 0.17
-0.415 5.078 -1.758 0.17
-0.43 5.07 -1.756 0.18
-0.446 5.07 -1.756 0.18
-0.462 5.065 -1.755 0.17
-0.469 5.061 -1.754 0.17
-0.486 5.072 -1.758 0.18
-0.502 5.069 -1.758 0.18
-0.518 5.061 -1.756 0.17
-0.533 5.058 -1.755 0.04
-0.551 5.071 -1.761 0.15
-0.565 5.058 -1.756 0.05
-0.583 5.069 -1.761 0.16
-0.591 5.072 -1.763 0.19
-0.606 5.057 -1.758 0.17
-0.622 5.063 -1.761 0.18
-0.637 5.053 -1.758 0.18
-0.654 5.059 -1.761 0.16
-0.671 5.064 -1.763 0.18
-0.685 5.047 -1.758 0.16
-0.693 5.046 -1.758 0.16
-0.711 5.059 -1.763 0.17
-0.725 5.042 -1.758 0.18
-0.74 5.036 -1.756 0.18
-0.756 5.033 -1.756 0.16
-0.772 5.033 -1.757 0.18
-0.789 5.04 -1.761 0.17
-0.798 5.046 -1.763 0.16
-0.812 5.032 -1.759 0.17
-0.829 5.037 -1.762 0.04
-0.844 5.031 -1.761 0.14
-0.863 5.041 -1.765 0.18
-0.876 5.027 -1.761 0.16
-0.894 5.035 -1.765 0.16
-0.908 5.02 -1.761 0.17
-0.916 5.02 -1.761 0.17
-0.933 5.023 -1.763 0.16
-0.947 5.014 -1.761 0.17
-0.963 5.009 -1.761 0.16
-0.981 5.021 -1.766 0.17
-0.993 4.996 -1.758 0.04
-1.011 5.007 -1.763 0.16
-1.018 5.002 -1.762 0.19
-1.035 5.001 -1.763 0.04
-1.053 5.01 -1.767 0.07
-1.067 4.998 -1.764 0.15
-1.08 4.982 -1.759 0.16
-1.094 4.973 -1.757 0.04
-1.113 4.982 -1.762 0.14
-1.122 4.986 -1.764 0.19
-1.135 4.971 -1.76 0.04
-1.152 4.975 -1.763 0.07
-1.168 4.971 -1.763 0.08
-1.183 4.966 -1.762 0.09
-1.197 4.955 -1.759 0.09
-1.215 4.96 -1.763 0.08
-1.232 4.962 -1.765 0.08
-1.241 4.967 -1.767 0.08
-1.252 4.945 -1.761 0.09
-1.271 4.956 -1.766 0.08
-1.285 4.942 -1.763 0.08
-1.303 4.949 -1.767 0.09
-1.315 4.931 -1.761 0.16
-1.332 4.932 -1.763 0.16
-1.35 4.939 -1.767 0.17
-1.356 4.931 -1.765 0.17
-1.373 4.932 -1.767 0.17
-1.388 4.924 -1.766 0.18
-1.402 4.916 -1.765 0.16
-1.422 4.928 -1.771 0.09
-1.433 4.906 -1.764 0.08
-1.443 4.883 -1.757 0.08
-1.456 4.899 -1.764 0.08
-1.472 4.898 -1.765 0.08
-1.487 4.893 -1.765 0.09
-1.505 4.896 -1.768 0.16
-1.519 4.887 -1.767 0.16
-1.532 4.875 -1.764 0.16
-1.545 4.863 -1.761 0.04
-1.554 4.864 -1.763 0.08
-1.569 4.859 -1.763 0.08
-1.589 4.867 -1.767 0.14
-1.602 4.857 -1.765 0.16
-1.622 4.866 -1.771 0.16
-1.632 4.845 -1.765 0.17
-1.645 4.832 -1.762 0.04
-1.655 4.837 -1.765 0.08
-1.671 4.835 -1.766 0.08
-1.682 4.816 -1.761 0.04
-1.702 4.826 -1.767 0.08
-1.716 4.816 -1.765 0.15
-1.73 4.807 -1.763 0.18
-1.744 4.8 -1.763 0.17
-1.762 4.801 -1.765 0.17
-1.767 4.791 -1.763 0.16
-1.786 4.798 -1.767 0.16
-1.8 4.789 -1.766 0.17
-1.816 4.787 -1.767 0.16
-1.831 4.779 -1.767 0.16
-1.838 4.754 -1.759 0.04
-1.854 4.75 -1.76 0.08
-1.867 4.761 -1.765 0.09
-1.871 4.729 -1.755 0.09
-1.89 4.734 -1.759 0.14
-1.908 4.735 -1.762 0.17
-1.921 4.725 -1.761 0.17
-1.936 4.717 -1.76 0.18
-1.95 4.711 -1.76 0.17
-1.957 4.707 -1.759 0.16
-1.967 4.688 -1.754 0.04
-1.988 4.698 -1.761 0.15
-2.007 4.702 -1.765 0.19
-2.017 4.683 -1.76 0.04
-2.035 4.686 -1.763 0.14
-2.046 4.671 -1.76 0.18
-2.062 4.666 -1.761 0.18
-2.073 4.671 -1.764 0.17
-2.084 4.658 -1.761 0.04
-2.096 4.644 -1.758 0.07
-2.115 4.648 -1.763 0.16
-2.125 4.631 -1.758 0.17
-2.14 4.626 -1.759 0.18
-2.148 4.606 -1.754 0.04
-2.172 4.618 -1.761 0.14
-2.172 4.599 -1.755 0.05
-2.191 4.602 -1.759 0.15
-2.204 4.592 -1.758 0.05
-2.222 4.594 -1.761 0.16
-2.227 4.566 -1.753 0.05
-2.252 4.581 -1.762 0.16
-2.261 4.562 -1.757 0.05
-2.269 4.562 -1.758 0.15
-2.279 4.545 -1.754 0.05
-2.298 4.548 -1.758 0.16
-2.309 4.534 -1.756 0.2
-2.319 4.518 -1.752 0.09
-2.333 4.511 -1.752 0.09
-2.36 4.528 -1.763 0.16
-2.354 4.5 -1.752 0.05
-2.368 4.492 -1.752 0.14
-2.385 4.49 -1.754 0.19
-2.401 4.486 -1.756 0.1
-2.419 4.485 -1.758 0.15
-2.426 4.466 -1.754 0.05
-2.44 4.456 -1.753 0.16
-2.449 4.44 -1.749 0.11
-2.46 4.445 -1.753 0.2
-2.482 4.45 -1.758 0.23
-2.494 4.439 -1.757 0.27
-2.507 4.43 -1.756 0.28
-2.514 4.41 -1.752 0.3
-2.532 4.409 -1.754 0.32
-2.546 4.401 -1.754 0.29
-2.549 4.39 -1.752 0.34
-2.565 4.387 -1.754 0.29
-2.585 4.389 -1.758 0.34
-2.59 4.366 -1.752 0.29
-2.609 4.366 -1.755 0.33
-2.617 4.348 -1.751 0.28
-2.629 4.338 -1.75 0.3
-2.637 4.336 -1.751 0.31
-2.655 4.334 -1.754 0.31
-2.664 4.319 -1.751 0.31
-2.677 4.309 -1.75 0.28
-2.696 4.31 -1.754 0.24
-2.695 4.278 -1.744 0.33
-2.726 4.298 -1.756 0.2
-2.732 4.277 -1.751 0.12
-2.741 4.277 -1.753 0.2
-2.756 4.27 -1.754 0.17
-2.769 4.261 -1.754 0.31
-2.777 4.245 -1.75 0.3
-2.788 4.232 -1.748 0.36
-2.805 4.229 -1.751 0.36
-2.822 4.225 -1.753 0.29
-2.829 4.207 -1.749 0.14
-2.844 4.215 -1.754 0.18
-2.853 4.199 -1.752 0.12
-2.867 4.192 -1.752 0.2
-2.886 4.192 -1.756 0.17
-2.893 4.174 -1.752 0.28
-2.915 4.177 -1.758 0.2
-2.911 4.143 -1.747 0.23
-2.927 4.153 -1.753 0.19
-2.931 4.131 -1.747 0.12
-2.94 4.116 -1.745 0.2
-2.965 4.123 -1.752 0.16
-2.967 4.099 -1.745 0.26
-2.987 4.1 -1.75 0.21
-3.003 4.095 -1.752 0.18
-3.005 4.084 -1.749 0.27
-3.028 4.088 -1.756 0.22
-3.023 4.055 -1.745 0.12
-3.042 4.053 -1.748 0.2
-3.066 4.058 -1.755 0.18
-3.058 4.022 -1.743 0.27
-3.088 4.034 -1.753 0.2
-3.093 4.016 -1.749 0.12
-3.099 4.009 -1.748 0.21
-3.119 4.01 -1.753 0.18
-3.121 3.987 -1.747 0.28
-3.148 3.995 -1.755 0.21
-3.151 3.973 -1.749 0.12
-3.16 3.959 -1.747 0.18
-3.17 3.946 -1.746 0.1
-3.194 3.963 -1.756 0.18
-3.185 3.927 -1.744 0.05
-3.213 3.935 -1.753 0.17
-3.212 3.909 -1.745 0.19
-3.231 3.908 -1.749 0.18
-3.246 3.901 -1.751 0.04
-3.254 3.885 -1.748 0.0
-3.273 3.883 -1.752 0.0
-3.286 3.887 -1.756 0.0
-3.285 3.861 -1.749 0.0
-3.305 3.859 -1.753 0.0
-3.319 3.851 -1.754 0.0
-3.335 3.845 -1.756 0.0
-3.353 3.841 -1.76 0.0
-3.368 3.834 -1.761 0.0
-3.373 3.827 -1.761 0.0
-3.385 3.816 -1.761 0.0
-3.39 3.799 -1.757 0.0
-3.401 3.787 -1.756 0.0
-3.41 3.773 -1.755 0.0
-3.426 3.767 -1.757 0.0
-3.435 3.753 -1.756 0.0
-3.444 3.75 -1.757 0.0
-3.459 3.744 -1.759 0.0
-3.472 3.734 -1.76 0.0
-3.476 3.715 -1.756 0.0
-3.497 3.714 -1.761 0.0
-3.506 3.7 -1.759 0.0
-3.518 3.689 -1.759 0.0
-3.523 3.671 -1.756 0.0
-3.54 3.678 -1.762 0.03
-3.553 3.668 -1.763 0.13
-3.563 3.655 -1.762 0.04
-3.58 3.65 -1.765 0.17
-3.582 3.629 -1.76 0.05
-3.598 3.622 -1.762 0.17
-3.61 3.612 -1.763 0.2
-3.61 3.588 -1.756 0.18
-3.623 3.591 -1.761 0.16
-3.633 3.578 -1.76 0.04
-3.65 3.572 -1.763 0.16
-3.656 3.555 -1.76 0.05
-3.679 3.555 -1.766 0.17
-3.693 3.546 -1.767 0.2
-3.718 3.547 -1.774 0.19
-3.701 3.521 -1.763 0.25
-3.729 3.525 -1.772 0.18
-3.729 3.503 -1.766 0.25
-3.752 3.503 -1.772 0.18
-3.745 3.474 -1.763 0.23
-3.785 3.489 -1.778 0.19
-3.771 3.454 -1.765 0.25
-3.786 3.457 -1.77 0.18
-3.801 3.449 -1.772 0.25
-3.816 3.441 -1.774 0.18
-3.806 3.41 -1.764 0.24
-3.831 3.411 -1.771 0.19
-3.832 3.39 -1.766 0.24
-3.855 3.389 -1.772 0.18
-3.855 3.378 -1.77 0.25
-3.877 3.376 -1.775 0.16
-3.874 3.353 -1.769 0.24
-3.903 3.356 -1.778 0.2
-3.894 3.327 -1.768 0.24
-3.924 3.332 -1.778 0.19
-3.91 3.299 -1.766 0.25
-3.947 3.308 -1.778 0.2
-3.936 3.289 -1.771 0.23
-3.971 3.297 -1.783 0.18
-3.958 3.265 -1.772 0.14
-3.976 3.259 -1.775 0.18
-3.973 3.235 -1.769 0.21
-4.015 3.249 -1.784 0.18
-4.003 3.219 -1.774 0.24
-4.032 3.231 -1.785 0.19
-4.017 3.199 -1.773 0.22
-4.042 3.197 -1.78 0.19
-4.038 3.174 -1.774 0.23
-4.06 3.171 -1.779 0.18
-4.061 3.151 -1.775 0.23
-4.085 3.149 -1.781 0.17
-4.078 3.123 -1.774 0.25
-4.102 3.132 -1.783 0.2
-4.087 3.1 -1.771 0.25
-4.119 3.104 -1.781 0.2
-4.118 3.083 -1.776 0.25
-4.15 3.087 -1.787 0.21
-4.127 3.049 -1.772 0.12
-4.142 3.041 -1.774 0.2
-4.175 3.054 -1.787 0.2
-4.151 3.017 -1.772 0.24
-4.18 3.018 -1.781 0.19
-4.171 2.992 -1.772 0.12
-4.187 2.983 -1.775 0.21
-4.21 2.979 -1.781 0.2
-4.205 2.956 -1.775 0.23
-4.225 2.961 -1.782 0.19
-4.221 2.938 -1.776 0.23
-4.242 2.933 -1.781 0.2
-4.244 2.914 -1.778 0.23
-4.267 2.91 -1.784 0.18
-4.263 2.889 -1.778 0.25
-4.277 2.878 -1.781 0.18
-4.286 2.865 -1.781 0.25
-4.295 2.861 -1.783 0.18
-4.292 2.839 -1.777 0.25
-4.315 2.835 -1.783 0.18
-4.31 2.812 -1.777 0.25
-4.339 2.812 -1.786 0.17
-4.335 2.79 -1.781 0.25
-4.347 2.779 -1.782 0.22
-4.35 2.771 -1.781 0.19
-4.355 2.755 -1.78 0.27
-4.369 2.744 -1.782 0.23
-4.377 2.731 -1.782 0.18
-4.375 2.71 -1.777 0.26
-4.402 2.708 -1.785 0.19
-4.4 2.687 -1.781 0.25
-4.406 2.673 -1.78 0.21
-4.422 2.672 -1.785 0.17
-4.419 2.652 -1.78 0.27
-4.437 2.644 -1.784 0.19
-4.439 2.626 -1.781 0.24
-4.463 2.621 -1.788 0.18
-4.455 2.598 -1.781 0.13
-4.47 2.588 -1.784 0.21
-4.48 2.584 -1.787 0.21
-4.477 2.564 -1.782 0.14
-4.498 2.557 -1.787 0.21
-4.505 2.542 -1.787 0.18
-4.501 2.522 -1.782 0.27
-4.535 2.522 -1.793 0.2
-4.523 2.497 -1.785 0.22
-4.529 2.491 -1.785 0.23
-4.54 2.478 -1.787 0.15
-4.543 2.461 -1.785 0.29
-4.547 2.445 -1.783 0.23
-4.573 2.44 -1.791 0.2
-4.577 2.424 -1.79 0.25
-4.588 2.412 -1.791 0.22
-4.581 2.39 -1.785 0.12
-4.591 2.386 -1.787 0.21
-4.609 2.376 -1.792 0.2
-4.6 2.353 -1.785 0.13
-4.614 2.342 -1.787 0.21
-4.616 2.325 -1.785 0.16
-4.64 2.319 -1.792 0.27
-4.636 2.299 -1.787 0.16
-4.646 2.295 -1.79 0.28
-4.663 2.285 -1.794 0.22
-4.65 2.261 -1.786 0.12
-4.664 2.249 -1.789 0.2
-4.676 2.237 -1.791 0.17
-4.681 2.222 -1.79 0.27
-4.685 2.205 -1.789 0.22
-4.714 2.21 -1.799 0.18
-4.705 2.188 -1.793 0.27
-4.726 2.179 -1.799 0.18
-4.717 2.157 -1.792 0.25
-4.738 2.149 -1.798 0.18
-4.722 2.124 -1.789 0.24
-4.738 2.113 -1.792 0.23
-4.756 2.103 -1.797 0.17
-4.747 2.091 -1.792 0.26
-4.768 2.082 -1.798 0.18
-4.762 2.061 -1.793 0.25
-4.781 2.052 -1.798 0.18
-4.763 2.026 -1.788 0.25
-4.8 2.024 -1.801 0.18
-4.793 2.004 -1.795 0.24
-4.808 2.001 -1.8 0.18
-4.808 1.983 -1.797 0.25
-4.821 1.971 -1.8 0.2
-4.815 1.951 -1.795 0.23
-4.833 1.94 -1.8 0.19
-4.822 1.918 -1.793 0.05
-4.843 1.909 -1.799 0.18
-4.832 1.896 -1.794 0.2
-4.845 1.884 -1.796 0.17
-4.881 1.88 -1.808 0.0
-4.873 1.859 -1.803 0.0
-4.87 1.841 -1.799 0.0
-4.884 1.829 -1.803 0.0
-4.925 1.826 -1.817 0.0
-37.436 9.256 -14.087 0.0
-37.463 9.2 -14.092 0.0
-4.375 -2.031 -1.658 0.0
-4.305 -2.006 -1.631 0.02
-4.27 -2.006 -1.619 0.07
-4.23 -2.003 -1.606 0.18
-4.221 -2.015 -1.604 0.11
-4.251 -2.046 -1.619 0.2
-4.268 -2.071 -1.629 0.18
-4.24 -2.074 -1.62 0.15
-4.307 -2.116 -1.649 0.18
-4.329 -2.144 -1.661 0.22
-4.368 -2.18 -1.68 0.09
-4.296 -2.161 -1.653 0.2
-4.391 -2.226 -1.695 0.19
-4.33 -2.212 -1.673 0.21
-4.463 -2.299 -1.731 0.11
-4.532 -2.353 -1.763 0.04
-4.552 -2.373 -1.772 0.07
-4.561 -2.396 -1.779 0.14
-4.58 -2.424 -1.79 0.04
-4.615 -2.462 -1.808 0.15
-4.597 -2.471 -1.804 0.05
-4.599 -2.491 -1.808 0.16
-4.569 -2.492 -1.799 0.2
-4.54 -2.486 -1.788 0.04
-4.499 -2.482 -1.774 0.07
-4.462 -2.479 -1.762 0.0
-4.497 -2.517 -1.78 0.13
-4.52 -2.549 -1.793 0.05
-4.513 -2.564 -1.794 0.15
-4.541 -2.599 -1.809 0.11
-4.517 -2.604 -1.802 0.19
-4.485 -2.595 -1.79 0.05
-4.503 -2.624 -1.801 0.14
-4.506 -2.645 -1.806 0.21
-4.454 -2.633 -1.787 0.09
-4.446 -2.647 -1.787 0.09
-4.437 -2.661 -1.787 0.09
-4.419 -2.669 -1.783 0.08
-4.404 -2.669 -1.778 0.09
-4.4 -2.686 -1.781 0.15
-4.363 -2.682 -1.768 0.05
-4.35 -2.693 -1.766 0.16
-4.303 -2.682 -1.749 0.05
-4.287 -2.691 -1.746 0.15
-4.25 -2.686 -1.734 0.05
-4.244 -2.692 -1.733 0.15
-4.207 -2.687 -1.72 0.19
-4.179 -2.687 -1.711 0.17
-4.118 -2.666 -1.689 0.04
-4.068 -2.651 -1.67 0.0
-4.033 -2.646 -1.658 0.0
-4.024 -2.659 -1.658 0.0
-3.998 -2.65 -1.649 0.0
-3.967 -2.647 -1.638 0.0
-3.941 -2.648 -1.631 0.0
-4.354 -3.009 -1.831 0.06
-4.332 -3.014 -1.826 0.04
-4.335 -3.026 -1.829 0.04
-4.333 -3.045 -1.832 0.0
-4.339 -3.07 -1.839 0.13
-4.337 -3.089 -1.843 0.05
-4.318 -3.096 -1.839 0.07
-4.335 -3.129 -1.851 0.15
-4.324 -3.142 -1.85 0.23
-4.286 -3.124 -1.835 0.17
-4.288 -3.147 -1.841 0.16
-4.299 -3.176 -1.85 0.17
-4.277 -3.18 -1.845 0.04
-4.264 -3.191 -1.843 0.07
-4.254 -3.205 -1.843 0.16
-4.272 -3.24 -1.857 0.2
-4.243 -3.238 -1.848 0.05
-4.247 -3.252 -1.852 0.14
-4.245 -3.272 -1.856 0.05
-4.234 -3.284 -1.855 0.16
-4.219 -3.294 -1.853 0.11
-4.214 -3.312 -1.856 0.17
-4.205 -3.326 -1.857 0.23
-4.211 -3.352 -1.864 0.19
-4.197 -3.352 -1.86 0.22
-4.198 -3.375 -1.866 0.18
-4.177 -3.379 -1.861 0.13
-4.149 -3.378 -1.852 0.17
-4.128 -3.383 -1.848 0.12
-4.135 -3.41 -1.856 0.2
-4.109 -3.41 -1.848 0.16
-4.096 -3.41 -1.845 0.27
-4.097 -3.433 -1.85 0.2
-4.082 -3.442 -1.848 0.24
-4.081 -3.464 -1.853 0.1
-4.084 -3.489 -1.86 0.17
-4.038 -3.471 -1.843 0.21
-4.042 -3.497 -1.85 0.2
-4.013 -3.482 -1.839 0.12
-3.991 -3.485 -1.833 0.18
-3.97 -3.489 -1.828 0.11
-3.964 -3.506 -1.831 0.19
-3.951 -3.516 -1.83 0.11
-3.927 -3.517 -1.823 0.18
-3.931 -3.543 -1.831 0.11
-3.923 -3.547 -1.83 0.18
-3.909 -3.557 -1.828 0.1
-3.901 -3.572 -1.83 0.19
-3.888 -3.583 -1.829 0.11
-3.89 -3.608 -1.836 0.18
-3.872 -3.613 -1.832 0.11
-3.865 -3.629 -1.834 0.18
-3.848 -3.636 -1.832 0.22
-3.853 -3.653 -1.837 0.18
-3.836 -3.66 -1.834 0.06
-3.842 -3.689 -1.843 0.18
-3.836 -3.706 -1.846 0.11
-3.828 -3.722 -1.848 0.18
-3.825 -3.742 -1.852 0.11
-3.813 -3.754 -1.852 0.19
-3.819 -3.772 -1.859 0.11
-3.815 -3.792 -1.863 0.21
-3.802 -3.802 -1.862 0.27
-3.789 -3.813 -1.861 0.11
-3.778 -3.826 -1.862 0.18
-3.747 -3.819 -1.852 0.11
-3.738 -3.834 -1.854 0.17
-3.722 -3.829 -1.848 0.23
-3.699 -3.829 -1.843 0.1
-3.712 -3.867 -1.856 0.18
-3.685 -3.864 -1.848 0.21
-3.663 -3.864 -1.843 0.18
-3.641 -3.865 -1.837 0.17
-3.618 -3.865 -1.832 0.16
-3.613 -3.872 -1.832 0.04
-3.61 -3.893 -1.837 0.15
-3.602 -3.909 -1.839 0.05
-3.588 -3.918 -1.839 0.18
-3.581 -3.935 -1.841 0.2
-3.57 -3.948 -1.842 0.18
-3.56 -3.962 -1.843 0.17
-3.524 -3.946 -1.83 0.04
-3.514 -3.948 -1.828 0.0
-3.525 -3.986 -1.841 0.14
-3.517 -4.002 -1.844 0.05
-3.49 -3.996 -1.836 0.15
-3.487 -4.019 -1.841 0.2
-3.495 -4.054 -1.853 0.19
-3.463 -4.042 -1.842 0.22
-3.451 -4.04 -1.839 0.09
-3.415 -4.024 -1.826 0.08
-3.396 -4.027 -1.822 0.08
-3.388 -4.044 -1.825 0.08
-3.374 -4.053 -1.824 0.08
-3.356 -4.056 -1.821 0.08
-3.337 -4.059 -1.817 0.08
-3.333 -4.067 -1.819 0.0
-3.307 -4.062 -1.811 0.0
-3.305 -4.085 -1.817 0.0
-3.303 -4.109 -1.823 0.0
-3.274 -4.099 -1.814 0.0
-3.247 -4.091 -1.805 0.0
-3.211 -4.072 -1.792 0.0
-3.218 -4.107 -1.803 0.0
-3.177 -4.068 -1.783 0.0
-3.139 -4.045 -1.767 0.0
-3.127 -4.056 -1.768 0.0
-3.114 -4.066 -1.768 0.0
-3.108 -4.085 -1.772 0.0
-3.083 -4.078 -1.765 0.0
-3.083 -4.104 -1.772 0.0
-3.093 -4.132 -1.783 0.0
-3.085 -4.149 -1.786 0.0
-3.061 -4.143 -1.779 0.0
-3.048 -4.153 -1.779 0.0
-3.028 -4.152 -1.774 0.0
-3.007 -4.151 -1.77 0.0
-2.987 -4.151 -1.765 0.0
-2.967 -4.136 -1.756 0.0
-2.947 -4.136 -1.752 0.0
-2.924 -4.131 -1.746 0.0
-2.904 -4.13 -1.741 0.0
-2.891 -4.139 -1.741 0.0
-2.866 -4.131 -1.734 0.0
-2.843 -4.124 -1.727 0.0
-2.826 -4.113 -1.72 0.0
-2.813 -4.122 -1.72 0.0
-2.782 -4.104 -1.708 0.03
-2.77 -4.115 -1.709 0.03
-2.754 -4.119 -1.707 0.03
-2.742 -4.129 -1.707 0.07
-2.718 -4.12 -1.7 0.15
-2.708 -4.12 -1.698 0.16
-2.685 -4.112 -1.691 0.04
-2.672 -4.121 -1.691 0.15
-2.639 -4.098 -1.677 0.05
-2.631 -4.114 -1.68 0.16
-2.604 -4.1 -1.671 0.18
-2.593 -4.11 -1.671 0.09
-2.56 -4.086 -1.658 0.09
-2.561 -4.103 -1.663 0.08
-2.548 -4.111 -1.663 0.09
-2.531 -4.111 -1.66 0.0
-2.496 -4.083 -1.644 0.0
-2.486 -4.096 -1.646 0.0
-2.452 -4.068 -1.631 0.0
-2.449 -4.092 -1.638 0.0
-2.441 -4.093 -1.637 0.0
-2.414 -4.076 -1.626 0.0
-2.566 -4.53 -1.799 0.02
-2.552 -4.523 -1.794 0.16
-2.542 -4.537 -1.797 0.11
-2.53 -4.55 -1.799 0.17
-2.517 -4.561 -1.801 0.22
-2.513 -4.587 -1.808 0.2
-2.492 -4.584 -1.803 0.23
-2.488 -4.61 -1.811 0.21
-2.463 -4.58 -1.797 0.12
-2.448 -4.588 -1.797 0.2
-2.441 -4.609 -1.803 0.27
-2.426 -4.615 -1.802 0.26
-2.405 -4.611 -1.797 0.14
-2.385 -4.607 -1.792 0.16
-2.36 -4.594 -1.784 0.05
-2.362 -4.616 -1.792 0.17
-2.344 -4.617 -1.789 0.21
-2.334 -4.633 -1.792 0.16
-2.313 -4.628 -1.787 0.24
-2.302 -4.642 -1.79 0.21
-2.279 -4.633 -1.783 0.2
-2.255 -4.619 -1.775 0.13
-2.245 -4.618 -1.773 0.19
-2.227 -4.616 -1.77 0.11
-2.218 -4.635 -1.774 0.17
-2.202 -4.639 -1.773 0.21
-2.192 -4.656 -1.777 0.16
-2.174 -4.656 -1.774 0.26
-2.161 -4.666 -1.776 0.22
-2.138 -4.635 -1.762 0.17
-2.11 -4.613 -1.75 0.3
-2.103 -4.635 -1.756 0.2
-2.09 -4.647 -1.758 0.23
-2.078 -4.659 -1.761 0.22
-2.06 -4.656 -1.757 0.2
-2.035 -4.639 -1.747 0.25
-2.023 -4.632 -1.743 0.2
-1.997 -4.61 -1.732 0.12
-1.982 -4.617 -1.732 0.18
-1.981 -4.656 -1.745 0.23
-1.972 -4.676 -1.751 0.34
-1.964 -4.698 -1.757 0.29
-1.951 -4.707 -1.758 0.28
-1.942 -4.727 -1.764 0.3
-1.921 -4.697 -1.751 0.22
-1.899 -4.686 -1.744 0.16
-1.887 -4.697 -1.746 0.21
-1.885 -4.736 -1.759 0.17
-1.86 -4.717 -1.749 0.27
-1.846 -4.723 -1.749 0.25
-1.832 -4.732 -1.751 0.27
-1.815 -4.711 -1.741 0.29
-1.806 -4.732 -1.747 0.2
-1.784 -4.717 -1.739 0.14
-1.765 -4.712 -1.735 0.21
-1.757 -4.735 -1.742 0.18
-1.733 -4.718 -1.733 0.27
-1.719 -4.725 -1.734 0.25
-1.713 -4.731 -1.735 0.25
-1.699 -4.738 -1.736 0.27
-1.683 -4.742 -1.735 0.23
-1.66 -4.724 -1.726 0.13
-1.643 -4.722 -1.723 0.21
-1.63 -4.731 -1.725 0.14
-1.62 -4.752 -1.731 0.29
-1.605 -4.755 -1.73 0.25
-1.591 -4.74 -1.723 0.2
-1.575 -4.741 -1.722 0.21
-1.563 -4.755 -1.725 0.17
-1.544 -4.746 -1.72 0.27
-1.532 -4.761 -1.724 0.19
-1.509 -4.741 -1.714 0.25
-1.494 -4.746 -1.714 0.23
-1.496 -4.778 -1.726 0.17
-1.474 -4.758 -1.716 0.29
-1.459 -4.763 -1.716 0.23
-1.447 -4.778 -1.72 0.24
-1.422 -4.75 -1.708 0.12
-1.408 -4.756 -1.709 0.18
-1.394 -4.764 -1.71 0.15
-1.388 -4.77 -1.711 0.31
-1.376 -4.787 -1.716 0.23
-1.357 -4.777 -1.711 0.26
-1.343 -4.783 -1.711 0.28
-1.328 -4.791 -1.713 0.26
-1.315 -4.802 -1.716 0.21
-1.284 -4.745 -1.692 0.13
-1.277 -4.748 -1.693 0.21
-1.268 -4.776 -1.702 0.28
-1.249 -4.765 -1.696 0.28
-1.234 -4.767 -1.696 0.28
-1.224 -4.791 -1.703 0.22
-1.207 -4.786 -1.7 0.31
-1.192 -4.79 -1.7 0.21
-1.178 -4.764 -1.689 0.32
-1.164 -4.775 -1.692 0.2
-1.145 -4.763 -1.686 0.24
-1.133 -4.777 -1.69 0.2
-1.125 -4.812 -1.702 0.26
-1.108 -4.806 -1.698 0.34
-1.09 -4.795 -1.693 0.23
-1.076 -4.767 -1.682 0.14
-1.063 -4.783 -1.687 0.2
-1.052 -4.805 -1.693 0.17
-1.035 -4.799 -1.69 0.27
-1.022 -4.812 -1.693 0.19
-0.999 -4.774 -1.678 0.12
-0.982 -4.768 -1.675 0.21
-0.974 -4.768 -1.674 0.21
-0.958 -4.765 -1.672 0.13
-0.949 -4.8 -1.684 0.18
-0.936 -4.814 -1.688 0.25
-0.921 -4.817 -1.688 0.27
-0.909 -4.838 -1.695 0.16
-0.887 -4.8 -1.68 0.28
-0.872 -4.807 -1.681 0.23
-0.87 -4.838 -1.692 0.25
-0.852 -4.824 -1.686 0.21
-0.838 -4.837 -1.69 0.27
-0.828 -4.87 -1.701 0.2
-0.807 -4.837 -1.688 0.12
-0.792 -4.838 -1.687 0.15
-0.772 -4.809 -1.675 0.21
-0.767 -4.828 -1.682 0.16
-0.747 -4.801 -1.671 0.23
-0.735 -4.822 -1.678 0.22
-0.722 -4.841 -1.684 0.3
-0.705 -4.832 -1.68 0.32
-0.693 -4.858 -1.689 0.23
-0.672 -4.818 -1.673 0.12
-0.663 -4.806 -1.669 0.18
-0.65 -4.823 -1.674 0.19
-0.64 -4.864 -1.689 0.1
-0.626 -4.875 -1.692 0.17
-0.607 -4.851 -1.682 0.22
-0.595 -4.877 -1.691 0.2
-0.58 -4.888 -1.695 0.17
-0.57 -4.863 -1.685 0.31
-0.552 -4.843 -1.677 0.23
-0.537 -4.841 -1.675 0.26
-0.521 -4.835 -1.673 0.19
-0.505 -4.833 -1.671 0.3
-0.489 -4.829 -1.669 0.23
-0.475 -4.838 -1.672 0.2
-0.459 -4.833 -1.67 0.14
-0.452 -4.842 -1.673 0.19
-0.439 -4.867 -1.682 0.16
-0.422 -4.848 -1.674 0.15
-0.405 -4.827 -1.666 0.18
-0.39 -4.836 -1.669 0.2
-0.379 -4.882 -1.685 0.2
-0.363 -4.883 -1.685 0.16
-0.355 -4.874 -1.682 0.32
-0.34 -4.875 -1.682 0.21
-0.323 -4.854 -1.673 0.12
-0.307 -4.844 -1.669 0.21
-0.294 -4.88 -1.682 0.15
-0.277 -4.862 -1.675 0.29
-0.262 -4.869 -1.678 0.23
-0.254 -4.864 -1.675 0.14
-0.238 -4.846 -1.669 0.29
-0.224 -4.867 -1.676 0.24
-0.209 -4.886 -1.683 0.18
-0.195 -4.9 -1.688 0.28
-0.179 -4.899 -1.687 0.24
-0.163 -4.875 -1.678 0.11
-0.155 -4.881 -1.68 0.18
-0.14 -4.861 -1.673 0.22
-0.125 -4.887 -1.682 0.16
-0.109 -4.865 -1.674 0.23
-0.094 -4.849 -1.668 0.09
-0.078 -4.836 -1.663 0.15
-0.063 -4.849 -1.668 0.04
-0.048 -4.859 -1.671 0.15
-0.04 -4.887 -1.682 0.17
-0.025 -4.876 -1.678 0.26
-0.01 -4.893 -1.684 0.18
0.006 -4.876 -1.678 0.24
0.021 -4.895 -1.684 0.18
0.036 -4.881 -1.68 0.25
0.052 -4.877 -1.678 0.24
0.059 -4.877 -1.678 0.29
0.075 -4.887 -1.682 0.29
0.09 -4.881 -1.68 0.21
0.105 -4.856 -1.671 0.25
0.121 -4.882 -1.68 0.19
0.135 -4.859 -1.672 0.13
0.151 -4.875 -1.678 0.21
0.16 -4.911 -1.691 0.16
0.174 -4.873 -1.678 0.29
0.191 -4.904 -1.689 0.18
0.205 -4.881 -1.681 0.25
0.221 -4.899 -1.688 0.2
0.236 -4.876 -1.68 0.25
0.253 -4.911 -1.693 0.16
0.259 -4.878 -1.681 0.26
0.275 -4.892 -1.687 0.22
0.29 -4.893 -1.687 0.27
0.305 -4.878 -1.682 0.19
0.319 -4.867 -1.678 0.31
0.335 -4.872 -1.68 0.22
0.35 -4.867 -1.679 0.21
0.361 -4.904 -1.693 0.18
0.374 -4.882 -1.685 0.13
0.39 -4.888 -1.688 0.21
0.406 -4.885 -1.687 0.05
0.422 -4.893 -1.691 0.15
0.437 -4.894 -1.691 0.18
0.453 -4.898 -1.693 0.14
0.461 -4.901 -1.695 0.28
0.476 -4.894 -1.693 0.18
0.485 -4.829 -1.669 0.06
0.503 -4.852 -1.678 0.17
0.521 -4.876 -1.688 0.11
0.536 -4.875 -1.688 0.18
0.549 -4.854 -1.681 0.11
0.567 -4.869 -1.687 0.19
0.578 -4.898 -1.698 0.16
0.593 -4.893 -1.697 0.28
0.608 -4.889 -1.696 0.18
0.619 -4.855 -1.684 0.24
0.636 -4.868 -1.69 0.21
0.651 -4.861 -1.688 0.22
0.671 -4.89 -1.7 0.18
0.675 -4.867 -1.691 0.24
0.694 -4.887 -1.7 0.17
0.704 -4.853 -1.688 0.25
0.722 -4.866 -1.693 0.21
0.742 -4.897 -1.706 0.2
0.751 -4.85 -1.689 0.24
0.762 -4.825 -1.681 0.1
0.769 -4.822 -1.68 0.08
0.79 -4.853 -1.693 0.04
0.804 -4.843 -1.69 0.0
0.818 -4.833 -1.687 0.0
0.831 -4.816 -1.682 0.03
0.843 -4.799 -1.676 0.03
0.862 -4.818 -1.684 0.0
0.872 -4.828 -1.689 0.0
0.894 -4.864 -1.703 0.0
0.909 -4.857 -1.702 0.0
0.918 -4.825 -1.691 0.0
0.934 -4.824 -1.691 0.0
0.95 -4.826 -1.693 0.0
0.969 -4.842 -1.7 0.0
0.976 -4.836 -1.699 0.0
0.993 -4.843 -1.702 0.0
1.009 -4.843 -1.704 0.0
1.022 -4.829 -1.7 0.0
2.941 -4.064 -1.729 0.0
2.964 -4.068 -1.736 0.0
2.95 -4.023 -1.719 0.05
2.97 -4.024 -1.724 0.04
2.987 -4.021 -1.727 0.14
3.001 -4.025 -1.731 0.05
3.018 -4.021 -1.734 0.15
3.047 -4.034 -1.744 0.21
3.059 -4.023 -1.743 0.1
3.1 -4.051 -1.761 0.18
3.107 -4.034 -1.757 0.23
3.114 -4.016 -1.754 0.1
3.137 -4.032 -1.763 0.17
3.135 -4.005 -1.755 0.05
3.15 -3.998 -1.756 0.16
3.156 -3.979 -1.752 0.1
3.174 -3.976 -1.756 0.18
3.165 -3.94 -1.743 0.11
3.179 -3.932 -1.744 0.2
3.189 -3.931 -1.746 0.11
3.203 -3.924 -1.747 0.15
3.222 -3.921 -1.751 0.05
3.242 -3.921 -1.756 0.18
3.251 -3.906 -1.754 0.05
3.273 -3.908 -1.759 0.14
3.306 -3.922 -1.771 0.11
3.295 -3.896 -1.761 0.2
3.301 -3.879 -1.758 0.21
3.316 -3.871 -1.759 0.1
3.327 -3.86 -1.758 0.16
3.333 -3.842 -1.755 0.05
3.345 -3.832 -1.755 0.14
3.362 -3.827 -1.758 0.11
3.37 -3.824 -1.759 0.18
3.388 -3.821 -1.763 0.11
3.398 -3.807 -1.761 0.18
3.405 -3.791 -1.758 0.11
3.409 -3.772 -1.754 0.18
3.411 -3.75 -1.749 0.11
3.424 -3.741 -1.749 0.17
3.423 -3.716 -1.743 0.05
3.434 -3.716 -1.745 0.14
3.432 -3.692 -1.738 0.05
3.463 -3.701 -1.749 0.16
3.471 -3.686 -1.747 0.1
3.493 -3.686 -1.752 0.16
3.49 -3.661 -1.745 0.05
3.503 -3.651 -1.745 0.16
3.514 -3.651 -1.748 0.1
3.541 -3.656 -1.756 0.16
3.533 -3.625 -1.746 0.05
3.544 -3.614 -1.746 0.16
3.564 -3.61 -1.75 0.21
3.61 -3.634 -1.768 0.16
3.605 -3.606 -1.76 0.26
3.62 -3.61 -1.765 0.2
3.647 -3.614 -1.773 0.21
3.633 -3.578 -1.76 0.14
3.647 -3.569 -1.761 0.2
3.679 -3.577 -1.772 0.11
3.684 -3.56 -1.769 0.21
3.704 -3.557 -1.773 0.24
3.701 -3.543 -1.769 0.3
3.715 -3.534 -1.77 0.16
3.703 -3.5 -1.758 0.29
3.714 -3.489 -1.758 0.24
3.727 -3.48 -1.76 0.11
3.767 -3.495 -1.774 0.2
3.781 -3.485 -1.776 0.27
3.788 -3.481 -1.776 0.28
3.804 -3.474 -1.779 0.23
3.792 -3.44 -1.767 0.26
3.794 -3.421 -1.763 0.34
3.805 -3.409 -1.763 0.33
3.811 -3.393 -1.761 0.3
3.809 -3.37 -1.755 0.25
3.814 -3.364 -1.755 0.2
3.819 -3.347 -1.752 0.27
3.848 -3.351 -1.761 0.23
3.846 -3.328 -1.755 0.16
3.856 -3.316 -1.755 0.3
3.878 -3.314 -1.761 0.19
3.868 -3.285 -1.751 0.25
3.905 -3.294 -1.763 0.12
3.911 -3.289 -1.764 0.28
3.919 -3.274 -1.763 0.19
3.919 -3.254 -1.758 0.23
3.939 -3.25 -1.763 0.16
3.936 -3.227 -1.756 0.26
3.951 -3.218 -1.758 0.22
3.965 -3.209 -1.761 0.27
3.988 -3.217 -1.769 0.21
3.963 -3.176 -1.752 0.06
3.97 -3.161 -1.751 0.17
3.972 -3.143 -1.747 0.11
3.995 -3.141 -1.754 0.14
4.001 -3.125 -1.752 0.25
4.023 -3.122 -1.757 0.25
4.018 -3.108 -1.753 0.2
4.051 -3.113 -1.763 0.19
4.029 -3.076 -1.749 0.21
4.061 -3.08 -1.759 0.16
4.056 -3.057 -1.752 0.27
4.071 -3.048 -1.755 0.18
4.078 -3.033 -1.754 0.23
4.101 -3.04 -1.762 0.19
4.08 -3.005 -1.748 0.25
4.089 -2.992 -1.748 0.1
4.102 -2.982 -1.749 0.18
4.134 -2.985 -1.76 0.2
4.119 -2.955 -1.749 0.25
4.13 -2.943 -1.749 0.19
4.124 -2.929 -1.745 0.05
4.134 -2.917 -1.745 0.0
4.117 -2.886 -1.734 0.0
4.088 -2.846 -1.716 0.0
3.691 -2.539 -1.532 0.0
3.755 -2.565 -1.557 0.0
3.764 -2.562 -1.559 0.0
3.765 -2.546 -1.556 0.0
3.806 -2.556 -1.57 0.0
3.813 -2.543 -1.57 0.06
3.85 -2.551 -1.583 0.04
3.904 -2.568 -1.603 0.07
3.934 -2.57 -1.613 0.0
3.952 -2.573 -1.619 0.14
3.984 -2.576 -1.629 0.05
4.018 -2.579 -1.64 0.14
4.038 -2.575 -1.646 0.05
4.064 -2.573 -1.653 0.15
4.093 -2.573 -1.662 0.05
4.13 -2.578 -1.675 0.15
4.137 -2.574 -1.676 0.19
4.145 -2.56 -1.676 0.04
4.167 -2.556 -1.682 0.14
4.179 -2.545 -1.684 0.05
4.188 -2.533 -1.684 0.16
4.19 -2.516 -1.682 0.05
4.22 -2.516 -1.691 0.14
4.182 -2.485 -1.673 0.05
4.203 -2.479 -1.679 0.14
4.227 -2.475 -1.686 0.2
4.227 -2.457 -1.682 0.09
4.234 -2.444 -1.682 0.09
4.248 -2.434 -1.685 0.15
4.236 -2.41 -1.677 0.04
4.28 -2.417 -1.692 0.16
4.289 -2.413 -1.694 0.1
4.308 -2.406 -1.699 0.15
4.356 -2.415 -1.716 0.23
4.377 -2.408 -1.722 0.22
4.401 -2.403 -1.729 0.2
4.402 -2.386 -1.726 0.29
4.396 -2.365 -1.72 0.35
4.413 -2.365 -1.726 0.22
4.409 -2.345 -1.721 0.24
4.412 -2.329 -1.719 0.2
4.389 -2.299 -1.707 0.23
4.441 -2.309 -1.725 0.18
4.422 -2.281 -1.714 0.24
4.432 -2.269 -1.716 0.17
4.427 -2.258 -1.712 0.23
4.48 -2.266 -1.731 0.19
4.467 -2.242 -1.722 0.25
4.485 -2.234 -1.727 0.22
4.464 -2.206 -1.716 0.11
4.454 -2.184 -1.709 0.2
4.459 -2.169 -1.708 0.21
4.428 -2.146 -1.694 0.13
4.418 -2.124 -1.687 0.19
4.382 -2.09 -1.67 0.2
4.421 -2.091 -1.683 0.24
4.469 -2.096 -1.7 0.2
4.458 -2.074 -1.693 0.13
4.458 -2.057 -1.69 0.2
4.408 -2.026 -1.669 0.21
4.473 -2.039 -1.692 0.15
4.496 -2.032 -1.699 0.26
4.511 -2.022 -1.702 0.21
4.512 -2.005 -1.7 0.18
4.489 -1.978 -1.689 0.29
4.458 -1.948 -1.673 0.24
4.492 -1.954 -1.686 0.2
4.48 -1.933 -1.679 0.13
4.516 -1.931 -1.691 0.2
4.522 -1.917 -1.691 0.17
4.505 -1.893 -1.682 0.27
4.485 -1.869 -1.671 0.25
4.512 -1.863 -1.68 0.18
4.481 -1.834 -1.665 0.27
4.522 -1.842 -1.68 0.16
4.5 -1.817 -1.669 0.27
4.501 -1.801 -1.667 0.24
4.506 -1.787 -1.667 0.17
4.503 -1.769 -1.664 0.27
4.521 -1.76 -1.669 0.23
4.542 -1.751 -1.675 0.18
4.519 -1.734 -1.664 0.27
4.524 -1.72 -1.664 0.23
4.537 -1.709 -1.667 0.16
4.524 -1.688 -1.66 0.29
4.531 -1.674 -1.661 0.18
4.461 -1.633 -1.631 0.06
4.464 -1.618 -1.631 0.16
4.458 -1.608 -1.627 0.1
4.472 -1.597 -1.631 0.16
4.464 -1.579 -1.626 0.05
4.48 -1.568 -1.63 0.18
4.486 -1.555 -1.631 0.11
4.506 -1.545 -1.636 0.18
4.494 -1.526 -1.63 0.22
4.497 -1.519 -1.63 0.15
4.514 -1.509 -1.635 0.26
4.547 -1.504 -1.646 0.19
4.575 -1.497 -1.655 0.25
4.628 -1.498 -1.673 0.19
4.663 -1.493 -1.685 0.12
4.684 -1.483 -1.691 0.2
4.719 -1.486 -1.704 0.16
4.714 -1.468 -1.7 0.29
4.719 -1.454 -1.7 0.23
4.736 -1.443 -1.705 0.19
4.726 -1.423 -1.7 0.26
4.727 -1.408 -1.698 0.23
4.753 -1.399 -1.707 0.17
4.735 -1.386 -1.699 0.28
4.749 -1.373 -1.702 0.2
4.74 -1.355 -1.698 0.13
4.745 -1.34 -1.698 0.21
4.76 -1.328 -1.702 0.11
4.753 -1.31 -1.698 0.17
4.732 -1.289 -1.688 0.12
4.734 -1.281 -1.688 0.18
4.734 -1.265 -1.687 0.11
4.742 -1.251 -1.688 0.2
4.74 -1.235 -1.686 0.1
4.751 -1.222 -1.689 0.18
4.737 -1.202 -1.682 0.23
4.777 -1.197 -1.696 0.17
4.763 -1.177 -1.689 0.24
4.788 -1.175 -1.698 0.16
4.739 -1.148 -1.678 0.05
4.761 -1.137 -1.684 0.16
4.757 -1.12 -1.682 0.11
4.788 -1.112 -1.692 0.18
4.768 -1.091 -1.683 0.21
4.767 -1.083 -1.682 0.1
4.778 -1.07 -1.685 0.18
4.772 -1.053 -1.682 0.1
4.794 -1.042 -1.689 0.16
4.777 -1.023 -1.681 0.05
4.793 -1.01 -1.686 0.15
4.778 -0.992 -1.679 0.05
4.807 -0.982 -1.689 0.15
4.786 -0.97 -1.68 0.05
4.809 -0.959 -1.688 0.16
4.807 -0.942 -1.686 0.2
4.812 -0.928 -1.687 0.17
4.82 -0.914 -1.689 0.17
4.812 -0.896 -1.684 0.04
4.822 -0.883 -1.687 0.14
4.821 -0.875 -1.687 0.18
4.804 -0.856 -1.679 0.18
4.819 -0.843 -1.684 0.04
4.835 -0.83 -1.689 0.15
4.834 -0.814 -1.687 0.05
4.831 -0.798 -1.685 0.07
4.83 -0.783 -1.684 0.0
4.835 -0.776 -1.685 0.12
4.839 -0.761 -1.686 0.05
4.832 -0.744 -1.682 0.08
4.849 -0.731 -1.688 0.08
4.842 -0.714 -1.684 0.09
4.831 -0.697 -1.68 0.04
4.848 -0.684 -1.685 0.07
4.851 -0.669 -1.685 0.09
4.846 -0.661 -1.683 0.08
4.854 -0.646 -1.685 0.09
4.852 -0.63 -1.684 0.09
4.852 -0.615 -1.683 0.15
4.856 -0.6 -1.684 0.17
4.858 -0.585 -1.684 0.16
4.85 -0.568 -1.68 0.04
4.845 -0.56 -1.678 0.14
4.855 -0.546 -1.681 0.19
4.845 -0.529 -1.677 0.04
4.878 -0.517 -1.689 0.12
4.856 -0.5 -1.68 0.05
4.852 -0.484 -1.678 0.16
4.874 -0.47 -1.685 0.19
4.865 -0.462 -1.682 0.09
4.88 -0.448 -1.687 0.16
4.855 -0.43 -1.677 0.05
4.854 -0.415 -1.676 0.16
4.863 -0.4 -1.679 0.2
4.887 -0.387 -1.687 0.09
4.881 -0.371 -1.684 0.16
4.861 -0.362 -1.677 0.21
4.863 -0.346 -1.678 0.09
4.885 -0.332 -1.685 0.17
4.845 -0.315 -1.67 0.21
4.885 -0.302 -1.684 0.17
4.86 -0.285 -1.675 0.23
4.893 -0.271 -1.687 0.19
4.876 -0.263 -1.68 0.23
4.862 -0.247 -1.675 0.1
4.891 -0.233 -1.685 0.16
4.852 -0.216 -1.671 0.05
4.859 -0.201 -1.673 0.17
4.859 -0.185 -1.673 0.1
4.871 -0.171 -1.677 0.18
4.87 -0.155 -1.676 0.11
4.896 -0.148 -1.686 0.17
4.882 -0.132 -1.68 0.23
4.889 -0.117 -1.683 0.17
4.867 -0.102 -1.675 0.05
4.873 -0.086 -1.677 0.16
4.872 -0.071 -1.676 0.11
4.891 -0.056 -1.683 0.18
4.894 -0.048 -1.684 0.12
4.87 -0.033 -1.675 0.18
4.861 -0.017 -1.672 0.11
4.876 -0.002 -1.678 0.19
4.739 0.005 -1.681 0.27
4.756 0.012 -1.687 0.25
4.739 0.027 -1.681 0.22
4.741 0.042 -1.681 0.26
4.739 0.057 -1.681 0.25
4.74 0.072 -1.681 0.27
4.746 0.087 -1.684 0.29
4.749 0.102 -1.685 0.27
4.745 0.109 -1.684 0.27
4.747 0.124 -1.684 0.26
4.739 0.139 -1.681 0.26
4.74 0.154 -1.682 0.26
4.745 0.169 -1.684 0.25
4.737 0.184 -1.681 0.27
4.737 0.199 -1.681 0.25
4.736 0.206 -1.681 0.26
4.743 0.221 -1.684 0.26
4.741 0.236 -1.684 0.21
4.732 0.251 -1.681 0.27
4.728 0.265 -1.679 0.24
4.723 0.28 -1.678 0.27
4.728 0.295 -1.68 0.26
4.733 0.303 -1.682 0.26
4.736 0.318 -1.684 0.26
4.731 0.333 -1.682 0.2
4.723 0.347 -1.679 0.27
4.729 0.362 -1.682 0.25
4.717 0.376 -1.678 0.27
4.73 0.392 -1.684 0.21
4.723 0.407 -1.681 0.27
4.73 0.415 -1.684 0.24
4.74 0.431 -1.689 0.19
4.72 0.444 -1.681 0.27
4.722 0.459 -1.683 0.23
4.732 0.475 -1.687 0.21
4.727 0.489 -1.686 0.24
4.722 0.504 -1.684 0.23
4.728 0.512 -1.687 0.2
4.725 0.527 -1.686 0.24
4.736 0.543 -1.691 0.2
4.721 0.556 -1.686 0.23
4.729 0.572 -1.69 0.23
4.725 0.587 -1.689 0.12
4.734 0.603 -1.694 0.18
4.724 0.609 -1.69 0.21
4.733 0.626 -1.694 0.19
4.718 0.639 -1.689 0.12
4.72 0.654 -1.691 0.2
4.711 0.668 -1.688 0.1
4.72 0.684 -1.692 0.2
4.708 0.698 -1.689 0.2
4.709 0.705 -1.689 0.09
4.709 0.72 -1.69 0.2
4.704 0.735 -1.689 0.11
4.702 0.75 -1.689 0.2
4.694 0.764 -1.687 0.1
4.705 0.78 -1.692 0.2
4.691 0.793 -1.688 0.11
4.694 0.801 -1.689 0.2
4.693 0.816 -1.69 0.11
4.683 0.83 -1.687 0.19
4.684 0.845 -1.689 0.11
4.685 0.861 -1.69 0.2
4.673 0.874 -1.686 0.11
4.681 0.89 -1.691 0.18
4.672 0.896 -1.688 0.23
4.67 0.911 -1.688 0.18
4.663 0.925 -1.686 0.23
4.664 0.94 -1.688 0.18
4.659 0.955 -1.687 0.23
4.667 0.972 -1.691 0.18
4.647 0.983 -1.685 0.23
4.644 0.997 -1.685 0.18
4.637 1.004 -1.683 0.23
4.643 1.02 -1.686 0.21
4.631 1.033 -1.683 0.21
4.639 1.05 -1.687 0.18
4.617 1.06 -1.68 0.25
4.634 1.079 -1.688 0.19
4.616 1.09 -1.682 0.25
4.614 1.098 -1.682 0.18
4.605 1.111 -1.68 0.24
4.612 1.128 -1.684 0.21
4.602 1.141 -1.681 0.12
4.603 1.156 -1.684 0.21
4.6 1.171 -1.684 0.2
4.583 1.182 -1.679 0.25
4.582 1.189 -1.679 0.25
4.589 1.206 -1.683 0.19
4.578 1.219 -1.68 0.26
4.576 1.234 -1.681 0.23
4.564 1.246 -1.678 0.18
4.57 1.263 -1.681 0.27
4.557 1.275 -1.678 0.22
4.564 1.285 -1.681 0.18
4.55 1.296 -1.678 0.25
4.545 1.31 -1.677 0.34
4.549 1.327 -1.681 0.36
4.545 1.341 -1.681 0.37
4.537 1.355 -1.679 0.37
4.53 1.368 -1.678 0.37
4.531 1.376 -1.679 0.33
4.528 1.391 -1.68 0.35
4.529 1.406 -1.682 0.48
4.516 1.418 -1.679 0.29
4.512 1.432 -1.679 0.2
4.498 1.444 -1.675 0.27
4.499 1.459 -1.677 0.25
4.505 1.477 -1.681 0.26
4.496 1.482 -1.679 0.27
4.487 1.495 -1.677 0.26
4.486 1.51 -1.679 0.26
4.492 1.528 -1.683 0.25
4.477 1.538 -1.679 0.29
4.475 1.553 -1.68 0.28
4.465 1.566 -1.678 0.26
4.473 1.576 -1.682 0.26
4.479 1.594 -1.686 0.28
4.458 1.602 -1.68 0.3
4.458 1.618 -1.682 0.28
4.451 1.632 -1.681 0.29
4.45 1.647 -1.683 0.27
4.443 1.66 -1.682 0.24
4.433 1.665 -1.679 0.3
4.437 1.682 -1.683 0.23
4.428 1.694 -1.681 0.19
4.408 1.703 -1.676 0.29
4.429 1.727 -1.686 0.23
4.41 1.735 -1.681 0.3
4.417 1.754 -1.686 0.25
4.403 1.757 -1.681 0.17
4.393 1.769 -1.679 0.29
4.396 1.786 -1.683 0.23
4.385 1.798 -1.681 0.25
4.377 1.811 -1.68 0.28
4.382 1.829 -1.684 0.25
4.382 1.845 -1.686 0.28
4.382 1.853 -1.688 0.28
4.371 1.864 -1.686 0.21
4.341 1.868 -1.676 0.26
4.346 1.886 -1.68 0.25
4.34 1.9 -1.68 0.26
4.332 1.913 -1.679 0.26
4.329 1.928 -1.681 0.28
4.321 1.94 -1.68 0.27
4.329 1.952 -1.684 0.27
4.312 1.961 -1.68 0.26
4.31 1.976 -1.681 0.26
4.305 1.99 -1.682 0.27
4.294 2.001 -1.68 0.28
4.289 2.016 -1.681 0.27
4.281 2.028 -1.68 0.27
4.285 2.038 -1.683 0.16
4.273 2.049 -1.681 0.29
4.265 2.062 -1.68 0.24
4.263 2.078 -1.682 0.26
4.252 2.089 -1.68 0.3
4.257 2.108 -1.685 0.27
4.242 2.117 -1.681 0.3
4.239 2.124 -1.681 0.27
4.232 2.137 -1.681 0.29
4.224 2.149 -1.681 0.27
4.222 2.165 -1.683 0.25
4.208 2.175 -1.68 0.25
4.205 2.19 -1.681 0.34
4.203 2.206 -1.684 0.29
4.201 2.213 -1.684 0.27
4.197 2.228 -1.686 0.29
4.192 2.242 -1.686 0.28
4.182 2.254 -1.685 0.29
4.171 2.265 -1.684 0.29
4.166 2.279 -1.684 0.28
4.144 2.284 -1.678 0.3
4.145 2.293 -1.68 0.27
4.136 2.305 -1.679 0.28
4.136 2.322 -1.682 0.28
4.128 2.335 -1.682 0.29
4.136 2.356 -1.689 0.27
4.112 2.36 -1.681 0.29
4.106 2.374 -1.682 0.29
4.097 2.377 -1.68 0.3
4.101 2.397 -1.685 0.3
4.097 2.411 -1.686 0.3
4.085 2.421 -1.684 0.28
4.082 2.437 -1.686 0.29
4.068 2.446 -1.684 0.28
4.062 2.46 -1.684 0.29
4.057 2.474 -1.686 0.29
4.047 2.477 -1.683 0.29
4.042 2.492 -1.684 0.27
4.034 2.504 -1.684 0.3
4.028 2.518 -1.685 0.31
4.018 2.53 -1.684 0.29
4.006 2.539 -1.682 0.31
4.01 2.56 -1.688 0.27
3.995 2.559 -1.683 0.3
3.981 2.568 -1.68 0.28
3.973 2.58 -1.68 0.29
3.977 2.601 -1.686 0.27
3.971 2.614 -1.686 0.3
3.959 2.625 -1.685 0.3
3.946 2.634 -1.683 0.28
3.948 2.644 -1.686 0.29
3.945 2.66 -1.688 0.29
3.929 2.667 -1.684 0.27
3.922 2.68 -1.685 0.28
3.912 2.692 -1.684 0.29
3.905 2.705 -1.685 0.27
3.896 2.717 -1.685 0.29
3.887 2.72 -1.683 0.3
3.877 2.731 -1.682 0.28
3.878 2.75 -1.686 0.26
3.866 2.76 -1.685 0.29
3.864 2.776 -1.688 0.29
3.835 2.774 -1.679 0.32
3.834 2.792 -1.682 0.28
3.846 2.81 -1.69 0.27
3.83 2.816 -1.686 0.27
3.823 2.83 -1.687 0.28
3.817 2.844 -1.689 0.3
3.805 2.854 -1.687 0.27
3.791 2.862 -1.685 0.27
3.787 2.877 -1.687 0.28
3.772 2.875 -1.682 0.3
3.769 2.892 -1.685 0.24
3.767 2.909 -1.689 0.29
3.759 2.922 -1.689 0.27
3.746 2.931 -1.687 0.29
3.741 2.946 -1.689 0.27
3.737 2.962 -1.692 0.27
3.712 2.961 -1.684 0.32
3.71 2.969 -1.686 0.29
3.701 2.981 -1.686 0.27
3.684 2.987 -1.682 0.29
3.681 3.003 -1.685 0.28
3.673 3.016 -1.686 0.27
3.669 3.032 -1.689 0.25
3.652 3.038 -1.685 0.3
3.644 3.041 -1.684 0.29
3.642 3.058 -1.687 0.29
3.625 3.064 -1.684 0.27
3.629 3.086 -1.69 0.23
3.61 3.09 -1.686 0.31
3.603 3.104 -1.687 0.28
3.591 3.113 -1.686 0.26
3.587 3.12 -1.686 0.28
3.585 3.137 -1.69 0.26
3.569 3.143 -1.687 0.3
3.556 3.152 -1.686 0.26
3.549 3.166 -1.687 0.27
3.548 3.184 -1.691 0.27
3.533 3.192 -1.689 0.32
3.523 3.192 -1.686 0.28
3.511 3.202 -1.686 0.28
3.506 3.217 -1.688 0.27
3.5 3.231 -1.69 0.26
3.489 3.242 -1.69 0.17
3.472 3.247 -1.686 0.29
3.466 3.262 -1.689 0.25
3.464 3.27 -1.69 0.29
3.451 3.278 -1.689 0.26
3.447 3.295 -1.692 0.27
3.426 3.296 -1.686 0.26
3.42 3.31 -1.689 0.28
3.408 3.32 -1.688 0.27
3.396 3.329 -1.687 0.27
3.387 3.331 -1.685 0.27
3.378 3.343 -1.686 0.27
3.378 3.364 -1.691 0.28
3.365 3.372 -1.69 0.28
3.35 3.378 -1.688 0.28
3.338 3.387 -1.687 0.27
3.329 3.399 -1.688 0.27
3.331 3.423 -1.695 0.24
3.322 3.424 -1.693 0.28
3.309 3.432 -1.691 0.3
3.296 3.441 -1.691 0.28
3.278 3.443 -1.686 0.28
3.279 3.466 -1.693 0.29
3.263 3.471 -1.69 0.29
3.249 3.478 -1.689 0.25
3.245 3.485 -1.689 0.27
3.238 3.499 -1.691 0.26
3.225 3.508 -1.691 0.27
3.22 3.523 -1.694 0.28
3.201 3.525 -1.689 0.29
3.192 3.538 -1.691 0.29
3.19 3.558 -1.696 0.25
3.186 3.564 -1.696 0.28
3.172 3.571 -1.695 0.29
3.156 3.576 -1.692 0.3
3.142 3.583 -1.691 0.28
3.136 3.598 -1.694 0.26
3.122 3.605 -1.692 0.28
3.102 3.605 -1.687 0.3
3.11 3.625 -1.695 0.27
3.093 3.63 -1.692 0.3
3.082 3.639 -1.692 0.29
3.067 3.645 -1.69 0.32
3.061 3.661 -1.694 0.26
3.045 3.665 -1.691 0.29
3.035 3.676 -1.691 0.28
3.03 3.694 -1.696 0.29
3.019 3.692 -1.692 0.29
3.013 3.709 -1.696 0.29
2.999 3.715 -1.694 0.27
2.99 3.727 -1.696 0.28
2.974 3.732 -1.694 0.31
2.957 3.735 -1.69 0.28
2.953 3.754 -1.695 0.31
2.94 3.75 -1.691 0.3
2.925 3.755 -1.689 0.29
2.916 3.767 -1.69 0.28
2.911 3.785 -1.694 0.26
2.898 3.792 -1.694 0.27
2.886 3.802 -1.694 0.29
2.871 3.808 -1.692 0.3
2.862 3.808 -1.69 0.32
2.843 3.808 -1.686 0.23
2.844 3.833 -1.694 0.32
2.832 3.842 -1.694 0.28
2.809 3.837 -1.687 0.33
2.803 3.854 -1.691 0.29
2.786 3.856 -1.688 0.28
2.786 3.868 -1.691 0.26
2.764 3.863 -1.685 0.31
2.758 3.881 -1.689 0.26
2.751 3.897 -1.693 0.28
2.734 3.898 -1.689 0.29
2.723 3.909 -1.69 0.31
2.708 3.914 -1.689 0.28
2.701 3.93 -1.692 0.27
2.698 3.939 -1.694 0.27
2.685 3.946 -1.694 0.28
2.669 3.95 -1.691 0.31
2.65 3.949 -1.687 0.27
2.649 3.973 -1.694 0.27
2.632 3.975 -1.691 0.29
2.617 3.98 -1.69 0.3
2.616 3.992 -1.694 0.27
2.603 3.998 -1.693 0.28
2.582 3.994 -1.687 0.31
2.58 4.019 -1.695 0.25
2.565 4.023 -1.693 0.3
2.551 4.029 -1.692 0.29
2.536 4.034 -1.691 0.3
2.532 4.041 -1.692 0.29
2.519 4.049 -1.692 0.25
2.507 4.057 -1.692 0.28
2.495 4.066 -1.693 0.29
2.478 4.068 -1.69 0.3
2.467 4.079 -1.691 0.28
2.452 4.082 -1.689 0.28
2.439 4.089 -1.689 0.27
2.439 4.104 -1.694 0.27
2.431 4.12 -1.698 0.27
2.408 4.11 -1.69 0.29
2.4 4.127 -1.694 0.26
2.393 4.145 -1.699 0.29
2.377 4.147 -1.696 0.28
2.359 4.145 -1.692 0.3
2.359 4.16 -1.697 0.25
2.34 4.158 -1.693 0.29
2.323 4.158 -1.69 0.27
2.316 4.175 -1.694 0.28
2.309 4.194 -1.699 0.25
2.295 4.2 -1.699 0.28
2.277 4.199 -1.695 0.22
2.272 4.206 -1.696 0.27
2.259 4.213 -1.696 0.24
2.251 4.23 -1.701 0.24
2.232 4.227 -1.696 0.2
2.219 4.234 -1.696 0.29
2.207 4.242 -1.697 0.33
2.193 4.249 -1.697 0.31
2.177 4.251 -1.695 0.4
2.17 4.253 -1.694 0.38
2.157 4.26 -1.694 0.37
2.144 4.268 -1.695 0.39
2.131 4.275 -1.695 0.38
2.119 4.285 -1.696 0.38
2.103 4.287 -1.694 0.36
2.093 4.301 -1.698 0.37
2.085 4.301 -1.696 0.36
2.072 4.31 -1.697 0.35
2.06 4.318 -1.698 0.35
2.044 4.321 -1.696 0.38
2.031 4.327 -1.696 0.36
2.022 4.344 -1.701 0.32
2.006 4.345 -1.699 0.34
2.0 4.35 -1.699 0.37
1.986 4.356 -1.699 0.36
1.973 4.364 -1.7 0.36
1.96 4.37 -1.7 0.36
1.945 4.375 -1.699 0.36
1.931 4.381 -1.699 0.34
1.918 4.389 -1.7 0.33
1.913 4.395 -1.701 0.34
1.895 4.392 -1.698 0.33
1.888 4.412 -1.703 0.33
1.873 4.416 -1.703 0.33
1.858 4.419 -1.701 0.36
1.848 4.435 -1.706 0.34
1.831 4.434 -1.703 0.35
1.82 4.446 -1.706 0.34
1.814 4.451 -1.706 0.28
1.796 4.448 -1.703 0.14
1.785 4.46 -1.706 0.21
1.777 4.48 -1.711 0.21
1.758 4.473 -1.706 0.23
1.744 4.479 -1.706 0.19
1.73 4.484 -1.706 0.25
1.725 4.492 -1.708 0.23
1.711 4.499 -1.709 0.17
1.699 4.51 -1.711 0.26
1.689 4.526 -1.716 0.19
1.672 4.524 -1.713 0.25
1.659 4.533 -1.714 0.19
1.642 4.531 -1.711 0.24
1.633 4.55 -1.717 0.2
1.622 4.54 -1.712 0.23
1.612 4.56 -1.718 0.2
1.594 4.554 -1.713 0.21
1.586 4.577 -1.721 0.22
1.569 4.575 -1.718 0.23
1.552 4.571 -1.714 0.1
1.536 4.572 -1.713 0.2
1.529 4.574 -1.713 0.11
1.52 4.595 -1.719 0.2
1.503 4.591 -1.716 0.11
1.489 4.599 -1.717 0.19
1.474 4.602 -1.716 0.11
1.467 4.63 -1.725 0.18
1.448 4.62 -1.72 0.23
1.441 4.622 -1.72 0.16
1.426 4.625 -1.719 0.23
1.42 4.656 -1.73 0.2
1.4 4.645 -1.723 0.22
1.387 4.654 -1.725 0.19
1.37 4.652 -1.723 0.23
1.356 4.656 -1.723 0.1
1.342 4.664 -1.724 0.2
1.334 4.662 -1.723 0.2
1.32 4.668 -1.723 0.1
1.304 4.669 -1.722 0.19
1.291 4.678 -1.724 0.11
1.276 4.68 -1.723 0.18
1.262 4.69 -1.725 0.11
1.247 4.692 -1.725 0.2
1.24 4.696 -1.725 0.11
1.228 4.71 -1.73 0.2
1.211 4.703 -1.725 0.11
1.2 4.724 -1.732 0.18
1.185 4.725 -1.731 0.21
1.166 4.715 -1.725 0.1
1.155 4.731 -1.73 0.19
1.148 4.736 -1.732 0.11
1.13 4.725 -1.726 0.18
1.118 4.74 -1.73 0.11
1.106 4.756 -1.735 0.18
1.086 4.74 -1.728 0.21
1.075 4.759 -1.734 0.1
1.06 4.761 -1.733 0.21
1.041 4.746 -1.726 0.05
1.038 4.769 -1.735 0.17
1.022 4.767 -1.733 0.2
1.006 4.769 -1.732 0.1
0.994 4.783 -1.736 0.18
0.978 4.784 -1.735 0.22
0.962 4.782 -1.733 0.1
0.948 4.788 -1.735 0.2
0.94 4.788 -1.734 0.11
0.926 4.794 -1.735 0.2
0.911 4.799 -1.736 0.11
0.896 4.8 -1.735 0.21
0.88 4.803 -1.735 0.2
0.867 4.815 -1.739 0.2
0.851 4.812 -1.737 0.21
0.836 4.818 -1.738 0.1
0.829 4.822 -1.739 0.2
0.814 4.822 -1.738 0.21
0.8 4.834 -1.742 0.19
0.783 4.825 -1.738 0.22
0.772 4.852 -1.747 0.18
0.752 4.825 -1.735 0.23
0.739 4.84 -1.74 0.19
0.731 4.839 -1.74 0.21
0.716 4.842 -1.74 0.1
0.701 4.849 -1.742 0.19
0.685 4.844 -1.739 0.11
0.67 4.846 -1.739 0.2
0.655 4.852 -1.74 0.2
0.639 4.85 -1.739 0.1
0.633 4.864 -1.744 0.18
0.617 4.861 -1.742 0.22
0.601 4.855 -1.739 0.1
0.586 4.859 -1.74 0.2
0.571 4.864 -1.741 0.11
0.556 4.868 -1.742 0.18
0.541 4.87 -1.742 0.21
0.526 4.877 -1.744 0.09
0.52 4.887 -1.747 0.18
0.504 4.881 -1.745 0.21
0.488 4.877 -1.743 0.09
0.473 4.89 -1.747 0.21
0.458 4.886 -1.745 0.11
0.441 4.88 -1.742 0.18
0.427 4.889 -1.745 0.1
0.419 4.889 -1.745 0.19
0.403 4.885 -1.743 0.11
0.389 4.901 -1.748 0.18
0.373 4.893 -1.745 0.21
0.359 4.913 -1.752 0.2
0.342 4.886 -1.741 0.05
0.328 4.906 -1.748 0.17
0.319 4.901 -1.746 0.1
0.305 4.92 -1.753 0.18
0.289 4.904 -1.747 0.21
0.274 4.913 -1.75 0.19
0.258 4.91 -1.748 0.22
0.243 4.911 -1.748 0.1
0.228 4.93 -1.755 0.17
0.219 4.906 -1.746 0.21
0.205 4.925 -1.753 0.19
0.189 4.919 -1.75 0.21
0.173 4.915 -1.749 0.1
0.158 4.923 -1.752 0.18
0.143 4.922 -1.751 0.21
0.127 4.922 -1.751 0.1
0.111 4.912 -1.747 0.09
0.104 4.936 -1.756 0.17
0.089 4.921 -1.75 0.21
0.073 4.92 -1.75 0.09
0.058 4.933 -1.755 0.2
0.042 4.93 -1.753 0.11
0.027 4.933 -1.755 0.2
0.011 4.93 -1.753 0.11
0.004 4.932 -1.754 0.18
-0.012 4.922 -1.75 0.19
-0.027 4.926 -1.752 0.09
-0.043 4.931 -1.754 0.19
-0.058 4.933 -1.755 0.2
-0.074 4.931 -1.754 0.19
-0.089 4.914 -1.747 0.05
-0.097 4.94 -1.757 0.17
-0.112 4.921 -1.75 0.11
-0.128 4.924 -1.752 0.19
-0.143 4.916 -1.749 0.1
-0.159 4.938 -1.757 0.19
-0.175 4.927 -1.753 0.11
-0.19 4.935 -1.757 0.18
-0.205 4.925 -1.753 0.2
-0.213 4.923 -1.752 0.09
-0.229 4.934 -1.757 0.18
-0.244 4.92 -1.752 0.1
-0.261 4.943 -1.761 0.18
-0.275 4.915 -1.75 0.22
-0.291 4.927 -1.755 0.1
-0.306 4.926 -1.755 0.2
-0.321 4.917 -1.752 0.2
-0.33 4.93 -1.757 0.19
-0.345 4.916 -1.752 0.23
-0.361 4.928 -1.757 0.19
-0.375 4.906 -1.75 0.21
-0.393 4.937 -1.762 0.19
-0.407 4.919 -1.755 0.22
-0.422 4.917 -1.755 0.21
-0.43 4.922 -1.757 0.11
-0.445 4.91 -1.753 0.18
-0.461 4.916 -1.756 0.19
-0.477 4.918 -1.757 0.09
-0.492 4.909 -1.755 0.19
-0.507 4.911 -1.756 0.11
-0.523 4.915 -1.758 0.19
-0.531 4.914 -1.758 0.1
-0.547 4.914 -1.759 0.2
-0.562 4.913 -1.759 0.11
-0.58 4.929 -1.766 0.16
-0.592 4.9 -1.755 0.21
-0.61 4.922 -1.765 0.19
-0.623 4.901 -1.757 0.21
-0.64 4.911 -1.762 0.1
-0.648 4.91 -1.762 0.18
-0.663 4.902 -1.76 0.1
-0.677 4.896 -1.758 0.19
-0.693 4.892 -1.757 0.2
-0.709 4.899 -1.761 0.1
-0.723 4.886 -1.757 0.18
-0.739 4.889 -1.759 0.11
-0.747 4.892 -1.76 0.2
-0.761 4.88 -1.757 0.2
-0.778 4.885 -1.76 0.1
-0.793 4.883 -1.76 0.21
-0.809 4.882 -1.76 0.11
-0.824 4.876 -1.759 0.18
-0.84 4.879 -1.761 0.11
-0.847 4.874 -1.76 0.18
-0.863 4.873 -1.76 0.11
-0.88 4.883 -1.765 0.18
-0.892 4.863 -1.759 0.21
-0.908 4.861 -1.759 0.1
-0.925 4.867 -1.762 0.19
-0.938 4.855 -1.759 0.11
-0.955 4.857 -1.761 0.21
-0.963 4.86 -1.762 0.1
-0.978 4.857 -1.762 0.18
-0.992 4.846 -1.76 0.21
-1.007 4.843 -1.76 0.1
-1.024 4.849 -1.763 0.18
-1.036 4.831 -1.757 0.21
-1.055 4.842 -1.763 0.18
-1.069 4.834 -1.761 0.23
-1.077 4.837 -1.763 0.1
-1.094 4.839 -1.765 0.17
-1.107 4.827 -1.762 0.23
-1.122 4.823 -1.762 0.1
-1.138 4.822 -1.762 0.18
-1.153 4.818 -1.762 0.11
-1.169 4.818 -1.764 0.18
-1.174 4.807 -1.76 0.1
-1.192 4.816 -1.765 0.18
-1.206 4.807 -1.763 0.21
-1.22 4.796 -1.76 0.1
-1.235 4.794 -1.761 0.19
-1.252 4.795 -1.763 0.11
-1.268 4.799 -1.766 0.19
-1.272 4.78 -1.76 0.11
-1.29 4.787 -1.764 0.18
-1.303 4.776 -1.761 0.11
-1.317 4.77 -1.76 0.19
-1.335 4.777 -1.765 0.11
-1.347 4.76 -1.76 0.2
-1.361 4.754 -1.759 0.1
-1.376 4.777 -1.769 0.2
-1.386 4.754 -1.762 0.11
-1.404 4.763 -1.767 0.17
-1.418 4.755 -1.765 0.23
-1.431 4.743 -1.762 0.19
-1.444 4.733 -1.76 0.23
-1.463 4.743 -1.766 0.2
-1.471 4.715 -1.757 0.23
-1.486 4.738 -1.767 0.19
-1.496 4.717 -1.76 0.21
-1.511 4.714 -1.761 0.1
-1.528 4.714 -1.763 0.19
-1.543 4.71 -1.763 0.11
-1.553 4.692 -1.758 0.18
-1.569 4.689 -1.759 0.11
-1.584 4.71 -1.768 0.18
-1.591 4.684 -1.76 0.12
-1.607 4.68 -1.76 0.19
-1.625 4.684 -1.764 0.11
-1.639 4.677 -1.763 0.18
-1.647 4.654 -1.756 0.23
-1.667 4.665 -1.762 0.18
-1.668 4.643 -1.755 0.23
-1.689 4.655 -1.762 0.19
-1.703 4.65 -1.762 0.23
-1.718 4.645 -1.762 0.2
-1.732 4.637 -1.761 0.21
-1.744 4.627 -1.759 0.17
-1.756 4.612 -1.755 0.23
-1.777 4.624 -1.762 0.21
-1.781 4.613 -1.759 0.21
-1.798 4.614 -1.762 0.2
-1.809 4.6 -1.758 0.22
-1.833 4.619 -1.768 0.19
-1.834 4.58 -1.755 0.12
-1.851 4.579 -1.757 0.21
-1.869 4.584 -1.761 0.11
-1.88 4.567 -1.757 0.21
-1.889 4.57 -1.759 0.11
-1.908 4.576 -1.764 0.21
-1.918 4.559 -1.76 0.2
-1.931 4.55 -1.758 0.25
-1.948 4.549 -1.76 0.22
-1.963 4.545 -1.761 0.21
-1.97 4.521 -1.754 0.25
-1.984 4.535 -1.761 0.22
-1.992 4.515 -1.755 0.19
-2.006 4.509 -1.755 0.27
-2.027 4.516 -1.761 0.22
-2.041 4.51 -1.761 0.2
-2.048 4.488 -1.755 0.25
-2.064 4.485 -1.756 0.25
-2.07 4.48 -1.755 0.18
-2.081 4.467 -1.752 0.28
-2.1 4.471 -1.757 0.25
-2.116 4.469 -1.759 0.23
-2.128 4.457 -1.757 0.27
-2.145 4.457 -1.76 0.28
-2.148 4.429 -1.75 0.27
-2.163 4.424 -1.751 0.28
-2.177 4.434 -1.757 0.35
-2.185 4.415 -1.752 0.3
-2.2 4.411 -1.753 0.32
-2.213 4.403 -1.752 0.34
-2.225 4.393 -1.751 0.36
-2.241 4.389 -1.752 0.32
-2.256 4.385 -1.754 0.34
-2.259 4.373 -1.75 0.34
-2.28 4.379 -1.756 0.35
-2.291 4.367 -1.754 0.39
-2.304 4.358 -1.753 0.32
-2.316 4.349 -1.752 0.36
-2.328 4.339 -1.751 0.36
-2.339 4.327 -1.749 0.36
-2.349 4.328 -1.751 0.37
