# .PCD v.7 - Point Cloud Data file format
VERSION .7
FIELDS x y z intensity
SIZE 4 4 4 4
TYPE F F F F
COUNT 1 1 1 1
WIDTH 1950
HEIGHT 1
VIEWPOINT 0 0 0 1 0 0 0
POINTS 1950
DATA ascii
3.998 -4.054 -1.572 0.16
4.004 -4.034 -1.569 0.21
4.032 -4.05 -1.578 0.17
4.055 -4.048 -1.582 0.25
4.088 -4.056 -1.591 0.19
4.118 -4.06 -1.598 0.25
4.149 -4.065 -1.606 0.23
4.177 -4.067 -1.612 0.17
4.2 -4.064 -1.617 0.27
4.221 -4.071 -1.622 0.23
4.246 -4.07 -1.627 0.18
4.27 -4.067 -1.632 0.26
4.298 -4.068 -1.638 0.23
4.319 -4.063 -1.642 0.17
4.352 -4.069 -1.65 0.26
4.373 -4.063 -1.654 0.22
4.397 -4.072 -1.66 0.18
4.426 -4.073 -1.667 0.26
4.448 -4.067 -1.671 0.2
4.459 -4.052 -1.67 0.23
4.447 -4.016 -1.66 0.16
4.446 -3.989 -1.655 0.26
4.47 -3.985 -1.659 0.18
4.482 -3.984 -1.662 0.25
4.504 -3.978 -1.666 0.21
4.535 -3.981 -1.673 0.22
4.603 -4.015 -1.695 0.23
4.617 -4.001 -1.695 0.19
4.662 -4.016 -1.708 0.26
4.698 -4.021 -1.717 0.21
4.67 -3.984 -1.704 0.23
4.682 -3.969 -1.704 0.19
4.714 -3.97 -1.711 0.18
4.735 -3.963 -1.715 0.3
4.762 -3.961 -1.72 0.24
4.783 -3.953 -1.724 0.27
4.8 -3.942 -1.725 0.29
4.787 -3.918 -1.718 0.26
4.807 -3.909 -1.721 0.28
4.831 -3.904 -1.725 0.25
4.821 -3.87 -1.717 0.29
4.815 -3.841 -1.71 0.27
4.848 -3.842 -1.718 0.27
4.871 -3.836 -1.722 0.26
4.878 -3.829 -1.723 0.24
4.896 -3.818 -1.725 0.28
4.899 -3.796 -1.721 0.31
4.888 -3.763 -1.713 0.21
4.905 -3.751 -1.715 0.3
4.925 -3.743 -1.718 0.22
4.928 -3.72 -1.715 0.3
4.937 -3.702 -1.713 0.28
4.944 -3.696 -1.714 0.16
4.982 -3.7 -1.724 0.28
4.995 -3.685 -1.724 0.23
5.036 -3.691 -1.735 0.25
5.035 -3.666 -1.731 0.29
5.034 -3.641 -1.726 0.29
5.041 -3.635 -1.727 0.2
5.046 -3.614 -1.724 0.28
5.047 -3.591 -1.72 0.24
5.052 -3.57 -1.718 0.28
5.088 -3.572 -1.727 0.26
5.099 -3.556 -1.727 0.28
5.106 -3.537 -1.725 0.29
5.096 -3.506 -1.718 0.24
5.088 -3.489 -1.713 0.29
5.084 -3.463 -1.708 0.3
5.097 -3.448 -1.708 0.32
5.088 -3.419 -1.702 0.3
5.106 -3.407 -1.704 0.25
5.137 -3.405 -1.711 0.27
5.13 -3.377 -1.705 0.28
5.145 -3.376 -1.708 0.32
5.14 -3.349 -1.703 0.21
5.16 -3.339 -1.706 0.29
5.175 -3.326 -1.708 0.23
5.192 -3.314 -1.71 0.29
5.192 -3.291 -1.707 0.29
5.2 -3.273 -1.706 0.29
5.197 -3.26 -1.703 0.27
5.195 -3.236 -1.699 0.27
5.207 -3.221 -1.699 0.22
5.206 -3.197 -1.695 0.13
5.209 -3.177 -1.693 0.2
5.219 -3.161 -1.693 0.11
5.229 -3.144 -1.693 0.18
5.219 -3.127 -1.688 0.05
5.244 -3.119 -1.693 0.18
5.241 -3.095 -1.688 0.2
5.255 -3.082 -1.69 0.09
5.252 -3.057 -1.686 0.09
5.276 -3.049 -1.691 0.17
5.267 -3.022 -1.684 0.05
5.287 -3.023 -1.69 0.17
5.298 -3.007 -1.69 0.2
5.303 -2.987 -1.688 0.09
5.304 -2.966 -1.686 0.09
5.315 -2.95 -1.686 0.09
5.316 -2.929 -1.683 0.08
5.321 -2.91 -1.682 0.0
5.318 -2.897 -1.679 0.0
5.306 -2.87 -1.672 0.0
4.855 -2.584 -1.514 0.0
4.858 -2.566 -1.512 0.0
4.898 -2.567 -1.523 0.0
4.937 -2.568 -1.533 0.14
4.949 -2.565 -1.536 0.04
5.029 -2.586 -1.56 0.16
5.074 -2.59 -1.573 0.2
5.124 -2.595 -1.586 0.1
5.156 -2.591 -1.594 0.18
5.189 -2.588 -1.603 0.1
5.228 -2.587 -1.613 0.19
5.272 -2.588 -1.625 0.11
5.287 -2.585 -1.629 0.17
5.312 -2.577 -1.634 0.21
5.324 -2.562 -1.635 0.16
5.278 -2.519 -1.618 0.25
5.295 -2.507 -1.621 0.16
5.42 -2.546 -1.659 0.25
5.376 -2.505 -1.642 0.21
5.462 -2.534 -1.669 0.25
5.484 -2.524 -1.674 0.28
5.471 -2.497 -1.667 0.26
5.491 -2.485 -1.671 0.2
5.479 -2.459 -1.664 0.27
5.468 -2.433 -1.658 0.25
5.468 -2.413 -1.656 0.18
5.467 -2.402 -1.654 0.27
5.469 -2.383 -1.653 0.23
5.494 -2.373 -1.658 0.25
5.509 -2.359 -1.66 0.24
5.511 -2.339 -1.659 0.29
5.506 -2.317 -1.655 0.24
5.545 -2.313 -1.665 0.39
5.527 -2.295 -1.658 0.29
5.515 -2.27 -1.652 0.32
5.524 -2.253 -1.653 0.35
5.529 -2.235 -1.652 0.23
5.543 -2.221 -1.654 0.3
5.573 -2.212 -1.662 0.25
5.541 -2.179 -1.649 0.2
5.539 -2.168 -1.647 0.33
5.549 -2.152 -1.649 0.32
5.545 -2.131 -1.645 0.3
5.516 -2.1 -1.634 0.19
5.517 -2.08 -1.632 0.28
5.522 -2.062 -1.631 0.23
5.532 -2.046 -1.633 0.23
5.521 -2.022 -1.627 0.25
5.538 -2.019 -1.631 0.29
5.555 -2.005 -1.635 0.29
5.549 -1.983 -1.631 0.3
5.559 -1.967 -1.632 0.29
5.625 -1.971 -1.651 0.37
5.6 -1.942 -1.641 0.33
5.561 -1.909 -1.627 0.26
5.575 -1.904 -1.63 0.29
5.595 -1.891 -1.635 0.32
5.606 -1.876 -1.637 0.32
5.585 -1.849 -1.628 0.28
5.571 -1.825 -1.622 0.29
5.573 -1.806 -1.621 0.3
5.591 -1.793 -1.625 0.31
5.614 -1.79 -1.631 0.31
5.629 -1.776 -1.634 0.3
5.611 -1.75 -1.626 0.29
5.612 -1.732 -1.625 0.29
5.598 -1.708 -1.619 0.31
5.574 -1.681 -1.61 0.28
5.531 -1.649 -1.595 0.21
5.517 -1.636 -1.59 0.25
5.519 -1.617 -1.589 0.22
5.533 -1.602 -1.592 0.18
5.544 -1.587 -1.593 0.27
5.549 -1.569 -1.593 0.23
5.531 -1.546 -1.586 0.16
5.551 -1.532 -1.591 0.29
5.564 -1.527 -1.594 0.25
5.597 -1.517 -1.603 0.27
5.657 -1.514 -1.62 0.28
5.717 -1.512 -1.637 0.25
5.774 -1.507 -1.653 0.25
5.818 -1.499 -1.665 0.32
5.833 -1.484 -1.668 0.31
5.83 -1.473 -1.667 0.3
5.824 -1.452 -1.663 0.3
5.839 -1.437 -1.667 0.29
5.825 -1.414 -1.661 0.3
5.833 -1.396 -1.662 0.28
5.821 -1.374 -1.657 0.28
5.805 -1.351 -1.651 0.19
5.824 -1.346 -1.656 0.28
5.818 -1.325 -1.653 0.25
5.798 -1.301 -1.646 0.2
5.815 -1.286 -1.65 0.27
5.823 -1.269 -1.651 0.25
5.823 -1.25 -1.65 0.24
5.795 -1.224 -1.64 0.18
5.816 -1.21 -1.645 0.28
5.829 -1.203 -1.649 0.22
5.818 -1.182 -1.644 0.21
5.829 -1.165 -1.646 0.27
5.822 -1.144 -1.643 0.23
5.833 -1.127 -1.645 0.19
5.829 -1.108 -1.643 0.27
5.834 -1.09 -1.643 0.2
5.832 -1.08 -1.642 0.23
5.843 -1.063 -1.645 0.2
5.846 -1.045 -1.645 0.12
5.861 -1.028 -1.648 0.18
5.868 -1.01 -1.649 0.12
5.858 -0.99 -1.645 0.21
5.864 -0.972 -1.646 0.11
5.874 -0.964 -1.649 0.18
5.88 -0.946 -1.65 0.1
5.881 -0.927 -1.649 0.2
5.884 -0.909 -1.649 0.1
5.88 -0.889 -1.647 0.18
5.884 -0.871 -1.647 0.1
5.894 -0.854 -1.65 0.18
5.89 -0.844 -1.648 0.21
5.887 -0.824 -1.646 0.1
5.907 -0.808 -1.651 0.17
5.905 -0.789 -1.65 0.21
5.91 -0.771 -1.651 0.1
5.889 -0.749 -1.644 0.18
5.909 -0.733 -1.649 0.11
5.899 -0.722 -1.646 0.18
5.912 -0.705 -1.649 0.11
5.911 -0.686 -1.648 0.17
5.907 -0.667 -1.646 0.21
5.917 -0.649 -1.649 0.1
5.919 -0.63 -1.649 0.17
5.913 -0.611 -1.646 0.21
5.915 -0.592 -1.646 0.09
5.906 -0.582 -1.643 0.18
5.91 -0.564 -1.644 0.11
5.929 -0.547 -1.649 0.17
5.917 -0.527 -1.645 0.22
5.925 -0.509 -1.647 0.19
5.913 -0.489 -1.643 0.23
5.92 -0.471 -1.645 0.18
5.913 -0.461 -1.642 0.23
5.92 -0.443 -1.644 0.2
5.914 -0.424 -1.642 0.22
5.906 -0.405 -1.639 0.19
5.918 -0.387 -1.642 0.25
5.918 -0.368 -1.642 0.21
5.911 -0.349 -1.639 0.22
5.904 -0.339 -1.637 0.22
5.907 -0.321 -1.638 0.2
5.916 -0.303 -1.64 0.26
5.905 -0.284 -1.637 0.23
5.929 -0.266 -1.643 0.24
5.903 -0.246 -1.635 0.17
5.907 -0.228 -1.637 0.29
5.908 -0.219 -1.637 0.25
5.918 -0.2 -1.639 0.18
5.917 -0.182 -1.639 0.26
5.921 -0.163 -1.64 0.23
5.908 -0.144 -1.636 0.18
5.922 -0.126 -1.64 0.26
5.915 -0.107 -1.638 0.23
5.913 -0.089 -1.637 0.2
5.921 -0.079 -1.639 0.26
5.925 -0.061 -1.641 0.25
5.919 -0.042 -1.639 0.2
5.929 -0.024 -1.642 0.28
5.927 -0.005 -1.641 0.25
5.777 0.004 -1.666 0.18
5.746 0.022 -1.657 0.23
5.767 0.04 -1.663 0.19
5.75 0.058 -1.658 0.22
5.757 0.076 -1.661 0.18
5.749 0.094 -1.658 0.24
5.774 0.104 -1.666 0.2
5.751 0.121 -1.659 0.22
5.756 0.14 -1.661 0.14
5.742 0.157 -1.656 0.26
5.765 0.176 -1.663 0.2
5.749 0.194 -1.659 0.23
5.773 0.213 -1.666 0.19
5.75 0.221 -1.659 0.23
5.757 0.239 -1.662 0.2
5.752 0.257 -1.661 0.12
5.759 0.276 -1.663 0.18
5.741 0.293 -1.658 0.11
5.751 0.311 -1.661 0.21
5.741 0.329 -1.658 0.11
5.751 0.348 -1.662 0.2
5.741 0.356 -1.659 0.11
5.751 0.375 -1.662 0.18
5.74 0.392 -1.659 0.11
5.749 0.411 -1.662 0.18
5.744 0.429 -1.661 0.11
5.767 0.449 -1.669 0.16
5.731 0.464 -1.658 0.05
5.74 0.474 -1.661 0.16
5.735 0.492 -1.66 0.05
5.756 0.512 -1.667 0.16
5.745 0.529 -1.664 0.19
5.747 0.547 -1.665 0.18
5.745 0.565 -1.665 0.16
5.745 0.584 -1.666 0.16
5.737 0.592 -1.663 0.16
5.741 0.61 -1.665 0.16
5.741 0.629 -1.666 0.18
5.737 0.647 -1.665 0.18
5.754 0.667 -1.671 0.18
5.748 0.684 -1.67 0.17
5.732 0.701 -1.666 0.18
5.731 0.71 -1.666 0.04
5.74 0.729 -1.669 0.08
5.732 0.747 -1.668 0.08
5.734 0.765 -1.669 0.08
5.731 0.783 -1.669 0.08
5.723 0.8 -1.667 0.16
5.732 0.82 -1.671 0.16
5.723 0.828 -1.668 0.17
5.718 0.846 -1.668 0.16
5.718 0.864 -1.668 0.17
5.698 0.879 -1.663 0.04
5.72 0.901 -1.671 0.16
5.696 0.915 -1.664 0.05
5.712 0.936 -1.67 0.15
5.685 0.95 -1.662 0.04
5.696 0.961 -1.666 0.16
5.674 0.976 -1.661 0.05
5.686 0.997 -1.665 0.16
5.676 1.013 -1.663 0.05
5.676 1.032 -1.664 0.16
5.664 1.048 -1.661 0.2
5.671 1.068 -1.665 0.09
5.694 1.081 -1.672 0.15
5.651 1.091 -1.66 0.05
5.668 1.113 -1.666 0.17
5.657 1.129 -1.664 0.11
5.65 1.146 -1.663 0.18
5.658 1.167 -1.666 0.2
5.645 1.182 -1.663 0.1
5.65 1.193 -1.666 0.19
5.624 1.206 -1.659 0.11
5.628 1.225 -1.661 0.18
5.603 1.238 -1.655 0.1
5.627 1.262 -1.663 0.16
5.603 1.275 -1.657 0.23
5.618 1.297 -1.663 0.16
5.593 1.3 -1.656 0.29
5.595 1.319 -1.658 0.3
5.59 1.337 -1.658 0.31
5.584 1.354 -1.657 0.31
5.575 1.37 -1.655 0.3
5.57 1.388 -1.655 0.24
5.573 1.407 -1.658 0.17
5.565 1.424 -1.656 0.2
5.561 1.432 -1.656 0.11
5.58 1.456 -1.663 0.16
5.556 1.468 -1.657 0.21
5.562 1.488 -1.661 0.16
5.535 1.5 -1.653 0.06
5.556 1.524 -1.662 0.16
5.544 1.54 -1.659 0.11
5.553 1.551 -1.663 0.18
5.528 1.563 -1.656 0.12
5.543 1.586 -1.663 0.18
5.527 1.6 -1.659 0.12
5.529 1.62 -1.662 0.2
5.511 1.633 -1.658 0.11
5.524 1.656 -1.663 0.17
5.494 1.657 -1.655 0.12
5.509 1.68 -1.661 0.17
5.498 1.696 -1.659 0.12
5.52 1.722 -1.668 0.18
5.491 1.731 -1.661 0.12
5.482 1.747 -1.659 0.19
5.478 1.765 -1.66 0.11
5.496 1.78 -1.666 0.18
5.468 1.79 -1.659 0.23
5.473 1.811 -1.663 0.21
5.451 1.823 -1.658 0.11
5.475 1.85 -1.667 0.18
5.447 1.86 -1.66 0.23
5.463 1.884 -1.667 0.18
5.433 1.883 -1.658 0.25
5.443 1.906 -1.663 0.19
5.423 1.918 -1.659 0.23
5.427 1.939 -1.662 0.19
5.412 1.953 -1.659 0.13
5.437 1.981 -1.669 0.18
5.412 1.991 -1.663 0.23
5.413 2.001 -1.665 0.17
5.385 2.01 -1.658 0.24
5.397 2.034 -1.663 0.18
5.374 2.045 -1.658 0.23
5.378 2.066 -1.662 0.16
5.367 2.08 -1.66 0.23
5.38 2.105 -1.666 0.17
5.353 2.114 -1.66 0.25
5.357 2.125 -1.662 0.17
5.342 2.139 -1.659 0.25
5.347 2.16 -1.663 0.18
5.326 2.171 -1.659 0.13
5.323 2.19 -1.66 0.21
5.328 2.211 -1.664 0.16
5.316 2.226 -1.662 0.26
5.32 2.237 -1.665 0.18
5.293 2.246 -1.658 0.24
5.307 2.271 -1.665 0.16
5.281 2.28 -1.659 0.26
5.284 2.301 -1.662 0.23
5.277 2.317 -1.662 0.17
5.27 2.334 -1.662 0.26
5.282 2.349 -1.668 0.2
5.245 2.353 -1.658 0.12
5.242 2.371 -1.659 0.21
5.238 2.389 -1.661 0.16
5.217 2.399 -1.656 0.27
5.22 2.421 -1.659 0.24
5.211 2.436 -1.659 0.18
5.21 2.446 -1.66 0.27
5.206 2.464 -1.661 0.21
5.196 2.48 -1.661 0.17
5.18 2.492 -1.658 0.26
5.177 2.511 -1.659 0.16
5.169 2.527 -1.659 0.27
5.168 2.546 -1.662 0.24
5.159 2.552 -1.66 0.16
5.148 2.566 -1.659 0.27
5.158 2.592 -1.665 0.18
5.133 2.6 -1.659 0.25
5.135 2.621 -1.663 0.23
5.118 2.633 -1.66 0.17
5.117 2.652 -1.662 0.27
5.112 2.67 -1.663 0.16
5.091 2.669 -1.658 0.26
5.106 2.698 -1.666 0.16
5.079 2.704 -1.659 0.27
5.065 2.717 -1.658 0.23
5.07 2.74 -1.662 0.16
5.047 2.748 -1.657 0.26
5.053 2.772 -1.662 0.18
5.037 2.774 -1.658 0.25
5.038 2.795 -1.662 0.15
5.016 2.803 -1.657 0.26
5.027 2.83 -1.664 0.16
5.0 2.836 -1.658 0.26
4.999 2.856 -1.661 0.18
4.992 2.862 -1.659 0.25
4.992 2.884 -1.663 0.18
4.98 2.897 -1.662 0.23
4.961 2.907 -1.658 0.16
4.96 2.928 -1.661 0.26
4.959 2.948 -1.664 0.18
4.943 2.96 -1.662 0.25
4.94 2.979 -1.664 0.19
4.928 2.982 -1.661 0.25
4.921 2.999 -1.662 0.18
4.906 3.011 -1.66 0.24
4.911 3.035 -1.665 0.18
4.891 3.045 -1.662 0.24
4.895 3.068 -1.666 0.18
4.875 3.077 -1.663 0.24
4.885 3.094 -1.668 0.17
4.864 3.102 -1.664 0.25
4.865 3.125 -1.668 0.18
4.832 3.124 -1.659 0.24
4.839 3.151 -1.666 0.18
4.826 3.164 -1.665 0.24
4.827 3.187 -1.669 0.19
4.811 3.187 -1.665 0.23
4.811 3.208 -1.668 0.17
4.788 3.215 -1.663 0.25
4.79 3.239 -1.668 0.18
4.776 3.25 -1.666 0.25
4.764 3.264 -1.666 0.2
4.743 3.272 -1.662 0.23
4.754 3.302 -1.67 0.16
4.736 3.301 -1.665 0.23
4.726 3.315 -1.665 0.18
4.702 3.32 -1.66 0.23
4.711 3.349 -1.668 0.19
4.693 3.359 -1.665 0.22
4.703 3.388 -1.672 0.19
4.673 3.389 -1.665 0.12
4.676 3.402 -1.668 0.15
4.657 3.411 -1.665 0.23
4.654 3.432 -1.668 0.18
4.624 3.431 -1.661 0.24
4.628 3.457 -1.666 0.18
4.608 3.465 -1.663 0.25
4.61 3.478 -1.666 0.18
4.605 3.497 -1.668 0.23
4.606 3.521 -1.673 0.17
4.568 3.514 -1.662 0.23
4.58 3.546 -1.671 0.17
4.55 3.546 -1.664 0.25
4.548 3.568 -1.668 0.16
4.539 3.583 -1.668 0.24
4.533 3.59 -1.668 0.18
4.513 3.597 -1.665 0.25
4.519 3.626 -1.672 0.18
4.499 3.633 -1.668 0.25
4.499 3.657 -1.673 0.22
4.466 3.653 -1.664 0.23
4.462 3.673 -1.667 0.18
4.45 3.675 -1.665 0.24
4.457 3.705 -1.672 0.18
4.43 3.705 -1.666 0.25
4.433 3.731 -1.672 0.19
4.406 3.733 -1.666 0.23
4.396 3.748 -1.666 0.19
4.375 3.754 -1.663 0.13
4.381 3.771 -1.668 0.2
4.363 3.78 -1.665 0.17
4.346 3.788 -1.663 0.26
4.351 3.817 -1.67 0.18
4.323 3.817 -1.663 0.25
4.314 3.833 -1.665 0.18
4.296 3.841 -1.662 0.25
4.293 3.863 -1.666 0.24
4.283 3.866 -1.664 0.17
4.273 3.882 -1.665 0.27
4.257 3.891 -1.663 0.24
4.239 3.899 -1.661 0.18
4.235 3.92 -1.665 0.26
4.228 3.939 -1.667 0.19
4.206 3.943 -1.663 0.25
4.203 3.952 -1.664 0.18
4.182 3.957 -1.661 0.25
4.185 3.985 -1.667 0.19
4.163 3.989 -1.663 0.14
4.151 4.003 -1.663 0.21
4.152 4.03 -1.669 0.2
4.127 4.018 -1.661 0.24
4.114 4.03 -1.661 0.22
4.11 4.051 -1.665 0.2
4.092 4.059 -1.662 0.14
4.086 4.079 -1.665 0.21
4.065 4.083 -1.662 0.16
4.056 4.1 -1.663 0.27
4.056 4.126 -1.669 0.19
4.043 4.126 -1.666 0.13
4.029 4.137 -1.666 0.21
4.022 4.157 -1.669 0.17
4.0 4.16 -1.665 0.27
4.008 4.194 -1.674 0.18
3.981 4.192 -1.668 0.24
3.979 4.217 -1.673 0.18
3.974 4.224 -1.674 0.23
3.97 4.247 -1.678 0.24
3.954 4.256 -1.676 0.28
3.939 4.267 -1.676 0.26
3.915 4.268 -1.671 0.12
3.916 4.296 -1.678 0.21
3.897 4.303 -1.675 0.19
3.868 4.298 -1.668 0.32
3.878 4.323 -1.676 0.32
3.847 4.315 -1.668 0.33
3.838 4.333 -1.67 0.32
3.836 4.358 -1.675 0.32
3.806 4.351 -1.668 0.3
3.8 4.371 -1.671 0.3
3.799 4.398 -1.677 0.34
3.788 4.399 -1.675 0.32
3.773 4.41 -1.675 0.32
3.765 4.429 -1.678 0.31
3.74 4.428 -1.672 0.34
3.738 4.454 -1.678 0.21
3.728 4.47 -1.68 0.23
3.713 4.48 -1.679 0.1
3.72 4.504 -1.687 0.17
3.69 4.496 -1.679 0.05
3.688 4.523 -1.685 0.17
3.669 4.528 -1.682 0.05
3.668 4.556 -1.689 0.17
3.635 4.544 -1.679 0.05
3.644 4.585 -1.691 0.17
3.63 4.582 -1.688 0.18
3.608 4.584 -1.684 0.04
3.617 4.626 -1.696 0.16
3.601 4.634 -1.695 0.19
3.58 4.638 -1.692 0.18
3.564 4.648 -1.691 0.18
3.558 4.669 -1.695 0.18
3.554 4.68 -1.697 0.18
3.536 4.686 -1.695 0.18
3.521 4.697 -1.695 0.17
3.51 4.713 -1.697 0.16
3.501 4.732 -1.7 0.17
3.487 4.744 -1.701 0.16
3.475 4.76 -1.703 0.17
3.467 4.764 -1.702 0.17
3.448 4.77 -1.7 0.04
3.444 4.796 -1.706 0.08
3.425 4.801 -1.704 0.08
3.406 4.807 -1.702 0.09
3.398 4.827 -1.705 0.09
3.382 4.836 -1.705 0.08
3.359 4.835 -1.701 0.04
3.37 4.868 -1.711 0.15
3.347 4.867 -1.707 0.05
3.343 4.895 -1.713 0.14
3.317 4.89 -1.707 0.05
3.31 4.913 -1.712 0.14
3.29 4.915 -1.709 0.05
3.285 4.941 -1.715 0.16
3.276 4.945 -1.714 0.18
3.257 4.95 -1.713 0.18
3.232 4.946 -1.707 0.04
3.236 4.987 -1.718 0.16
3.204 4.971 -1.709 0.05
3.207 5.01 -1.72 0.15
3.179 5.001 -1.713 0.05
3.188 5.033 -1.723 0.15
3.157 5.019 -1.714 0.04
3.153 5.047 -1.72 0.16
3.124 5.036 -1.713 0.19
3.112 5.052 -1.715 0.04
3.11 5.085 -1.723 0.15
3.08 5.071 -1.715 0.05
3.081 5.109 -1.725 0.16
3.063 5.097 -1.719 0.05
3.056 5.122 -1.724 0.17
3.028 5.112 -1.717 0.05
3.022 5.138 -1.723 0.16
3.005 5.147 -1.723 0.19
2.989 5.156 -1.723 0.1
2.971 5.162 -1.722 0.09
2.972 5.182 -1.727 0.16
2.946 5.175 -1.721 0.05
2.939 5.201 -1.727 0.17
2.913 5.193 -1.721 0.05
2.906 5.219 -1.727 0.16
2.884 5.218 -1.724 0.19
2.868 5.227 -1.724 0.1
2.872 5.255 -1.732 0.17
2.845 5.244 -1.725 0.05
2.836 5.266 -1.73 0.18
2.812 5.262 -1.725 0.2
2.8 5.279 -1.728 0.09
2.783 5.288 -1.728 0.09
2.769 5.302 -1.73 0.18
2.762 5.308 -1.73 0.11
2.752 5.33 -1.735 0.16
2.732 5.332 -1.733 0.21
2.716 5.342 -1.733 0.1
2.697 5.347 -1.732 0.18
2.68 5.354 -1.731 0.11
2.669 5.374 -1.736 0.19
2.651 5.381 -1.735 0.11
2.65 5.4 -1.74 0.19
2.627 5.397 -1.736 0.11
2.611 5.407 -1.737 0.18
2.589 5.404 -1.733 0.11
2.577 5.423 -1.737 0.2
2.563 5.438 -1.739 0.11
2.547 5.448 -1.74 0.19
2.538 5.45 -1.739 0.11
2.529 5.475 -1.745 0.18
2.507 5.474 -1.742 0.23
2.492 5.486 -1.743 0.21
2.472 5.488 -1.742 0.11
2.467 5.522 -1.75 0.18
2.436 5.5 -1.74 0.23
2.44 5.532 -1.75 0.18
2.413 5.519 -1.743 0.23
2.404 5.546 -1.749 0.2
2.378 5.532 -1.742 0.11
2.367 5.555 -1.747 0.2
2.345 5.552 -1.744 0.11
2.336 5.579 -1.75 0.18
2.312 5.57 -1.745 0.23
2.304 5.577 -1.746 0.1
2.295 5.604 -1.753 0.18
2.271 5.597 -1.748 0.21
2.259 5.617 -1.752 0.17
2.24 5.622 -1.752 0.23
2.219 5.62 -1.749 0.16
2.201 5.625 -1.748 0.24
2.196 5.639 -1.752 0.19
2.177 5.643 -1.75 0.12
2.159 5.649 -1.75 0.2
2.139 5.649 -1.748 0.11
2.126 5.67 -1.753 0.2
2.109 5.679 -1.753 0.11
2.093 5.691 -1.755 0.2
2.083 5.688 -1.753 0.11
2.067 5.7 -1.755 0.18
2.046 5.7 -1.753 0.21
2.033 5.72 -1.757 0.19
2.013 5.721 -1.756 0.24
1.999 5.739 -1.759 0.2
1.98 5.741 -1.758 0.12
1.964 5.755 -1.76 0.19
1.95 5.743 -1.756 0.21
1.938 5.766 -1.761 0.17
1.918 5.766 -1.759 0.23
1.911 5.807 -1.77 0.19
1.884 5.785 -1.762 0.12
1.866 5.791 -1.762 0.18
1.846 5.792 -1.76 0.11
1.843 5.816 -1.767 0.19
1.82 5.806 -1.762 0.11
1.803 5.815 -1.763 0.2
1.782 5.812 -1.76 0.11
1.768 5.832 -1.765 0.2
1.749 5.834 -1.763 0.2
1.732 5.845 -1.765 0.1
1.727 5.862 -1.77 0.18
1.704 5.851 -1.765 0.05
1.69 5.871 -1.769 0.17
1.67 5.871 -1.768 0.2
1.65 5.872 -1.766 0.17
1.633 5.881 -1.768 0.17
1.612 5.877 -1.765 0.04
1.6 5.906 -1.772 0.15
1.588 5.899 -1.769 0.05
1.569 5.904 -1.769 0.07
1.55 5.905 -1.768 0.08
1.531 5.91 -1.768 0.15
1.513 5.917 -1.769 0.04
1.498 5.935 -1.773 0.07
1.481 5.947 -1.775 0.15
1.468 5.934 -1.77 0.04
1.453 5.955 -1.776 0.07
1.433 5.954 -1.774 0.16
1.415 5.961 -1.775 0.16
1.397 5.967 -1.775 0.17
1.376 5.962 -1.772 0.04
1.363 5.992 -1.781 0.14
1.348 5.97 -1.773 0.05
1.334 5.993 -1.779 0.15
1.314 5.994 -1.778 0.05
1.297 6.007 -1.781 0.14
1.277 6.004 -1.778 0.18
1.259 6.013 -1.78 0.17
1.24 6.017 -1.78 0.17
1.232 6.025 -1.782 0.18
1.212 6.027 -1.781 0.16
1.191 6.015 -1.776 0.04
1.177 6.047 -1.785 0.17
1.157 6.044 -1.783 0.05
1.137 6.045 -1.782 0.15
1.118 6.045 -1.781 0.05
1.102 6.067 -1.787 0.15
1.091 6.063 -1.785 0.05
1.074 6.074 -1.788 0.15
1.055 6.078 -1.788 0.18
1.035 6.081 -1.788 0.18
1.016 6.084 -1.788 0.17
0.996 6.082 -1.786 0.18
0.976 6.075 -1.783 0.16
0.96 6.101 -1.79 0.16
0.948 6.089 -1.786 0.04
0.931 6.102 -1.789 0.15
0.91 6.097 -1.786 0.05
0.894 6.121 -1.793 0.16
0.873 6.112 -1.789 0.05
0.856 6.126 -1.793 0.16
0.835 6.119 -1.79 0.05
0.829 6.149 -1.799 0.16
0.807 6.131 -1.792 0.18
0.788 6.133 -1.792 0.18
0.767 6.122 -1.788 0.18
0.75 6.144 -1.794 0.16
0.731 6.142 -1.793 0.16
0.713 6.156 -1.796 0.17
0.701 6.142 -1.792 0.16
0.682 6.15 -1.794 0.04
0.664 6.163 -1.797 0.15
0.644 6.156 -1.794 0.05
0.626 6.175 -1.799 0.16
0.605 6.162 -1.795 0.05
0.587 6.173 -1.798 0.16
0.567 6.171 -1.796 0.19
0.557 6.164 -1.794 0.18
0.538 6.174 -1.796 0.18
0.518 6.164 -1.793 0.04
0.5 6.186 -1.799 0.16
0.481 6.19 -1.8 0.18
0.461 6.186 -1.798 0.18
0.441 6.181 -1.796 0.04
0.432 6.194 -1.8 0.16
0.413 6.201 -1.802 0.19
0.393 6.192 -1.799 0.17
0.374 6.197 -1.8 0.18
0.355 6.202 -1.801 0.17
0.334 6.188 -1.796 0.04
0.316 6.222 -1.807 0.14
0.306 6.201 -1.8 0.05
0.286 6.204 -1.801 0.16
0.267 6.21 -1.802 0.18
0.247 6.204 -1.8 0.17
0.228 6.206 -1.801 0.04
0.209 6.218 -1.804 0.16
0.189 6.215 -1.803 0.18
0.179 6.219 -1.804 0.18
0.16 6.216 -1.803 0.16
0.14 6.22 -1.804 0.17
0.121 6.213 -1.802 0.18
0.101 6.215 -1.802 0.17
0.082 6.225 -1.805 0.18
0.062 6.22 -1.804 0.17
0.042 6.222 -1.804 0.18
0.033 6.233 -1.808 0.16
0.013 6.226 -1.805 0.17
-0.006 6.228 -1.806 0.16
-0.026 6.233 -1.808 0.16
-0.046 6.237 -1.809 0.17
-0.065 6.224 -1.805 0.16
-0.085 6.229 -1.807 0.16
-0.095 6.229 -1.807 0.17
-0.114 6.232 -1.808 0.09
-0.134 6.236 -1.809 0.09
-0.153 6.232 -1.808 0.08
-0.173 6.233 -1.808 0.08
-0.192 6.23 -1.808 0.08
-0.212 6.236 -1.809 0.09
-0.232 6.235 -1.809 0.15
-0.242 6.24 -1.811 0.04
-0.261 6.239 -1.811 0.08
-0.281 6.227 -1.808 0.09
-0.301 6.236 -1.811 0.09
-0.32 6.223 -1.807 0.16
-0.34 6.232 -1.81 0.18
-0.359 6.233 -1.811 0.09
-0.369 6.236 -1.812 0.09
-0.389 6.237 -1.812 0.09
-0.408 6.23 -1.811 0.09
-0.428 6.234 -1.812 0.09
-0.447 6.227 -1.811 0.15
-0.468 6.237 -1.814 0.16
-0.487 6.234 -1.814 0.18
-0.508 6.24 -1.816 0.17
-0.517 6.237 -1.815 0.16
-0.536 6.228 -1.813 0.04
-0.557 6.237 -1.817 0.15
-0.576 6.236 -1.817 0.18
-0.595 6.22 -1.812 0.04
-0.616 6.237 -1.818 0.16
-0.633 6.213 -1.811 0.05
-0.644 6.225 -1.815 0.07
-0.664 6.223 -1.815 0.09
-0.684 6.228 -1.818 0.08
-0.704 6.224 -1.817 0.09
-0.723 6.222 -1.817 0.08
-0.743 6.22 -1.817 0.09
-0.762 6.216 -1.817 0.08
-0.772 6.212 -1.816 0.09
-0.792 6.214 -1.817 0.09
-0.811 6.211 -1.817 0.08
-0.831 6.212 -1.818 0.08
-0.85 6.208 -1.818 0.09
-0.87 6.205 -1.818 0.09
-0.888 6.195 -1.815 0.09
-0.899 6.201 -1.818 0.09
-0.918 6.194 -1.817 0.08
-0.94 6.207 -1.821 0.09
-0.957 6.19 -1.817 0.08
-0.976 6.182 -1.815 0.09
-0.997 6.188 -1.818 0.08
-1.016 6.185 -1.818 0.08
-1.035 6.18 -1.818 0.09
-1.045 6.176 -1.817 0.08
-1.066 6.182 -1.82 0.09
-1.086 6.181 -1.821 0.08
-1.104 6.174 -1.82 0.09
-1.123 6.166 -1.818 0.09
-1.144 6.17 -1.821 0.09
-1.163 6.169 -1.821 0.08
-1.175 6.174 -1.824 0.14
-1.19 6.152 -1.818 0.05
-1.214 6.169 -1.824 0.16
-1.23 6.15 -1.82 0.05
-1.252 6.159 -1.824 0.16
-1.271 6.153 -1.823 0.05
-1.291 6.151 -1.824 0.15
-1.298 6.138 -1.82 0.05
-1.321 6.15 -1.825 0.16
-1.339 6.139 -1.823 0.19
-1.357 6.129 -1.821 0.09
-1.375 6.123 -1.821 0.09
-1.396 6.124 -1.822 0.09
-1.414 6.116 -1.821 0.08
-1.433 6.11 -1.821 0.09
-1.45 6.137 -1.83 0.15
-1.462 6.105 -1.821 0.05
-1.485 6.113 -1.825 0.16
-1.5 6.094 -1.821 0.05
-1.526 6.115 -1.829 0.16
-1.537 6.078 -1.819 0.05
-1.557 6.075 -1.82 0.15
-1.579 6.083 -1.824 0.05
-1.589 6.081 -1.824 0.16
-1.605 6.065 -1.82 0.05
-1.627 6.073 -1.824 0.16
-1.642 6.051 -1.819 0.05
-1.665 6.062 -1.824 0.15
-1.679 6.039 -1.818 0.05
-1.704 6.052 -1.824 0.16
-1.711 6.044 -1.822 0.19
-1.729 6.034 -1.821 0.17
-1.748 6.029 -1.821 0.18
-1.767 6.023 -1.821 0.17
-1.79 6.031 -1.825 0.17
-1.804 6.009 -1.82 0.16
-1.822 5.999 -1.819 0.04
-1.838 6.02 -1.827 0.14
-1.853 6.0 -1.822 0.05
-1.876 6.008 -1.827 0.15
-1.892 5.992 -1.823 0.19
-1.905 5.967 -1.817 0.17
-1.927 5.974 -1.821 0.16
-1.952 5.984 -1.827 0.09
-1.955 5.963 -1.821 0.08
-1.974 5.957 -1.821 0.08
-1.994 5.954 -1.822 0.09
-2.009 5.937 -1.818 0.08
-2.033 5.949 -1.824 0.09
-2.046 5.926 -1.819 0.09
-2.064 5.916 -1.818 0.15
-2.087 5.922 -1.822 0.17
-2.094 5.914 -1.82 0.17
-2.11 5.9 -1.818 0.18
-2.131 5.9 -1.82 0.17
-2.148 5.888 -1.818 0.18
-2.168 5.885 -1.82 0.18
-2.185 5.875 -1.818 0.09
-2.212 5.891 -1.826 0.16
-2.217 5.877 -1.822 0.21
-2.23 5.856 -1.818 0.1
-2.251 5.854 -1.82 0.18
-2.268 5.843 -1.818 0.05
-2.29 5.847 -1.822 0.17
-2.304 5.827 -1.818 0.19
-2.326 5.829 -1.821 0.1
-2.348 5.832 -1.824 0.17
-2.352 5.816 -1.82 0.21
-2.375 5.819 -1.824 0.19
-2.387 5.797 -1.819 0.12
-2.414 5.811 -1.826 0.17
-2.423 5.781 -1.818 0.23
-2.444 5.78 -1.821 0.16
-2.459 5.765 -1.818 0.23
-2.478 5.784 -1.826 0.19
-2.486 5.752 -1.818 0.23
-2.507 5.753 -1.821 0.19
-2.521 5.734 -1.817 0.21
-2.545 5.74 -1.822 0.17
-2.558 5.722 -1.818 0.23
-2.58 5.723 -1.821 0.2
-2.594 5.704 -1.818 0.23
-2.601 5.696 -1.817 0.16
-2.618 5.686 -1.816 0.25
-2.649 5.706 -1.825 0.2
-2.657 5.677 -1.818 0.21
-2.679 5.677 -1.821 0.14
-2.693 5.662 -1.819 0.26
-2.709 5.65 -1.818 0.17
-2.719 5.647 -1.818 0.23
-2.74 5.646 -1.821 0.18
-2.757 5.635 -1.82 0.25
-2.78 5.637 -1.824 0.18
-2.79 5.613 -1.818 0.23
-2.814 5.616 -1.822 0.2
-2.822 5.59 -1.817 0.22
-2.835 5.592 -1.819 0.18
-2.849 5.577 -1.817 0.25
-2.866 5.568 -1.817 0.23
-2.889 5.569 -1.82 0.2
-2.899 5.546 -1.815 0.23
-2.923 5.549 -1.82 0.17
-2.935 5.529 -1.816 0.23
-2.951 5.517 -1.815 0.17
-2.957 5.507 -1.813 0.24
-2.983 5.515 -1.819 0.18
-2.997 5.499 -1.817 0.24
-3.019 5.497 -1.82 0.18
-3.031 5.48 -1.817 0.24
-3.052 5.477 -1.819 0.19
-3.062 5.454 -1.814 0.22
-3.078 5.462 -1.819 0.18
-3.089 5.443 -1.815 0.23
-3.112 5.443 -1.819 0.16
-3.125 5.426 -1.817 0.24
-3.15 5.43 -1.821 0.19
-3.157 5.403 -1.815 0.12
-3.173 5.39 -1.814 0.2
-3.18 5.383 -1.814 0.11
-3.205 5.387 -1.818 0.18
-3.215 5.365 -1.814 0.21
-3.228 5.348 -1.812 0.1
-3.248 5.345 -1.814 0.2
-3.266 5.336 -1.815 0.11
-3.278 5.318 -1.812 0.2
-3.298 5.312 -1.814 0.11
-3.308 5.31 -1.815 0.19
-3.321 5.293 -1.812 0.11
-3.342 5.291 -1.815 0.19
-3.357 5.277 -1.814 0.1
-3.374 5.268 -1.815 0.19
-3.387 5.251 -1.812 0.2
-3.4 5.236 -1.811 0.1
-3.421 5.231 -1.813 0.19
-3.429 5.226 -1.813 0.11
-3.451 5.223 -1.816 0.18
-3.456 5.197 -1.81 0.22
-3.476 5.19 -1.812 0.1
-3.494 5.183 -1.813 0.18
-3.504 5.162 -1.809 0.2
-3.521 5.153 -1.81 0.09
-3.539 5.161 -1.815 0.18
-3.549 5.141 -1.812 0.2
-3.563 5.126 -1.811 0.09
-3.592 5.134 -1.818 0.17
-3.591 5.098 -1.808 0.05
-3.616 5.099 -1.813 0.16
-3.624 5.077 -1.809 0.19
-3.627 5.065 -1.807 0.09
-3.648 5.059 -1.809 0.09
-3.676 5.065 -1.815 0.15
-3.677 5.033 -1.808 0.05
-3.7 5.031 -1.811 0.18
-3.706 5.007 -1.807 0.05
-3.724 4.999 -1.808 0.17
-3.741 4.988 -1.808 0.05
-3.751 4.985 -1.809 0.17
-3.758 4.962 -1.805 0.05
-3.783 4.962 -1.809 0.15
-3.795 4.945 -1.808 0.18
-3.812 4.936 -1.809 0.18
-3.822 4.917 -1.806 0.17
-3.835 4.902 -1.805 0.17
-3.846 4.9 -1.807 0.18
-3.861 4.887 -1.806 0.18
-3.881 4.881 -1.808 0.17
-3.886 4.856 -1.804 0.04
-3.91 4.855 -1.808 0.17
-3.918 4.833 -1.804 0.18
-3.931 4.818 -1.803 0.17
-3.937 4.795 -1.799 0.04
-3.953 4.8 -1.803 0.15
-3.966 4.784 -1.802 0.05
-3.99 4.782 -1.806 0.16
-3.99 4.752 -1.799 0.05
-4.016 4.752 -1.804 0.17
-4.021 4.728 -1.799 0.19
-4.041 4.721 -1.802 0.18
-4.046 4.712 -1.801 0.09
-4.063 4.702 -1.802 0.09
-4.075 4.687 -1.801 0.09
-4.08 4.662 -1.796 0.09
-4.106 4.662 -1.801 0.15
-4.109 4.637 -1.796 0.05
-4.127 4.628 -1.798 0.18
-4.126 4.611 -1.794 0.05
-4.152 4.611 -1.799 0.16
-4.161 4.592 -1.796 0.19
-4.17 4.574 -1.794 0.1
-4.205 4.583 -1.804 0.17
-4.204 4.553 -1.796 0.21
-4.212 4.533 -1.794 0.09
-4.223 4.517 -1.792 0.09
-4.241 4.521 -1.797 0.17
-4.239 4.491 -1.79 0.21
-4.25 4.474 -1.788 0.1
-4.269 4.466 -1.791 0.18
-4.279 4.448 -1.789 0.11
-4.301 4.443 -1.792 0.18
-4.308 4.423 -1.789 0.23
-4.314 4.415 -1.789 0.2
-4.328 4.401 -1.789 0.27
-4.344 4.39 -1.79 0.31
-4.347 4.366 -1.785 0.3
-4.363 4.355 -1.786 0.31
-4.378 4.342 -1.787 0.34
-4.393 4.33 -1.788 0.33
-4.397 4.32 -1.786 0.33
-4.407 4.303 -1.785 0.34
-4.411 4.279 -1.781 0.29
-4.442 4.283 -1.788 0.43
-4.453 4.266 -1.787 0.25
-4.459 4.245 -1.784 0.26
-4.492 4.25 -1.792 0.18
-4.491 4.223 -1.786 0.25
-4.505 4.222 -1.789 0.19
-4.508 4.199 -1.785 0.13
-4.531 4.194 -1.789 0.21
-4.538 4.173 -1.786 0.18
-4.548 4.156 -1.785 0.26
-4.574 4.153 -1.791 0.21
-4.571 4.125 -1.784 0.18
-4.582 4.122 -1.786 0.26
-4.605 4.116 -1.79 0.2
-4.595 4.081 -1.781 0.25
-4.626 4.083 -1.788 0.22
-4.636 4.066 -1.787 0.18
-4.639 4.043 -1.783 0.26
-4.664 4.039 -1.788 0.23
-4.676 4.024 -1.788 0.17
-4.673 4.009 -1.784 0.27
-4.696 4.003 -1.788 0.25
-4.698 3.979 -1.784 0.26
-4.702 3.957 -1.781 0.18
-4.728 3.953 -1.786 0.27
-4.75 3.947 -1.79 0.25
-4.757 3.927 -1.788 0.27
-4.763 3.92 -1.788 0.18
-4.78 3.908 -1.789 0.28
-4.79 3.892 -1.789 0.25
-4.798 3.873 -1.787 0.18
-4.807 3.856 -1.786 0.26
-4.822 3.843 -1.787 0.23
-4.845 3.836 -1.791 0.25
-4.849 3.815 -1.788 0.18
-4.851 3.804 -1.786 0.27
-4.873 3.797 -1.791 0.25
-4.891 3.786 -1.793 0.26
-4.908 3.774 -1.795 0.18
-4.914 3.754 -1.792 0.14
-4.919 3.734 -1.79 0.21
-4.934 3.721 -1.791 0.16
-4.941 3.715 -1.792 0.29
-4.953 3.699 -1.792 0.25
-4.971 3.688 -1.794 0.18
-4.984 3.673 -1.795 0.27
-5.002 3.662 -1.797 0.23
-5.01 3.644 -1.796 0.26
-5.015 3.624 -1.794 0.18
-5.027 3.621 -1.796 0.26
-5.043 3.608 -1.798 0.25
-5.061 3.597 -1.8 0.16
-5.072 3.581 -1.8 0.27
-5.085 3.566 -1.801 0.23
-5.082 3.54 -1.795 0.16
-5.099 3.528 -1.798 0.28
-5.129 3.525 -1.805 0.22
-5.117 3.505 -1.798 0.12
-5.128 3.489 -1.798 0.21
-5.15 3.481 -1.802 0.2
-5.155 3.46 -1.8 0.13
-5.163 3.442 -1.799 0.21
-5.175 3.427 -1.799 0.16
-5.186 3.41 -1.799 0.27
-5.194 3.404 -1.801 0.23
-5.211 3.392 -1.803 0.16
-5.216 3.372 -1.801 0.28
-5.22 3.351 -1.798 0.22
-5.256 3.351 -1.808 0.18
-5.252 3.325 -1.802 0.28
-5.259 3.307 -1.801 0.25
-5.268 3.301 -1.802 0.18
-5.27 3.279 -1.799 0.27
-5.296 3.272 -1.805 0.24
-5.313 3.26 -1.808 0.2
-5.307 3.233 -1.802 0.25
-5.335 3.227 -1.808 0.22
-5.345 3.211 -1.808 0.18
-5.339 3.184 -1.802 0.26
-5.347 3.178 -1.804 0.22
-5.367 3.167 -1.807 0.18
-5.367 3.144 -1.804 0.27
-5.382 3.13 -1.805 0.22
-5.4 3.118 -1.808 0.2
-5.395 3.092 -1.803 0.13
-5.418 3.083 -1.808 0.21
-5.416 3.071 -1.805 0.16
-5.431 3.056 -1.807 0.26
-5.44 3.039 -1.807 0.16
-5.456 3.026 -1.809 0.26
-5.462 3.007 -1.808 0.2
-5.455 2.981 -1.802 0.12
-5.481 2.972 -1.808 0.2
-5.492 2.956 -1.809 0.17
-5.485 2.941 -1.805 0.27
-5.498 2.926 -1.806 0.23
-5.52 2.916 -1.811 0.18
-5.528 2.897 -1.81 0.27
-5.54 2.882 -1.811 0.25
-5.544 2.862 -1.809 0.19
-5.545 2.84 -1.807 0.27
-5.573 2.843 -1.815 0.2
-5.556 2.813 -1.806 0.23
-5.577 2.801 -1.81 0.19
-5.577 2.78 -1.807 0.25
-5.598 2.768 -1.811 0.23
-5.595 2.744 -1.807 0.19
-5.612 2.731 -1.81 0.26
-5.609 2.719 -1.808 0.24
-5.623 2.704 -1.809 0.16
-5.633 2.687 -1.81 0.29
-5.648 2.672 -1.812 0.24
-5.653 2.653 -1.811 0.18
-5.662 2.635 -1.811 0.27
-5.672 2.618 -1.812 0.23
-5.669 2.596 -1.808 0.18
-5.684 2.592 -1.812 0.27
-5.697 2.576 -1.814 0.25
-5.688 2.55 -1.808 0.16
-5.706 2.537 -1.811 0.28
-5.711 2.518 -1.81 0.24
-5.726 2.503 -1.812 0.18
-5.728 2.482 -1.811 0.28
-5.732 2.473 -1.811 0.24
-5.756 2.462 -1.816 0.2
-5.749 2.438 -1.811 0.28
-5.775 2.427 -1.817 0.24
-5.77 2.404 -1.813 0.18
-5.77 2.383 -1.811 0.27
-5.788 2.369 -1.814 0.23
-5.799 2.363 -1.817 0.25
-5.812 2.347 -1.818 0.21
-5.803 2.322 -1.813 0.25
-5.832 2.312 -1.82 0.2
-5.816 2.285 -1.812 0.12
-5.827 2.268 -1.814 0.19
-5.839 2.252 -1.815 0.2
-5.859 2.238 -1.82 0.0
-5.821 2.214 -1.806 0.0
-5.826 2.195 -1.805 0.0
-5.833 2.176 -1.805 0.0
-6.076 1.523 -1.817 0.0
-6.101 1.509 -1.824 0.11
-6.099 1.488 -1.821 0.2
-6.11 1.48 -1.824 0.19
-6.102 1.458 -1.82 0.25
-6.127 1.444 -1.827 0.22
-6.115 1.421 -1.821 0.12
-6.121 1.402 -1.822 0.21
-6.121 1.382 -1.821 0.16
-6.13 1.363 -1.822 0.27
-6.143 1.356 -1.825 0.19
-6.14 1.335 -1.823 0.23
-6.159 1.319 -1.828 0.19
-6.135 1.294 -1.819 0.12
-6.156 1.278 -1.824 0.21
-6.16 1.259 -1.824 0.17
-6.164 1.239 -1.824 0.26
-6.173 1.221 -1.826 0.18
-6.175 1.211 -1.826 0.24
-6.181 1.192 -1.827 0.19
-6.169 1.17 -1.822 0.12
-6.18 1.152 -1.824 0.21
-6.18 1.132 -1.823 0.11
-6.186 1.113 -1.824 0.2
-6.191 1.094 -1.824 0.11
-6.2 1.085 -1.827 0.2
-6.196 1.065 -1.824 0.11
-6.213 1.047 -1.828 0.2
-6.203 1.026 -1.824 0.11
-6.223 1.009 -1.83 0.18
-6.22 0.988 -1.828 0.11
-6.233 0.97 -1.831 0.19
-6.215 0.948 -1.824 0.11
-6.235 0.941 -1.83 0.17
-6.223 0.919 -1.825 0.05
-6.241 0.901 -1.83 0.18
-6.233 0.88 -1.827 0.19
-6.232 0.86 -1.825 0.1
-6.255 0.843 -1.832 0.16
-6.252 0.823 -1.83 0.05
-6.261 0.814 -1.833 0.17
-6.246 0.792 -1.827 0.19
-6.258 0.774 -1.83 0.04
-6.276 0.756 -1.835 0.17
-6.254 0.733 -1.827 0.18
-6.265 0.715 -1.83 0.17
-6.264 0.695 -1.829 0.17
-6.269 0.685 -1.83 0.09
-6.269 0.665 -1.83 0.08
-6.269 0.645 -1.829 0.08
-6.265 0.625 -1.827 0.08
-6.288 0.607 -1.834 0.09
-6.281 0.587 -1.831 0.08
-6.282 0.567 -1.831 0.08
-6.29 0.548 -1.833 0.09
-6.285 0.537 -1.831 0.09
-6.29 0.518 -1.832 0.08
-6.294 0.498 -1.833 0.08
-6.309 0.48 -1.837 0.15
-6.284 0.458 -1.828 0.05
-6.296 0.439 -1.832 0.16
-6.284 0.418 -1.828 0.18
-6.283 0.408 -1.827 0.09
-6.298 0.389 -1.831 0.09
-6.293 0.369 -1.83 0.16
-6.281 0.349 -1.825 0.05
-6.305 0.33 -1.833 0.18
-6.287 0.31 -1.827 0.11
-6.294 0.29 -1.828 0.19
-6.287 0.27 -1.826 0.11
-6.293 0.26 -1.828 0.18
-6.275 0.24 -1.822 0.21
-6.304 0.221 -1.831 0.18
-6.286 0.201 -1.825 0.23
-6.286 0.181 -1.825 0.18
-6.296 0.161 -1.828 0.24
-6.293 0.142 -1.827 0.18
-6.284 0.131 -1.824 0.24
-6.307 0.112 -1.831 0.19
-6.292 0.092 -1.826 0.25
-6.308 0.072 -1.831 0.2
-6.298 0.053 -1.828 0.25
-6.3 0.033 -1.828 0.19
-6.3 0.013 -1.828 0.25
-6.31 0.003 -1.831 0.19
-6.289 -0.017 -1.825 0.13
-6.306 -0.037 -1.83 0.21
-6.321 -0.057 -1.835 0.2
-6.294 -0.076 -1.827 0.25
-6.328 -0.096 -1.837 0.21
-6.318 -0.116 -1.834 0.12
-6.297 -0.126 -1.828 0.2
-6.304 -0.145 -1.83 0.17
-6.296 -0.165 -1.828 0.27
-6.292 -0.185 -1.827 0.19
-6.305 -0.205 -1.831 0.25
-6.3 -0.225 -1.83 0.21
-6.317 -0.245 -1.835 0.17
-6.31 -0.265 -1.833 0.26
-6.308 -0.275 -1.833 0.23
-6.307 -0.294 -1.833 0.2
-6.3 -0.314 -1.831 0.24
-6.316 -0.335 -1.836 0.18
-6.302 -0.354 -1.832 0.25
-6.318 -0.375 -1.837 0.2
-6.294 -0.393 -1.83 0.12
-6.299 -0.403 -1.832 0.21
-6.296 -0.423 -1.831 0.17
-6.292 -0.442 -1.831 0.27
-6.304 -0.463 -1.835 0.2
-6.295 -0.482 -1.833 0.22
-6.313 -0.504 -1.838 0.2
-6.296 -0.522 -1.834 0.12
-6.288 -0.542 -1.832 0.2
-6.29 -0.552 -1.833 0.11
-6.297 -0.572 -1.835 0.2
-6.276 -0.59 -1.83 0.11
-6.29 -0.611 -1.834 0.2
-6.282 -0.631 -1.833 0.11
-6.29 -0.651 -1.835 0.17
-6.265 -0.669 -1.828 0.05
-6.286 -0.681 -1.835 0.17
-6.265 -0.699 -1.83 0.05
-6.278 -0.72 -1.834 0.16
-6.265 -0.738 -1.831 0.05
-6.285 -0.761 -1.838 0.16
-6.277 -0.78 -1.836 0.05
-6.291 -0.802 -1.841 0.16
-6.273 -0.809 -1.836 0.05
-6.278 -0.83 -1.838 0.16
-6.285 -0.851 -1.841 0.18
-6.277 -0.87 -1.84 0.19
-6.274 -0.89 -1.84 0.09
-6.271 -0.91 -1.84 0.09
-6.289 -0.932 -1.846 0.15
-6.259 -0.938 -1.837 0.05
-6.266 -0.959 -1.84 0.17
-6.261 -0.979 -1.84 0.2
-6.257 -0.998 -1.84 0.09
-6.279 -1.022 -1.847 0.16
-6.249 -1.037 -1.839 0.05
-6.244 -1.056 -1.838 0.17
-6.241 -1.076 -1.838 0.2
-6.241 -1.086 -1.839 0.1
-6.237 -1.106 -1.839 0.18
-6.228 -1.124 -1.837 0.11
-6.238 -1.146 -1.841 0.17
-6.225 -1.164 -1.838 0.21
-6.236 -1.187 -1.843 0.18
-6.219 -1.204 -1.839 0.24
-6.227 -1.215 -1.842 0.18
-6.215 -1.233 -1.84 0.25
-6.215 -1.254 -1.841 0.18
-6.202 -1.271 -1.838 0.25
-6.207 -1.293 -1.841 0.23
-6.203 -1.312 -1.841 0.17
-6.208 -1.334 -1.844 0.27
-6.225 -1.348 -1.85 0.2
-6.208 -1.364 -1.846 0.23
-6.205 -1.384 -1.846 0.23
-6.208 -1.405 -1.848 0.18
-6.209 -1.426 -1.85 0.26
-6.216 -1.448 -1.854 0.2
-6.215 -1.469 -1.855 0.25
-6.231 -1.483 -1.861 0.23
-6.24 -1.506 -1.865 0.26
-6.242 -1.527 -1.867 0.28
-6.238 -1.547 -1.867 0.28
-6.236 -1.567 -1.869 0.27
-6.231 -1.587 -1.869 0.26
-6.243 -1.611 -1.874 0.26
-6.245 -1.632 -1.876 0.24
-6.23 -1.639 -1.872 0.18
-6.21 -1.654 -1.867 0.3
-6.162 -1.662 -1.854 0.23
-6.089 -1.663 -1.832 0.18
-6.021 -1.664 -1.812 0.26
-5.986 -1.675 -1.802 0.18
-5.906 -1.672 -1.778 0.24
-5.866 -1.67 -1.766 0.25
-5.847 -1.685 -1.762 0.25
-5.803 -1.692 -1.749 0.12
-5.797 -1.71 -1.749 0.2
-5.788 -1.727 -1.748 0.11
-5.787 -1.746 -1.749 0.18
-5.766 -1.76 -1.744 0.21
-5.78 -1.774 -1.75 0.1
-5.771 -1.791 -1.749 0.09
-5.805 -1.822 -1.762 0.15
-5.814 -1.845 -1.766 0.05
-5.815 -1.865 -1.769 0.0
-5.801 -1.881 -1.766 0.0
-5.798 -1.9 -1.767 0.0
-5.794 -1.919 -1.768 0.0
-5.815 -1.936 -1.775 0.0
-5.814 -1.956 -1.777 0.0
-5.708 -2.585 -1.818 0.0
-5.671 -2.578 -1.807 0.0
-5.672 -2.6 -1.809 0.05
-5.669 -2.62 -1.811 0.15
-5.634 -2.626 -1.802 0.04
-5.624 -2.643 -1.802 0.17
-5.604 -2.655 -1.798 0.19
-5.599 -2.674 -1.799 0.09
-5.597 -2.684 -1.799 0.09
-5.592 -2.703 -1.801 0.09
-5.562 -2.71 -1.794 0.08
-5.55 -2.726 -1.792 0.09
-5.544 -2.744 -1.793 0.18
-5.497 -2.743 -1.78 0.2
-5.461 -2.746 -1.77 0.1
-5.436 -2.755 -1.765 0.18
-5.384 -2.739 -1.748 0.2
-5.341 -2.738 -1.736 0.09
-5.307 -2.742 -1.727 0.09
-5.234 -2.724 -1.705 0.08
-5.165 -2.709 -1.684 0.04
-5.153 -2.723 -1.682 0.0
-5.101 -2.716 -1.667 0.0
-5.092 -2.721 -1.665 0.0
-5.1 -2.746 -1.671 0.0
-5.547 -3.035 -1.835 0.03
-5.578 -3.075 -1.85 0.14
-5.603 -3.112 -1.862 0.16
-5.585 -3.125 -1.859 0.04
-5.515 -3.108 -1.838 0.07
-5.452 -3.084 -1.817 0.04
-5.468 -3.115 -1.826 0.07
-5.535 -3.177 -1.854 0.04
-5.575 -3.223 -1.872 0.15
-5.545 -3.229 -1.864 0.05
-5.515 -3.235 -1.857 0.14
-5.51 -3.255 -1.859 0.04
-5.516 -3.271 -1.863 0.16
-5.534 -3.305 -1.873 0.2
-5.5 -3.308 -1.865 0.16
-5.508 -3.337 -1.872 0.17
-5.512 -3.363 -1.877 0.21
-5.495 -3.376 -1.874 0.24
-5.434 -3.362 -1.856 0.05
-5.424 -3.368 -1.854 0.16
-5.409 -3.382 -1.853 0.05
-5.377 -3.385 -1.845 0.15
-5.373 -3.406 -1.847 0.2
-5.38 -3.434 -1.854 0.21
-5.351 -3.44 -1.847 0.22
-5.34 -3.457 -1.847 0.18
-5.358 -3.492 -1.858 0.1
-5.362 -3.507 -1.861 0.18
-5.366 -3.533 -1.867 0.2
-5.332 -3.535 -1.859 0.09
-5.334 -3.561 -1.863 0.18
-5.341 -3.59 -1.87 0.16
-5.33 -3.607 -1.87 0.28
-5.322 -3.626 -1.872 0.25
-5.313 -3.632 -1.87 0.24
-5.281 -3.635 -1.863 0.18
-5.3 -3.672 -1.874 0.29
-5.294 -3.693 -1.876 0.16
-5.251 -3.688 -1.864 0.27
-5.231 -3.697 -1.861 0.21
-5.193 -3.695 -1.851 0.12
-5.179 -3.697 -1.848 0.21
-5.164 -3.711 -1.847 0.11
-5.142 -3.72 -1.843 0.19
-5.125 -3.732 -1.841 0.11
-5.127 -3.759 -1.846 0.19
-5.116 -3.775 -1.846 0.11
-5.096 -3.785 -1.843 0.17
-5.061 -3.784 -1.834 0.21
-5.074 -3.806 -1.841 0.1
-5.072 -3.83 -1.846 0.19
-5.048 -3.836 -1.841 0.11
-5.048 -3.862 -1.846 0.18
-5.03 -3.873 -1.843 0.21
-5.028 -3.897 -1.847 0.1
-5.04 -3.931 -1.857 0.18
-5.029 -3.936 -1.855 0.05
-5.021 -3.955 -1.857 0.17
-5.011 -3.972 -1.857 0.19
-5.014 -4.001 -1.864 0.16
-5.006 -4.02 -1.866 0.05
-4.983 -4.028 -1.861 0.17
-4.971 -4.043 -1.861 0.11
-4.949 -4.039 -1.856 0.21
-4.918 -4.039 -1.848 0.11
-4.917 -4.064 -1.853 0.17
-4.864 -4.046 -1.837 0.05
-4.853 -4.062 -1.837 0.18
-4.853 -4.089 -1.843 0.21
-4.856 -4.118 -1.849 0.19
-4.827 -4.105 -1.84 0.05
-4.799 -4.108 -1.834 0.16
-4.775 -4.113 -1.829 0.05
-4.781 -4.144 -1.837 0.16
-4.733 -4.129 -1.822 0.18
-4.7 -4.126 -1.814 0.17
-4.696 -4.149 -1.818 0.18
-4.679 -4.147 -1.814 0.17
-4.661 -4.157 -1.811 0.17
-4.646 -4.17 -1.811 0.17
-4.629 -4.181 -1.809 0.18
-4.606 -4.186 -1.805 0.1
-4.594 -4.202 -1.805 0.17
-4.555 -4.193 -1.795 0.23
-4.549 -4.214 -1.798 0.17
-4.529 -4.208 -1.792 0.24
-4.503 -4.21 -1.786 0.18
-4.47 -4.206 -1.778 0.23
-4.451 -4.215 -1.776 0.18
-4.409 -4.201 -1.763 0.23
-4.396 -4.215 -1.763 0.18
-4.351 -4.198 -1.75 0.23
-4.343 -4.203 -1.749 0.18
-4.311 -4.198 -1.741 0.24
-4.298 -4.212 -1.741 0.2
-4.26 -4.201 -1.73 0.12
-4.231 -4.198 -1.723 0.21
-4.193 -4.187 -1.713 0.11
-4.177 -4.197 -1.711 0.17
-4.136 -4.169 -1.696 0.05
-4.116 -4.175 -1.693 0.16
-4.083 -4.167 -1.684 0.05
-4.077 -4.187 -1.687 0.0
-4.038 -4.173 -1.676 0.0
-4.012 -4.172 -1.67 0.0
-4.004 -4.19 -1.672 0.0
-4.009 -4.209 -1.678 0.0
-4.157 -4.421 -1.757 0.0
-4.24 -4.538 -1.801 0.05
-4.247 -4.575 -1.811 0.09
-4.278 -4.638 -1.831 0.18
-4.219 -4.602 -1.811 0.05
-4.18 -4.588 -1.799 0.17
-4.176 -4.599 -1.801 0.13
-4.175 -4.626 -1.807 0.32
-4.15 -4.628 -1.802 0.3
-4.129 -4.634 -1.799 0.19
-4.103 -4.634 -1.794 0.25
-4.09 -4.648 -1.795 0.18
-4.09 -4.679 -1.802 0.24
-4.079 -4.681 -1.8 0.21
-4.034 -4.659 -1.786 0.21
-4.041 -4.696 -1.796 0.16
-4.01 -4.69 -1.788 0.25
-3.995 -4.702 -1.788 0.25
-3.982 -4.716 -1.789 0.16
-3.956 -4.716 -1.783 0.3
-3.942 -4.714 -1.781 0.22
-3.921 -4.719 -1.778 0.16
-3.895 -4.717 -1.772 0.3
-3.882 -4.732 -1.773 0.25
-3.855 -4.729 -1.767 0.2
-3.813 -4.707 -1.753 0.28
-3.809 -4.733 -1.759 0.2
-3.778 -4.725 -1.751 0.23
-3.77 -4.729 -1.75 0.21
-3.775 -4.767 -1.76 0.14
-3.747 -4.762 -1.754 0.31
-3.724 -4.763 -1.75 0.25
-3.703 -4.767 -1.747 0.2
-3.679 -4.767 -1.742 0.13
-3.662 -4.775 -1.741 0.21
-3.654 -4.781 -1.741 0.18
-3.639 -4.793 -1.741 0.27
-3.615 -4.792 -1.736 0.19
-3.58 -4.777 -1.726 0.25
-3.57 -4.794 -1.729 0.23
-3.562 -4.815 -1.732 0.24
-3.537 -4.814 -1.727 0.26
-3.526 -4.814 -1.726 0.31
-3.522 -4.841 -1.731 0.34
-3.488 -4.826 -1.721 0.18
-3.459 -4.816 -1.714 0.28
-3.449 -4.835 -1.717 0.22
-3.454 -4.874 -1.727 0.26
-3.438 -4.885 -1.727 0.29
-3.426 -4.884 -1.725 0.12
-3.421 -4.909 -1.73 0.16
-3.391 -4.899 -1.723 0.21
-3.379 -4.914 -1.724 0.19
-3.351 -4.906 -1.717 0.3
-3.33 -4.909 -1.714 0.25
-3.315 -4.919 -1.714 0.17
-3.308 -4.926 -1.715 0.28
-3.302 -4.951 -1.72 0.25
-3.282 -4.955 -1.718 0.16
-3.248 -4.936 -1.707 0.29
-3.249 -4.972 -1.717 0.23
-3.237 -4.988 -1.719 0.25
-3.228 -5.008 -1.723 0.3
-3.209 -5.014 -1.721 0.2
-3.185 -4.993 -1.711 0.14
-3.163 -4.993 -1.708 0.21
-3.159 -5.022 -1.715 0.15
-3.16 -5.058 -1.724 0.29
-3.14 -5.062 -1.722 0.24
-3.105 -5.04 -1.711 0.18
-3.125 -5.109 -1.732 0.26
-3.129 -5.134 -1.739 0.23
-3.117 -5.152 -1.742 0.2
-3.097 -5.155 -1.74 0.13
-3.097 -5.191 -1.749 0.21
-3.099 -5.232 -1.76 0.15
-3.073 -5.225 -1.755 0.28
-3.036 -5.2 -1.742 0.22
-3.029 -5.206 -1.743 0.11
-3.033 -5.252 -1.756 0.18
-3.003 -5.237 -1.747 0.1
-2.992 -5.256 -1.75 0.18
-2.935 -5.194 -1.725 0.3
-2.927 -5.218 -1.73 0.27
-2.939 -5.279 -1.749 0.26
-2.905 -5.257 -1.737 0.2
-2.872 -5.216 -1.721 0.27
-2.899 -5.304 -1.749 0.17
-2.887 -5.321 -1.752 0.25
-2.859 -5.31 -1.745 0.22
-2.816 -5.27 -1.728 0.27
-2.788 -5.257 -1.72 0.27
-2.787 -5.294 -1.73 0.22
-2.773 -5.289 -1.727 0.13
-2.759 -5.302 -1.729 0.21
-2.735 -5.296 -1.723 0.11
-2.729 -5.326 -1.731 0.18
-2.705 -5.32 -1.726 0.21
-2.696 -5.344 -1.731 0.16
-2.676 -5.347 -1.729 0.24
-2.681 -5.377 -1.738 0.18
-2.665 -5.387 -1.739 0.25
-2.659 -5.419 -1.747 0.21
-2.636 -5.414 -1.742 0.32
-2.601 -5.386 -1.73 0.11
-2.591 -5.408 -1.734 0.17
-2.579 -5.426 -1.738 0.05
-2.571 -5.432 -1.739 0.14
-2.555 -5.442 -1.739 0.23
-2.544 -5.464 -1.744 0.23
-2.51 -5.433 -1.731 0.26
-2.485 -5.424 -1.725 0.24
-2.479 -5.458 -1.734 0.16
-2.475 -5.495 -1.744 0.21
-2.474 -5.515 -1.749 0.05
-2.459 -5.528 -1.751 0.18
-2.453 -5.562 -1.76 0.11
-2.444 -5.591 -1.767 0.2
-2.44 -5.63 -1.778 0.25
-2.412 -5.613 -1.769 0.23
-2.394 -5.619 -1.769 0.26
-2.363 -5.571 -1.752 0.15
-2.345 -5.577 -1.751 0.26
-2.34 -5.614 -1.761 0.2
-2.325 -5.627 -1.763 0.22
-2.297 -5.609 -1.755 0.27
-2.284 -5.629 -1.759 0.19
-2.24 -5.57 -1.737 0.21
-2.238 -5.617 -1.75 0.2
-2.229 -5.62 -1.75 0.3
-2.209 -5.62 -1.747 0.23
-2.184 -5.607 -1.741 0.12
-2.161 -5.6 -1.736 0.18
-2.136 -5.589 -1.73 0.19
-2.13 -5.624 -1.74 0.09
-2.121 -5.654 -1.747 0.18
-2.097 -5.618 -1.734 0.3
-2.067 -5.59 -1.723 0.2
-2.033 -5.552 -1.708 0.16
-2.014 -5.553 -1.707 0.04
-2.004 -5.581 -1.714 0.15
-1.979 -5.565 -1.707 0.05
-1.957 -5.559 -1.703 0.16
-1.954 -5.58 -1.708 0.18
-1.94 -5.595 -1.711 0.09
-1.938 -5.648 -1.727 0.18
-1.91 -5.624 -1.717 0.12
-1.897 -5.644 -1.721 0.19
-1.874 -5.632 -1.716 0.11
-1.855 -5.634 -1.714 0.18
-1.834 -5.629 -1.711 0.1
-1.826 -5.635 -1.712 0.17
-1.803 -5.625 -1.707 0.05
-1.788 -5.64 -1.71 0.17
-1.769 -5.64 -1.708 0.05
-1.753 -5.652 -1.71 0.16
-1.73 -5.64 -1.704 0.19
-1.713 -5.647 -1.705 0.09
-1.705 -5.651 -1.705 0.16
-1.684 -5.646 -1.702 0.05
-1.669 -5.662 -1.705 0.18
-1.647 -5.653 -1.701 0.2
-1.628 -5.652 -1.699 0.1
-1.616 -5.677 -1.705 0.16
-1.591 -5.657 -1.697 0.05
-1.581 -5.657 -1.697 0.18
-1.563 -5.66 -1.696 0.1
-1.546 -5.667 -1.697 0.18
-1.528 -5.674 -1.697 0.11
-1.509 -5.673 -1.695 0.18
-1.488 -5.667 -1.692 0.1
-1.472 -5.679 -1.694 0.18
-1.459 -5.663 -1.688 0.11
-1.443 -5.676 -1.691 0.18
-1.419 -5.655 -1.683 0.2
-1.404 -5.671 -1.687 0.1
-1.387 -5.679 -1.688 0.18
-1.365 -5.666 -1.682 0.2
-1.347 -5.669 -1.682 0.1
-1.339 -5.673 -1.682 0.19
-1.314 -5.645 -1.672 0.2
-1.286 -5.606 -1.659 0.17
-1.281 -5.664 -1.676 0.16
-1.262 -5.667 -1.675 0.05
-1.247 -5.684 -1.679 0.18
-1.225 -5.667 -1.673 0.2
-1.215 -5.663 -1.671 0.1
-1.2 -5.678 -1.675 0.18
-1.18 -5.673 -1.672 0.11
-1.161 -5.671 -1.67 0.19
-1.14 -5.661 -1.666 0.11
-1.127 -5.689 -1.674 0.18
-1.106 -5.672 -1.667 0.21
-1.088 -5.675 -1.667 0.1
-1.079 -5.681 -1.668 0.17
-1.061 -5.679 -1.666 0.21
-1.039 -5.661 -1.66 0.1
-1.021 -5.664 -1.66 0.19
-1.003 -5.662 -1.658 0.2
-0.984 -5.663 -1.658 0.1
-0.969 -5.679 -1.662 0.16
-0.956 -5.655 -1.653 0.05
-0.94 -5.673 -1.658 0.18
-0.922 -5.674 -1.658 0.2
-0.902 -5.665 -1.654 0.1
-0.887 -5.685 -1.659 0.16
-0.866 -5.665 -1.652 0.21
-0.847 -5.656 -1.649 0.1
-0.842 -5.688 -1.658 0.17
-0.819 -5.655 -1.647 0.05
-0.803 -5.667 -1.65 0.17
-0.785 -5.673 -1.651 0.1
-0.769 -5.685 -1.654 0.17
-0.747 -5.653 -1.643 0.05
-0.73 -5.665 -1.646 0.18
-0.721 -5.664 -1.646 0.11
-0.703 -5.67 -1.647 0.18
-0.685 -5.665 -1.645 0.11
-0.668 -5.678 -1.648 0.16
-0.649 -5.671 -1.645 0.21
-0.63 -5.662 -1.642 0.1
-0.613 -5.671 -1.644 0.18
-0.594 -5.658 -1.639 0.19
-0.585 -5.659 -1.639 0.1
-0.568 -5.67 -1.642 0.18
-0.55 -5.662 -1.639 0.2
-0.531 -5.66 -1.638 0.1
-0.514 -5.668 -1.64 0.18
-0.496 -5.661 -1.637 0.2
-0.477 -5.655 -1.635 0.1
-0.47 -5.677 -1.642 0.17
-0.451 -5.656 -1.635 0.05
-0.434 -5.672 -1.639 0.17
-0.415 -5.656 -1.634 0.21
-0.397 -5.663 -1.636 0.1
-0.38 -5.674 -1.639 0.18
-0.361 -5.658 -1.633 0.2
-0.352 -5.653 -1.632 0.1
-0.335 -5.668 -1.636 0.18
-0.317 -5.659 -1.633 0.2
-0.299 -5.666 -1.635 0.1
-0.282 -5.68 -1.639 0.16
-0.263 -5.658 -1.632 0.05
-0.246 -5.67 -1.635 0.16
-0.236 -5.636 -1.624 0.05
-0.219 -5.669 -1.635 0.16
-0.201 -5.647 -1.627 0.05
-0.183 -5.652 -1.629 0.16
-0.165 -5.656 -1.63 0.18
-0.148 -5.658 -1.63 0.09
-0.13 -5.657 -1.63 0.18
-0.112 -5.659 -1.63 0.19
-0.103 -5.659 -1.63 0.1
-0.085 -5.661 -1.631 0.16
-0.068 -5.648 -1.627 0.05
-0.05 -5.662 -1.631 0.16
-0.032 -5.654 -1.629 0.2
-0.014 -5.656 -1.629 0.1
0.004 -5.668 -1.633 0.16
0.012 -5.653 -1.628 0.05
0.03 -5.67 -1.633 0.17
0.048 -5.656 -1.629 0.19
0.065 -5.646 -1.626 0.1
0.084 -5.662 -1.631 0.18
0.101 -5.654 -1.629 0.2
0.11 -5.659 -1.63 0.1
0.128 -5.666 -1.633 0.17
0.146 -5.653 -1.629 0.05
0.163 -5.658 -1.63 0.18
0.181 -5.646 -1.627 0.2
0.199 -5.649 -1.628 0.1
0.217 -5.668 -1.634 0.16
0.234 -5.64 -1.626 0.05
0.243 -5.651 -1.629 0.18
0.261 -5.652 -1.63 0.2
0.279 -5.65 -1.629 0.1
0.298 -5.67 -1.636 0.18
0.314 -5.644 -1.628 0.21
0.332 -5.647 -1.629 0.1
0.352 -5.674 -1.638 0.17
0.359 -5.647 -1.63 0.05
0.378 -5.661 -1.635 0.17
0.394 -5.648 -1.631 0.11
0.414 -5.666 -1.637 0.18
0.43 -5.651 -1.633 0.11
0.449 -5.66 -1.636 0.17
0.465 -5.643 -1.631 0.05
0.476 -5.659 -1.636 0.17
0.493 -5.652 -1.635 0.2
0.511 -5.651 -1.635 0.1
0.529 -5.653 -1.636 0.17
0.546 -5.647 -1.635 0.05
0.564 -5.649 -1.636 0.16
0.581 -5.638 -1.633 0.05
0.592 -5.656 -1.639 0.17
0.609 -5.648 -1.637 0.2
0.626 -5.635 -1.633 0.09
0.645 -5.648 -1.638 0.18
0.663 -5.648 -1.639 0.2
0.681 -5.646 -1.639 0.1
0.701 -5.663 -1.645 0.18
0.708 -5.647 -1.64 0.1
0.727 -5.652 -1.642 0.19
0.743 -5.636 -1.638 0.11
0.763 -5.651 -1.643 0.18
0.779 -5.641 -1.641 0.1
0.802 -5.673 -1.652 0.17
0.816 -5.644 -1.643 0.05
0.835 -5.647 -1.645 0.17
0.842 -5.638 -1.643 0.2
0.862 -5.646 -1.646 0.1
0.88 -5.649 -1.648 0.18
0.897 -5.639 -1.646 0.19
0.914 -5.632 -1.645 0.1
0.936 -5.656 -1.653 0.18
0.951 -5.636 -1.648 0.2
0.955 -5.608 -1.639 0.16
0.979 -5.641 -1.65 0.09
1.0 -5.657 -1.656 0.18
1.015 -5.638 -1.652 0.2
1.034 -5.643 -1.654 0.09
1.057 -5.664 -1.662 0.16
1.07 -5.636 -1.654 0.05
1.082 -5.651 -1.659 0.16
1.1 -5.648 -1.659 0.19
1.118 -5.648 -1.661 0.18
1.135 -5.641 -1.659 0.17
1.151 -5.63 -1.657 0.04
1.173 -5.647 -1.663 0.07
1.189 -5.634 -1.661 0.04
1.203 -5.656 -1.668 0.0
1.216 -5.63 -1.661 0.0
1.235 -5.631 -1.663 0.0
1.251 -5.622 -1.661 0.0
1.272 -5.631 -1.665 0.0
1.288 -5.62 -1.663 0.0
1.311 -5.636 -1.669 0.0
1.329 -5.634 -1.67 0.0
1.337 -5.63 -1.669 0.0
1.358 -5.638 -1.674 0.0
1.372 -5.619 -1.669 0.0
1.397 -5.643 -1.678 0.0
3.108 -4.856 -1.663 0.0
3.202 -4.833 -1.673 0.0
3.192 -4.803 -1.663 0.0
3.225 -4.818 -1.673 0.0
3.238 -4.805 -1.672 0.0
3.243 -4.781 -1.666 0.0
3.265 -4.781 -1.671 0.0
3.282 -4.773 -1.671 0.02
3.28 -4.739 -1.662 0.07
3.276 -4.717 -1.656 0.16
3.307 -4.73 -1.665 0.14
3.334 -4.736 -1.671 0.26
3.347 -4.723 -1.67 0.2
3.365 -4.717 -1.672 0.21
3.399 -4.733 -1.682 0.18
3.424 -4.736 -1.687 0.25
3.413 -4.706 -1.678 0.1
3.42 -4.684 -1.674 0.15
3.454 -4.7 -1.684 0.22
3.494 -4.722 -1.697 0.17
3.479 -4.672 -1.681 0.24
3.509 -4.682 -1.689 0.22
3.52 -4.665 -1.687 0.27
3.547 -4.67 -1.694 0.13
3.562 -4.676 -1.698 0.2
3.568 -4.652 -1.693 0.27
3.598 -4.661 -1.701 0.26
3.596 -4.628 -1.692 0.16
3.611 -4.618 -1.693 0.32
3.657 -4.646 -1.708 0.23
3.677 -4.642 -1.711 0.27
3.682 -4.633 -1.71 0.29
3.691 -4.614 -1.707 0.29
3.692 -4.586 -1.701 0.24
3.716 -4.586 -1.705 0.25
3.739 -4.585 -1.71 0.16
3.729 -4.544 -1.698 0.26
3.764 -4.557 -1.708 0.23
3.802 -4.588 -1.723 0.21
3.815 -4.574 -1.722 0.24
3.854 -4.591 -1.734 0.18
3.841 -4.547 -1.721 0.25
3.858 -4.538 -1.722 0.22
3.891 -4.548 -1.731 0.16
3.911 -4.543 -1.734 0.27
3.886 -4.499 -1.718 0.0
3.876 -4.46 -1.707 0.0
3.837 -4.387 -1.682 0.0
3.66 -4.108 -1.581 0.0
3.651 -4.072 -1.571 0.0
3.676 -4.075 -1.577 0.0
3.682 -4.068 -1.577 0.06
3.702 -4.065 -1.58 0.15
3.732 -4.071 -1.588 0.17
3.75 -4.065 -1.59 0.17
3.778 -4.07 -1.597 0.18
3.803 -4.071 -1.603 0.09
