# .PCD v.7 - Point Cloud Data file format
VERSION .7
FIELDS x y z intensity
SIZE 4 4 4 4
TYPE F F F F
COUNT 1 1 1 1
WIDTH 1875
HEIGHT 1
VIEWPOINT 0 0 0 1 0 0 0
POINTS 1875
DATA ascii
0.737 -9.118 -0.815 0.29
0.751 -9.115 -0.815 0.22
0.779 -9.106 -0.814 0.26
0.807 -9.096 -0.813 0.28
0.837 -9.103 -0.814 0.16
0.867 -9.122 -0.817 0.42
0.902 -9.177 -0.823 0.19
0.913 -9.004 -0.804 0.18
0.927 -9.004 -0.804 0.17
0.945 -8.909 -0.794 0.18
0.981 -8.971 -0.801 0.16
1.639 -14.432 -1.411 0.25
1.685 -14.427 -1.411 0.2
1.727 -14.399 -1.409 0.0
1.772 -14.386 -1.408 0.0
1.149 -9.281 -0.837 0.1
1.84 -14.381 -1.408 0.2
1.886 -14.382 -1.409 0.14
1.815 -13.525 -1.314 0.52
1.835 -13.357 -1.296 0.32
2.019 -14.343 -1.407 0.24
2.062 -14.325 -1.405 0.25
2.082 -14.304 -1.403 0.16
2.131 -14.327 -1.407 0.42
2.132 -14.032 -1.374 0.16
2.216 -14.28 -1.403 0.14
2.123 -13.415 -1.307 0.31
2.207 -13.664 -1.335 0.58
2.315 -14.047 -1.379 0.18
2.323 -13.695 -1.341 0.58
2.459 -14.222 -1.401 0.23
2.489 -14.132 -1.392 0.15
2.422 -13.506 -1.322 0.35
2.593 -14.198 -1.401 0.41
2.55 -13.721 -1.348 0.18
2.582 -13.656 -1.342 0.15
2.568 -13.471 -1.321 0.51
2.635 -13.588 -1.335 0.21
2.792 -14.152 -1.4 0.41
2.836 -14.142 -1.4 0.24
2.881 -14.136 -1.4 0.16
2.804 -13.546 -1.334 0.21
2.848 -13.544 -1.335 0.41
2.886 -13.616 -1.344 0.28
2.877 -13.368 -1.317 0.58
2.938 -13.444 -1.326 0.23
2.999 -13.52 -1.336 0.28
3.019 -13.414 -1.325 0.28
3.035 -13.288 -1.312 0.37
3.091 -13.34 -1.319 0.43
3.137 -13.442 -1.331 0.18
3.174 -13.409 -1.328 0.57
3.252 -13.549 -1.346 0.19
3.229 -13.273 -1.315 0.39
3.269 -13.253 -1.314 0.33
3.452 -13.803 -1.378 0.17
3.413 -13.473 -1.342 0.14
3.421 -13.413 -1.336 0.55
3.513 -13.597 -1.358 0.18
3.521 -13.453 -1.343 0.36
3.569 -13.465 -1.345 0.27
3.597 -13.4 -1.339 0.2
3.646 -13.412 -1.342 0.57
3.809 -13.839 -1.392 0.25
3.771 -13.534 -1.358 0.16
3.742 -13.35 -1.338 0.42
3.819 -13.463 -1.352 0.31
3.905 -13.603 -1.37 0.3
3.941 -13.566 -1.367 0.3
3.965 -13.491 -1.36 0.38
4.057 -13.646 -1.379 0.3
4.082 -13.572 -1.372 0.39
4.079 -13.486 -1.363 0.41
4.115 -13.452 -1.36 0.39
4.155 -13.433 -1.36 0.34
4.191 -13.401 -1.358 0.41
4.215 -13.329 -1.351 0.43
4.259 -13.324 -1.352 0.34
4.327 -13.39 -1.361 0.39
4.345 -13.375 -1.36 0.35
4.381 -13.343 -1.358 0.41
4.42 -13.321 -1.357 0.43
4.446 -13.258 -1.351 0.31
4.53 -13.369 -1.366 0.43
4.573 -13.358 -1.366 0.36
4.651 -13.447 -1.378 0.4
4.67 -13.434 -1.378 0.42
4.697 -13.376 -1.373 0.31
4.771 -13.451 -1.383 0.39
4.789 -13.369 -1.375 0.44
4.837 -13.37 -1.377 0.39
4.882 -13.364 -1.378 0.37
4.933 -13.373 -1.381 0.32
4.969 -13.405 -1.386 0.36
5.029 -13.437 -1.392 0.43
5.068 -13.412 -1.39 0.42
5.112 -13.402 -1.391 0.22
5.143 -13.356 -1.388 0.52
5.204 -13.39 -1.393 0.31
5.257 -13.399 -1.397 0.5
5.278 -13.391 -1.397 0.39
5.321 -13.378 -1.397 0.29
5.366 -13.369 -1.398 0.46
5.404 -13.342 -1.397 0.43
5.47 -13.382 -1.404 0.31
5.511 -13.363 -1.403 0.28
5.567 -13.379 -1.407 0.5
5.596 -13.39 -1.41 0.32
5.647 -13.395 -1.412 0.49
5.704 -13.41 -1.416 0.34
5.74 -13.379 -1.415 0.43
5.796 -13.394 -1.419 0.43
5.847 -13.395 -1.421 0.37
5.892 -13.382 -1.422 0.3
5.935 -13.367 -1.422 0.41
5.952 -13.349 -1.421 0.38
6.002 -13.347 -1.423 0.32
6.051 -13.344 -1.425 0.44
6.095 -13.33 -1.426 0.35
6.137 -13.311 -1.426 0.37
6.183 -13.301 -1.427 0.4
6.229 -13.29 -1.428 0.36
6.257 -13.295 -1.43 0.34
6.311 -13.302 -1.433 0.42
6.356 -13.288 -1.434 0.33
6.398 -13.269 -1.434 0.3
6.436 -13.242 -1.433 0.32
6.481 -13.229 -1.434 0.32
6.515 -13.192 -1.432 0.27
6.529 -13.168 -1.43 0.29
6.56 -13.128 -1.428 0.23
6.609 -13.121 -1.43 0.4
6.66 -13.12 -1.432 0.29
6.701 -13.099 -1.432 0.29
6.744 -13.081 -1.433 0.25
6.778 -13.046 -1.431 0.19
6.803 -13.044 -1.432 0.48
6.84 -13.016 -1.431 0.25
6.891 -13.013 -1.433 0.25
6.937 -13.002 -1.435 0.29
6.98 -12.984 -1.435 0.29
7.023 -12.965 -1.436 0.26
6.543 -11.993 -1.315 0.3
7.083 -12.93 -1.435 0.22
6.539 -11.853 -1.302 0.32
7.17 -12.896 -1.437 0.14
6.38 -11.397 -1.249 0.54
7.212 -12.783 -1.428 0.2
6.757 -11.805 -1.309 0.54
7.369 -12.824 -1.441 0.23
6.662 -11.433 -1.268 0.58
6.736 -11.475 -1.276 0.22
6.969 -11.786 -1.319 0.26
6.994 -11.745 -1.316 0.18
6.906 -11.515 -1.289 0.5
7.483 -12.386 -1.405 0.14
6.977 -11.51 -1.293 0.21
7.168 -11.74 -1.326 0.55
6.454 -10.501 -1.167 0.23
7.305 -11.798 -1.339 0.25
7.286 -11.686 -1.328 0.59
7.395 -11.777 -1.343 0.23
7.414 -11.725 -1.339 0.19
7.46 -11.757 -1.345 0.48
7.395 -11.575 -1.324 0.28
7.559 -11.748 -1.35 0.24
7.56 -11.67 -1.342 0.53
7.632 -11.701 -1.35 0.23
7.623 -11.607 -1.34 0.41
7.683 -11.618 -1.345 0.32
7.688 -11.586 -1.342 0.52
7.794 -11.666 -1.356 0.33
7.827 -11.636 -1.356 0.38
7.849 -11.59 -1.353 0.44
8.011 -11.749 -1.377 0.35
7.944 -11.573 -1.357 0.28
7.693 -11.133 -1.301 0.36
8.07 -11.638 -1.371 0.28
8.072 -11.563 -1.364 0.54
7.952 -11.316 -1.334 0.26
7.987 -11.291 -1.334 0.41
8.047 -11.3 -1.339 0.33
7.768 -10.837 -1.279 0.3
8.278 -11.47 -1.369 0.27
8.356 -11.502 -1.377 0.47
8.378 -11.493 -1.378 0.23
8.432 -11.492 -1.381 0.53
8.433 -11.418 -1.375 0.25
8.499 -11.431 -1.38 0.35
8.56 -11.438 -1.385 0.41
8.569 -11.376 -1.38 0.3
8.595 -11.336 -1.378 0.5
8.512 -11.19 -1.36 0.3
8.693 -11.354 -1.386 0.33
8.726 -11.324 -1.386 0.37
8.421 -10.859 -1.324 0.3
8.615 -11.035 -1.353 0.29
8.759 -11.147 -1.373 0.57
8.767 -11.085 -1.368 0.28
8.663 -10.919 -1.346 0.33
8.87 -11.108 -1.377 0.38
8.77 -10.913 -1.353 0.41
8.838 -10.927 -1.359 0.25
9.012 -11.07 -1.383 0.41
9.069 -11.069 -1.387 0.36
8.934 -10.835 -1.358 0.35
9.126 -11.032 -1.388 0.44
9.092 -10.921 -1.376 0.3
9.093 -10.853 -1.371 0.39
9.225 -10.94 -1.387 0.25
9.092 -10.714 -1.359 0.34
9.374 -10.975 -1.401 0.36
9.1 -10.589 -1.349 0.36
9.32 -10.809 -1.383 0.32
9.221 -10.627 -1.361 0.39
9.181 -10.514 -1.348 0.3
9.461 -10.765 -1.39 0.43
9.537 -10.783 -1.397 0.31
9.177 -10.313 -1.331 0.43
9.101 -10.163 -1.313 0.3
9.501 -10.575 -1.377 0.31
9.49 -10.497 -1.37 0.43
9.472 -10.411 -1.361 0.35
9.532 -10.41 -1.366 0.31
9.763 -10.595 -1.398 0.37
9.678 -10.438 -1.379 0.31
9.756 -10.455 -1.386 0.32
9.804 -10.473 -1.391 0.39
9.797 -10.4 -1.385 0.39
9.801 -10.339 -1.38 0.31
9.899 -10.377 -1.391 0.37
9.975 -10.39 -1.398 0.45
9.937 -10.286 -1.386 0.33
10.011 -10.298 -1.393 0.38
10.052 -10.308 -1.397 0.41
10.144 -10.337 -1.406 0.34
10.127 -10.255 -1.399 0.39
10.171 -10.235 -1.401 0.29
10.209 -10.208 -1.401 0.47
10.208 -10.144 -1.396 0.36
10.284 -10.155 -1.403 0.44
10.303 -10.11 -1.401 0.34
10.342 -10.116 -1.405 0.38
10.358 -10.069 -1.402 0.39
10.376 -10.024 -1.4 0.38
10.414 -9.997 -1.401 0.4
10.524 -10.039 -1.413 0.39
10.508 -9.961 -1.406 0.35
10.432 -9.827 -1.39 0.3
10.53 -9.888 -1.402 0.43
10.564 -9.858 -1.403 0.34
10.608 -9.837 -1.405 0.38
10.552 -9.724 -1.392 0.43
10.595 -9.702 -1.393 0.32
10.628 -9.671 -1.394 0.33
10.626 -9.608 -1.389 0.4
10.629 -9.581 -1.387 0.34
10.661 -9.549 -1.388 0.36
10.64 -9.47 -1.38 0.44
10.765 -9.521 -1.394 0.35
10.8 -9.491 -1.395 0.46
10.822 -9.451 -1.394 0.31
10.909 -9.466 -1.402 0.42
10.958 -9.479 -1.407 0.35
10.953 -9.414 -1.402 0.36
10.928 -9.334 -1.394 0.37
11.035 -9.365 -1.405 0.36
11.076 -9.34 -1.407 0.46
11.119 -9.317 -1.409 0.3
11.11 -9.25 -1.404 0.39
11.12 -9.229 -1.403 0.45
11.103 -9.156 -1.396 0.36
11.172 -9.154 -1.402 0.41
11.244 -9.154 -1.408 0.36
11.245 -9.096 -1.404 0.41
11.341 -9.115 -1.414 0.29
11.353 -9.066 -1.412 0.46
11.373 -9.053 -1.412 0.35
11.45 -9.055 -1.419 0.37
11.513 -9.046 -1.424 0.43
11.554 -9.02 -1.426 0.28
11.538 -8.949 -1.42 0.51
11.621 -8.955 -1.427 0.28
11.654 -8.923 -1.428 0.38
11.711 -8.907 -1.432 0.43
11.63 -8.817 -1.419 0.36
11.784 -8.876 -1.436 0.39
11.776 -8.812 -1.431 0.39
11.808 -8.778 -1.432 0.36
11.832 -8.739 -1.432 0.41
11.901 -8.732 -1.437 0.36
11.919 -8.688 -1.436 0.42
11.996 -8.714 -1.445 0.32
12.003 -8.663 -1.442 0.46
12.094 -8.67 -1.451 0.31
12.135 -8.642 -1.453 0.39
12.211 -8.638 -1.459 0.43
12.273 -8.624 -1.464 0.4
12.314 -8.596 -1.466 0.39
12.328 -8.576 -1.466 0.38
12.402 -8.57 -1.472 0.41
12.442 -8.54 -1.474 0.3
12.479 -8.508 -1.475 0.46
12.54 -8.492 -1.48 0.3
12.56 -8.448 -1.479 0.39
12.596 -8.415 -1.48 0.31
12.623 -8.404 -1.482 0.38
12.677 -8.383 -1.486 0.31
12.757 -8.378 -1.493 0.39
12.783 -8.338 -1.493 0.34
12.808 -8.296 -1.493 0.37
12.715 -8.18 -1.477 0.22
12.64 -8.076 -1.464 0.39
12.676 -8.071 -1.467 0.33
12.733 -8.051 -1.471 0.26
12.824 -8.052 -1.48 0.29
12.931 -8.062 -1.49 0.32
13.01 -8.055 -1.497 0.3
13.117 -8.064 -1.508 0.29
13.193 -8.054 -1.515 0.29
13.251 -8.061 -1.52 0.18
13.367 -8.074 -1.532 0.47
13.454 -8.068 -1.54 0.25
13.551 -8.068 -1.549 0.28
13.662 -8.076 -1.56 0.25
13.738 -8.063 -1.567 0.22
13.738 -8.005 -1.564 0.34
13.791 -7.978 -1.567 0.32
13.908 -8.017 -1.581 0.31
13.964 -7.991 -1.585 0.29
14.021 -7.964 -1.589 0.32
14.035 -7.914 -1.587 0.33
13.945 -7.806 -1.573 0.0
14.112 -7.842 -1.591 0.0
13.179 -7.271 -1.47 0.12
13.248 -7.281 -1.477 0.14
13.361 -7.289 -1.488 0.38
13.456 -7.286 -1.497 0.22
13.593 -7.304 -1.512 0.17
13.716 -7.315 -1.524 0.39
13.814 -7.312 -1.534 0.23
13.929 -7.316 -1.545 0.19
14.026 -7.339 -1.556 0.39
14.131 -7.337 -1.566 0.2
14.223 -7.328 -1.575 0.38
14.219 -7.27 -1.571 0.18
14.318 -7.264 -1.581 0.35
14.503 -7.3 -1.601 0.2
14.582 -7.283 -1.608 0.3
14.592 -7.259 -1.608 0.21
14.658 -7.234 -1.613 0.34
14.744 -7.219 -1.621 0.23
14.832 -7.204 -1.629 0.38
14.816 -7.139 -1.624 0.22
14.819 -7.083 -1.622 0.23
14.841 -7.037 -1.622 0.15
14.856 -7.015 -1.622 0.47
14.874 -6.967 -1.622 0.23
14.858 -6.902 -1.617 0.27
14.853 -6.843 -1.614 0.27
14.865 -6.792 -1.613 0.15
14.899 -6.751 -1.614 0.43
14.931 -6.709 -1.616 0.21
14.945 -6.659 -1.615 0.25
14.944 -6.631 -1.614 0.21
14.963 -6.583 -1.613 0.22
14.969 -6.53 -1.612 0.21
14.979 -6.478 -1.61 0.0
15.127 -6.486 -1.626 0.0
13.6 -5.783 -1.439 0.06
13.717 -5.782 -1.451 0.14
13.827 -5.803 -1.463 0.29
14.0 -5.823 -1.482 0.2
14.143 -5.83 -1.497 0.19
14.277 -5.833 -1.511 0.21
14.395 -5.828 -1.523 0.2
14.541 -5.834 -1.538 0.22
14.67 -5.832 -1.551 0.18
14.749 -5.837 -1.559 0.13
14.827 -5.814 -1.567 0.17
14.845 -5.767 -1.567 0.12
14.936 -5.748 -1.575 0.17
14.944 -5.698 -1.574 0.21
14.964 -5.651 -1.574 0.18
14.985 -5.606 -1.575 0.21
14.976 -5.575 -1.573 0.17
14.971 -5.52 -1.57 0.13
14.977 -5.469 -1.569 0.17
14.943 -5.404 -1.563 0.22
14.904 -5.337 -1.556 0.2
14.851 -5.265 -1.548 0.21
14.926 -5.239 -1.555 0.19
14.897 -5.202 -1.55 0.26
14.945 -5.167 -1.554 0.25
15.036 -5.145 -1.563 0.32
15.022 -5.088 -1.559 0.24
15.121 -5.068 -1.569 0.38
15.163 -5.029 -1.572 0.28
15.196 -4.987 -1.574 0.32
15.323 -5.002 -1.588 0.23
15.365 -4.962 -1.591 0.44
15.47 -4.942 -1.601 0.25
15.533 -4.909 -1.607 0.27
15.599 -4.876 -1.613 0.34
15.726 -4.861 -1.626 0.23
15.803 -4.83 -1.633 0.22
15.776 -4.795 -1.629 0.5
15.814 -4.752 -1.632 0.23
15.712 -4.668 -1.618 0.0
14.731 -4.278 -1.502 0.19
14.932 -4.285 -1.523 0.16
15.217 -4.315 -1.554 0.41
15.404 -4.315 -1.574 0.22
15.614 -4.347 -1.598 0.23
15.651 -4.305 -1.601 0.2
15.611 -4.241 -1.594 0.2
16.104 -4.32 -1.649 0.18
16.171 -4.283 -1.656 0.54
16.137 -4.22 -1.65 0.2
16.223 -4.188 -1.658 0.3
16.193 -4.153 -1.654 0.29
16.138 -4.085 -1.647 0.21
16.215 -4.051 -1.654 0.28
16.22 -3.998 -1.653 0.24
16.178 -3.934 -1.647 0.26
16.175 -3.879 -1.645 0.33
16.129 -3.815 -1.638 0.27
16.154 -3.794 -1.641 0.23
16.197 -3.75 -1.644 0.41
16.263 -3.712 -1.65 0.3
16.283 -3.662 -1.651 0.27
16.304 -3.613 -1.652 0.31
16.274 -3.553 -1.648 0.25
16.283 -3.501 -1.647 0.36
16.322 -3.483 -1.651 0.26
16.292 -3.423 -1.647 0.34
16.291 -3.369 -1.645 0.21
16.29 -3.316 -1.644 0.3
16.267 -3.258 -1.64 0.18
16.162 -3.185 -1.627 0.28
16.08 -3.116 -1.617 0.0
16.207 -3.088 -1.63 0.0
14.787 -2.796 -1.469 0.08
15.128 -2.81 -1.507 0.16
15.534 -2.834 -1.552 0.22
15.803 -2.832 -1.581 0.2
15.658 -2.755 -1.563 0.27
15.888 -2.744 -1.588 0.24
16.063 -2.722 -1.607 0.28
16.04 -2.692 -1.604 0.31
15.999 -2.634 -1.599 0.29
16.011 -2.584 -1.599 0.29
15.952 -2.523 -1.591 0.33
15.95 -2.472 -1.59 0.23
15.919 -2.416 -1.586 0.18
15.903 -2.362 -1.583 0.38
15.851 -2.329 -1.577 0.32
15.892 -2.284 -1.581 0.27
15.822 -2.224 -1.572 0.36
15.721 -2.159 -1.56 0.3
15.743 -2.112 -1.562 0.26
15.764 -2.064 -1.563 0.35
15.721 -2.008 -1.558 0.27
15.828 -1.997 -1.57 0.24
15.7 -1.931 -1.555 0.47
15.649 -1.875 -1.548 0.25
15.659 -1.826 -1.549 0.26
15.72 -1.783 -1.555 0.27
16.188 -1.784 -1.606 0.15
16.431 -1.758 -1.633 0.32
16.439 -1.733 -1.634 0.48
16.454 -1.682 -1.635 0.25
16.559 -1.64 -1.646 0.42
16.451 -1.577 -1.633 0.24
16.44 -1.524 -1.631 0.26
16.433 -1.471 -1.63 0.18
16.392 -1.416 -1.625 0.4
16.408 -1.391 -1.627 0.21
16.404 -1.339 -1.626 0.24
16.412 -1.288 -1.626 0.21
16.418 -1.236 -1.626 0.23
16.43 -1.185 -1.627 0.2
16.436 -1.134 -1.627 0.21
16.451 -1.083 -1.629 0.18
16.437 -1.056 -1.627 0.32
16.436 -1.004 -1.627 0.2
16.437 -0.953 -1.626 0.17
16.416 -0.9 -1.624 0.31
16.419 -0.848 -1.624 0.17
16.406 -0.796 -1.622 0.36
16.396 -0.744 -1.621 0.18
16.377 -0.691 -1.618 0.36
16.354 -0.665 -1.615 0.22
16.352 -0.613 -1.615 0.17
16.336 -0.561 -1.613 0.39
16.327 -0.51 -1.612 0.25
16.335 -0.458 -1.613 0.23
16.328 -0.407 -1.612 0.18
16.324 -0.356 -1.611 0.43
16.324 -0.33 -1.611 0.23
16.307 -0.278 -1.609 0.16
16.296 -0.227 -1.608 0.43
16.289 -0.176 -1.607 0.24
16.279 -0.124 -1.606 0.18
16.272 -0.073 -1.605 0.41
16.256 -0.022 -1.603 0.24
15.419 0.003 -1.605 0.25
15.411 0.051 -1.604 0.18
15.421 0.076 -1.605 0.43
15.416 0.124 -1.605 0.22
15.43 0.172 -1.607 0.18
15.441 0.221 -1.608 0.39
15.458 0.27 -1.61 0.19
15.461 0.319 -1.611 0.25
15.466 0.367 -1.611 0.2
15.481 0.416 -1.613 0.23
15.494 0.441 -1.615 0.18
15.485 0.489 -1.614 0.32
15.491 0.538 -1.615 0.19
15.477 0.586 -1.613 0.34
15.485 0.636 -1.614 0.19
15.461 0.683 -1.612 0.32
15.459 0.732 -1.612 0.2
15.446 0.756 -1.611 0.24
15.447 0.804 -1.611 0.21
15.443 0.853 -1.611 0.19
15.406 0.899 -1.607 0.39
15.413 0.948 -1.608 0.22
15.385 0.995 -1.605 0.16
15.354 1.042 -1.602 0.34
15.35 1.066 -1.601 0.32
15.329 1.112 -1.599 0.5
15.323 1.16 -1.599 0.27
15.304 1.207 -1.597 0.28
15.304 1.256 -1.598 0.28
15.3 1.304 -1.598 0.27
15.298 1.352 -1.598 0.28
15.291 1.376 -1.597 0.27
15.299 1.425 -1.599 0.27
15.294 1.473 -1.599 0.27
15.282 1.52 -1.598 0.26
15.279 1.568 -1.598 0.28
15.266 1.616 -1.597 0.26
15.261 1.664 -1.597 0.27
15.252 1.711 -1.597 0.26
15.257 1.736 -1.598 0.28
15.249 1.784 -1.597 0.28
15.226 1.829 -1.595 0.26
15.224 1.878 -1.596 0.27
15.208 1.924 -1.595 0.27
15.216 1.974 -1.596 0.25
15.194 2.019 -1.594 0.29
15.187 2.043 -1.594 0.28
15.18 2.091 -1.594 0.28
15.183 2.14 -1.595 0.27
15.169 2.186 -1.594 0.28
15.158 2.233 -1.594 0.28
15.143 2.28 -1.593 0.29
15.138 2.328 -1.593 0.3
15.128 2.35 -1.592 0.28
15.117 2.397 -1.592 0.28
15.103 2.444 -1.591 0.3
15.107 2.493 -1.593 0.29
15.097 2.54 -1.592 0.27
15.06 2.583 -1.589 0.3
15.071 2.633 -1.591 0.27
15.049 2.654 -1.589 0.3
15.039 2.701 -1.589 0.29
15.031 2.748 -1.589 0.29
15.032 2.797 -1.59 0.24
15.027 2.845 -1.591 0.29
15.008 2.89 -1.589 0.3
14.983 2.935 -1.587 0.28
14.98 2.958 -1.588 0.26
14.969 3.005 -1.587 0.29
14.958 3.052 -1.587 0.29
14.948 3.099 -1.587 0.28
14.944 3.147 -1.588 0.29
14.932 3.193 -1.588 0.27
14.918 3.239 -1.587 0.28
14.906 3.286 -1.587 0.27
14.897 3.308 -1.587 0.27
14.883 3.354 -1.586 0.3
14.876 3.402 -1.587 0.26
14.853 3.446 -1.585 0.3
14.846 3.494 -1.586 0.25
14.83 3.539 -1.585 0.28
14.824 3.587 -1.586 0.28
14.801 3.606 -1.584 0.29
14.784 3.651 -1.583 0.27
14.77 3.697 -1.583 0.29
14.749 3.741 -1.581 0.29
14.728 3.785 -1.58 0.28
14.716 3.831 -1.58 0.29
14.694 3.875 -1.579 0.28
14.674 3.894 -1.577 0.3
14.664 3.941 -1.578 0.28
14.661 3.989 -1.579 0.26
14.683 4.045 -1.583 0.25
14.651 4.086 -1.581 0.21
14.638 4.132 -1.581 0.33
14.64 4.182 -1.583 0.28
14.584 4.191 -1.577 0.54
14.687 4.27 -1.591 0.21
14.68 4.318 -1.591 0.25
14.685 4.37 -1.594 0.2
14.707 4.427 -1.598 0.23
14.707 4.477 -1.6 0.2
14.725 4.533 -1.604 0.22
14.746 4.565 -1.607 0.17
14.738 4.613 -1.608 0.13
14.734 4.663 -1.609 0.17
14.739 4.715 -1.612 0.29
14.731 4.764 -1.613 0.19
14.724 4.812 -1.614 0.18
14.714 4.861 -1.614 0.29
14.712 4.911 -1.616 0.21
14.712 4.937 -1.617 0.18
14.704 4.986 -1.618 0.34
14.675 5.027 -1.616 0.18
14.685 5.082 -1.619 0.38
14.675 5.13 -1.62 0.23
14.67 5.18 -1.621 0.18
14.676 5.234 -1.624 0.39
14.681 5.262 -1.626 0.23
14.672 5.311 -1.627 0.16
14.67 5.362 -1.629 0.43
14.668 5.414 -1.631 0.25
14.66 5.464 -1.632 0.21
14.671 5.52 -1.635 0.38
14.659 5.568 -1.636 0.18
14.673 5.6 -1.639 0.35
14.673 5.653 -1.641 0.22
14.667 5.703 -1.642 0.2
14.66 5.754 -1.644 0.26
14.655 5.805 -1.645 0.21
14.658 5.86 -1.648 0.22
14.647 5.909 -1.649 0.19
14.666 5.943 -1.653 0.21
14.651 5.99 -1.653 0.18
14.652 6.044 -1.656 0.12
14.651 6.098 -1.658 0.17
14.636 6.146 -1.658 0.12
14.646 6.204 -1.662 0.16
14.637 6.255 -1.664 0.29
14.644 6.285 -1.666 0.19
14.629 6.333 -1.666 0.18
14.62 6.384 -1.668 0.21
14.618 6.437 -1.67 0.18
14.603 6.486 -1.671 0.31
14.592 6.536 -1.672 0.2
14.597 6.593 -1.675 0.18
14.596 6.62 -1.676 0.33
14.586 6.671 -1.678 0.18
14.583 6.725 -1.68 0.36
14.57 6.775 -1.681 0.19
14.558 6.825 -1.682 0.26
14.536 6.87 -1.682 0.21
14.52 6.918 -1.683 0.18
14.529 6.979 -1.687 0.41
14.525 7.005 -1.688 0.24
14.524 7.061 -1.691 0.19
14.511 7.111 -1.692 0.27
14.501 7.163 -1.694 0.4
14.487 7.212 -1.695 0.38
14.495 7.273 -1.699 0.27
14.495 7.33 -1.702 0.26
14.507 7.365 -1.705 0.27
14.49 7.414 -1.706 0.27
14.492 7.472 -1.709 0.27
14.495 7.531 -1.712 0.29
14.473 7.578 -1.713 0.28
14.461 7.629 -1.714 0.27
14.449 7.681 -1.716 0.26
14.446 7.709 -1.717 0.27
14.429 7.758 -1.718 0.26
14.42 7.812 -1.72 0.27
14.406 7.862 -1.721 0.27
14.385 7.91 -1.722 0.27
14.372 7.961 -1.724 0.27
14.361 8.014 -1.725 0.27
14.355 8.041 -1.726 0.27
14.344 8.094 -1.728 0.26
14.348 8.155 -1.732 0.25
14.308 8.192 -1.73 0.18
14.317 8.257 -1.735 0.45
14.306 8.311 -1.737 0.25
14.306 8.371 -1.74 0.26
14.303 8.399 -1.742 0.27
14.295 8.455 -1.744 0.26
14.279 8.506 -1.746 0.27
14.266 8.559 -1.748 0.25
14.251 8.611 -1.749 0.26
14.229 8.659 -1.75 0.2
14.235 8.724 -1.755 0.41
14.228 8.782 -1.757 0.25
14.224 8.81 -1.759 0.27
14.217 8.867 -1.762 0.24
14.199 8.918 -1.763 0.19
14.183 8.97 -1.765 0.44
14.171 9.026 -1.767 0.25
14.165 9.084 -1.77 0.26
14.159 9.143 -1.773 0.28
14.153 9.171 -1.774 0.27
14.138 9.224 -1.776 0.26
14.125 9.279 -1.779 0.28
14.104 9.329 -1.78 0.29
14.088 9.382 -1.782 0.28
14.079 9.44 -1.784 0.28
14.072 9.499 -1.788 0.29
14.08 9.537 -1.791 0.27
14.053 9.583 -1.791 0.3
14.048 9.644 -1.795 0.26
14.04 9.704 -1.798 0.28
14.046 9.773 -1.803 0.23
14.07 9.856 -1.811 0.31
14.085 9.932 -1.818 0.21
14.069 9.954 -1.818 0.29
14.009 9.978 -1.813 0.3
13.956 10.007 -1.81 0.48
13.899 10.032 -1.807 0.42
13.832 10.05 -1.802 0.31
13.754 10.059 -1.795 0.28
13.667 10.062 -1.787 0.3
13.612 10.054 -1.781 0.26
13.535 10.064 -1.775 0.31
13.461 10.074 -1.768 0.32
13.424 10.113 -1.768 0.28
13.396 10.158 -1.768 0.27
13.378 10.211 -1.77 0.27
13.368 10.269 -1.773 0.27
13.345 10.319 -1.775 0.2
13.338 10.347 -1.776 0.29
13.294 10.38 -1.775 0.0
10.552 8.299 -1.372 0.0
10.471 8.289 -1.364 0.0
10.375 8.266 -1.353 0.03
10.368 8.314 -1.356 0.14
10.225 8.253 -1.338 0.09
10.186 8.248 -1.335 0.17
10.143 8.266 -1.332 0.24
10.089 8.275 -1.328 0.23
10.034 8.283 -1.323 0.12
9.964 8.278 -1.317 0.0
9.883 8.263 -1.308 0.0
9.84 8.28 -1.306 0.0
9.807 8.279 -1.303 0.0
9.057 8.225 -1.232 0.0
9.006 8.231 -1.229 0.0
8.939 8.222 -1.222 0.0
8.909 8.22 -1.219 0.0
8.865 8.231 -1.216 0.0
8.788 8.212 -1.208 0.0
8.742 8.22 -1.205 0.0
8.695 8.227 -1.202 0.0
8.639 8.226 -1.197 0.0
8.587 8.228 -1.192 0.0
8.555 8.224 -1.189 0.0
8.508 8.23 -1.186 0.0
8.465 8.24 -1.183 0.0
8.422 8.25 -1.18 0.0
7.786 8.278 -1.131 0.0
7.475 8.281 -1.106 0.0
7.425 8.278 -1.102 0.0
7.381 8.28 -1.099 0.0
7.344 8.292 -1.097 0.0
6.997 8.365 -1.077 0.12
6.958 8.372 -1.075 0.23
6.922 8.383 -1.073 0.18
6.89 8.397 -1.072 0.0
6.877 8.436 -1.074 0.0
6.857 8.465 -1.076 0.0
6.828 8.483 -1.075 0.0
6.818 8.499 -1.076 0.0
6.766 9.546 -1.17 0.0
9.626 13.698 -1.76 0.18
9.575 13.717 -1.758 0.28
9.534 13.75 -1.759 0.28
9.49 13.778 -1.759 0.31
9.444 13.805 -1.758 0.29
9.398 13.831 -1.758 0.27
9.359 13.867 -1.759 0.32
9.323 13.86 -1.756 0.29
9.286 13.899 -1.757 0.27
9.252 13.943 -1.759 0.27
9.203 13.964 -1.758 0.3
9.159 13.993 -1.758 0.28
9.117 14.025 -1.758 0.28
9.073 14.053 -1.758 0.27
9.051 14.068 -1.758 0.27
9.018 14.113 -1.761 0.26
8.984 14.158 -1.763 0.26
8.947 14.198 -1.765 0.32
8.914 14.244 -1.767 0.32
8.874 14.281 -1.768 0.26
8.834 14.317 -1.77 0.33
8.822 14.348 -1.772 0.29
8.779 14.379 -1.772 0.21
8.73 14.399 -1.771 0.35
8.668 14.399 -1.768 0.27
8.616 14.415 -1.766 0.39
8.566 14.435 -1.765 0.29
8.509 14.441 -1.762 0.42
8.461 14.463 -1.762 0.32
8.434 14.469 -1.761 0.34
8.38 14.482 -1.759 0.28
8.334 14.506 -1.759 0.29
8.277 14.514 -1.756 0.29
8.235 14.545 -1.757 0.31
8.184 14.562 -1.756 0.29
8.146 14.601 -1.757 0.32
8.122 14.612 -1.757 0.28
8.077 14.639 -1.757 0.3
8.048 14.696 -1.762 0.27
8.0 14.718 -1.761 0.27
7.958 14.75 -1.762 0.28
7.909 14.771 -1.762 0.27
7.859 14.789 -1.761 0.28
7.81 14.808 -1.76 0.31
7.787 14.821 -1.76 0.31
7.738 14.842 -1.76 0.28
7.692 14.868 -1.76 0.25
7.65 14.9 -1.761 0.27
7.596 14.91 -1.759 0.3
7.557 14.948 -1.761 0.27
7.505 14.963 -1.76 0.28
7.486 14.984 -1.761 0.27
7.437 15.004 -1.76 0.31
7.388 15.023 -1.76 0.26
7.337 15.038 -1.759 0.36
7.3 15.082 -1.762 0.26
7.254 15.108 -1.762 0.21
7.201 15.119 -1.76 0.49
7.17 15.116 -1.759 0.24
7.133 15.16 -1.761 0.24
7.091 15.194 -1.763 0.31
7.055 15.242 -1.766 0.26
7.021 15.295 -1.77 0.22
7.003 15.383 -1.779 0.24
6.965 15.427 -1.782 0.32
6.94 15.436 -1.781 0.39
6.882 15.436 -1.779 0.4
6.852 15.501 -1.784 0.28
6.819 15.557 -1.789 0.44
6.78 15.602 -1.792 0.33
6.72 15.598 -1.788 0.34
6.667 15.61 -1.787 0.37
6.603 15.594 -1.783 0.28
6.572 15.59 -1.781 0.2
5.866 14.046 -1.582 0.29
5.812 14.041 -1.579 0.33
5.769 14.061 -1.579 0.42
5.717 14.06 -1.577 0.32
5.687 14.113 -1.581 0.33
5.641 14.126 -1.581 0.41
5.596 14.079 -1.574 0.35
5.551 14.093 -1.573 0.36
5.505 14.107 -1.573 0.37
5.468 14.142 -1.575 0.34
5.393 14.082 -1.565 0.4
5.367 14.147 -1.571 0.31
5.284 14.059 -1.558 0.33
5.251 14.04 -1.555 0.42
5.228 14.114 -1.562 0.2
5.213 14.209 -1.572 0.62
5.115 14.079 -1.554 0.2
5.045 14.024 -1.545 0.52
5.04 14.149 -1.558 0.29
4.954 14.048 -1.544 0.27
4.913 14.071 -1.545 0.38
4.886 14.066 -1.543 0.34
4.839 14.072 -1.542 0.44
4.78 14.044 -1.537 0.32
4.736 14.059 -1.537 0.47
4.706 14.117 -1.542 0.41
4.67 14.158 -1.545 0.34
4.623 14.163 -1.544 0.33
4.619 14.227 -1.551 0.32
4.551 14.17 -1.542 0.46
4.539 14.286 -1.555 0.3
4.355 13.859 -1.501 0.37
4.306 13.857 -1.499 0.42
4.263 13.873 -1.499 0.34
4.209 13.852 -1.495 0.32
4.203 13.988 -1.51 0.58
4.272 14.296 -1.547 0.0
2.684 9.118 -0.913 0.0
2.412 8.399 -0.823 0.2
2.381 8.389 -0.821 0.32
2.355 8.398 -0.821 0.33
2.325 8.391 -0.82 0.35
2.309 8.385 -0.818 0.33
2.281 8.386 -0.818 0.32
2.252 8.384 -0.817 0.38
2.223 8.381 -0.815 0.31
2.199 8.398 -0.817 0.37
2.167 8.383 -0.814 0.3
2.14 8.388 -0.814 0.37
2.112 8.389 -0.813 0.3
2.096 8.379 -0.811 0.32
2.07 8.387 -0.812 0.33
2.041 8.382 -0.81 0.3
2.013 8.381 -0.809 0.39
1.985 8.383 -0.809 0.32
1.958 8.386 -0.808 0.32
1.93 8.386 -0.808 0.37
1.916 8.385 -0.807 0.3
1.886 8.376 -0.805 0.36
1.859 8.376 -0.805 0.34
1.832 8.378 -0.804 0.36
1.804 8.376 -0.803 0.34
1.778 8.385 -0.804 0.26
1.717 8.227 -0.784 0.0
1.728 8.345 -0.798 0.0
1.699 8.335 -0.796 0.0
1.671 8.33 -0.795 0.0
1.644 8.333 -0.795 0.0
1.616 8.329 -0.794 0.0
1.591 8.34 -0.794 0.0
1.561 8.323 -0.792 0.0
1.536 8.334 -0.792 0.0
1.521 8.327 -0.791 0.0
1.493 8.325 -0.79 0.0
1.466 8.32 -0.789 0.0
1.439 8.323 -0.789 0.0
1.414 8.335 -0.79 0.0
1.385 8.324 -0.788 0.0
1.358 8.32 -0.787 0.0
1.345 8.322 -0.787 0.0
1.319 8.331 -0.788 0.0
1.292 8.325 -0.787 0.0
1.265 8.323 -0.786 0.0
1.239 8.333 -0.787 0.0
1.213 8.337 -0.787 0.0
1.186 8.335 -0.786 0.07
1.162 8.356 -0.788 0.13
1.15 8.36 -0.788 0.16
1.122 8.355 -0.787 0.2
1.096 8.363 -0.788 0.23
1.07 8.362 -0.787 0.27
1.043 8.362 -0.787 0.31
1.017 8.367 -0.787 0.31
0.99 8.366 -0.787 0.33
0.977 8.368 -0.787 0.33
0.95 8.367 -0.786 0.35
0.924 8.37 -0.786 0.35
0.897 8.363 -0.785 0.34
0.87 8.362 -0.784 0.36
0.844 8.364 -0.784 0.34
0.817 8.367 -0.784 0.34
0.804 8.366 -0.784 0.35
0.778 8.375 -0.785 0.33
0.751 8.369 -0.784 0.34
0.725 8.371 -0.784 0.35
0.698 8.368 -0.783 0.33
0.671 8.366 -0.783 0.35
0.645 8.368 -0.783 0.32
0.619 8.366 -0.782 0.34
0.606 8.375 -0.783 0.23
0.579 8.373 -0.783 0.56
0.553 8.371 -0.782 0.26
0.527 8.372 -0.782 0.27
0.499 8.36 -0.781 0.36
0.473 8.367 -0.781 0.33
0.447 8.361 -0.78 0.46
0.434 8.362 -0.78 0.41
0.408 8.369 -0.781 0.32
0.381 8.372 -0.781 0.37
0.355 8.365 -0.78 0.32
0.328 8.366 -0.78 0.39
0.302 8.365 -0.78 0.26
0.276 8.362 -0.78 0.38
0.262 8.359 -0.779 0.32
0.236 8.366 -0.78 0.29
0.211 8.394 -0.783 0.2
0.184 8.377 -0.781 0.52
0.158 8.385 -0.782 0.36
0.131 8.382 -0.782 0.39
0.105 8.37 -0.78 0.43
0.079 8.39 -0.783 0.3
0.065 8.373 -0.78 0.68
0.039 8.389 -0.782 0.34
0.013 8.391 -0.783 0.49
-0.013 8.375 -0.781 0.69
-0.04 8.381 -0.781 0.33
-0.066 8.371 -0.78 0.45
-0.092 8.362 -0.779 0.45
-0.106 8.392 -0.783 0.26
-0.132 8.372 -0.78 0.48
-0.158 8.385 -0.782 0.31
-0.185 8.379 -0.781 0.57
-0.211 8.368 -0.78 0.51
-0.237 8.362 -0.78 0.34
-0.263 8.361 -0.78 0.33
-0.289 8.36 -0.78 0.43
-0.303 8.361 -0.78 0.34
-0.329 8.37 -0.781 0.36
-0.355 8.367 -0.781 0.36
-0.382 8.368 -0.781 0.48
-0.435 8.381 -0.783 0.62
-0.46 8.36 -0.78 0.44
-0.474 8.367 -0.781 0.41
-0.5 8.366 -0.781 0.31
-0.526 8.364 -0.781 0.47
-0.553 8.365 -0.782 0.3
-0.579 8.365 -0.782 0.33
-0.606 8.375 -0.783 0.36
-0.633 8.375 -0.784 0.35
-0.646 8.372 -0.783 0.34
-0.672 8.374 -0.784 0.38
-0.699 8.377 -0.784 0.32
-0.725 8.373 -0.784 0.36
-0.752 8.373 -0.784 0.3
-0.779 8.376 -0.785 0.36
-0.806 8.38 -0.786 0.31
-0.832 8.381 -0.786 0.37
-0.846 8.39 -0.787 0.3
-0.873 8.387 -0.787 0.36
-0.899 8.38 -0.787 0.29
-0.926 8.387 -0.788 0.36
-0.953 8.394 -0.789 0.3
-0.981 8.399 -0.79 0.36
-1.007 8.394 -0.79 0.3
-1.02 8.391 -0.79 0.36
-1.048 8.399 -0.791 0.35
-1.074 8.398 -0.791 0.32
-1.102 8.406 -0.793 0.33
-1.128 8.401 -0.793 0.32
-1.157 8.415 -0.795 0.34
-1.184 8.411 -0.795 0.23
-1.197 8.411 -0.795 0.43
-1.227 8.433 -0.798 0.21
-1.265 8.508 -0.807 0.16
-1.305 8.596 -0.818 0.16
-1.342 8.655 -0.826 0.27
-1.372 8.67 -0.828 0.33
-1.402 8.682 -0.83 0.32
-1.425 8.654 -0.827 0.17
-1.437 8.638 -0.825 0.33
-1.444 8.512 -0.811 0.11
-1.465 8.476 -0.807 0.17
-1.522 8.647 -0.828 0.39
-1.521 8.48 -0.809 0.22
-1.565 8.571 -0.82 0.16
-1.616 8.701 -0.836 0.34
-1.647 8.715 -0.839 0.2
-3.136 16.575 -1.775 0.26
-3.191 16.584 -1.777 0.35
-3.245 16.582 -1.778 0.43
-3.302 16.599 -1.781 0.35
-3.356 16.598 -1.783 0.44
-3.411 16.598 -1.784 0.38
-3.468 16.61 -1.787 0.38
-3.494 16.607 -1.787 0.38
-3.548 16.605 -1.788 0.4
-3.607 16.623 -1.791 0.35
-3.658 16.61 -1.791 0.42
-3.716 16.623 -1.794 0.35
-3.773 16.631 -1.797 0.41
-3.827 16.627 -1.797 0.4
-3.859 16.646 -1.8 0.35
-3.914 16.645 -1.802 0.41
-3.969 16.645 -1.803 0.34
-4.024 16.646 -1.805 0.44
-4.076 16.629 -1.804 0.34
-4.128 16.616 -1.804 0.34
-4.179 16.601 -1.804 0.23
-4.229 16.578 -1.803 0.47
-4.26 16.591 -1.805 0.34
-4.316 16.591 -1.807 0.45
-4.375 16.606 -1.81 0.4
-4.443 16.65 -1.817 0.64
-4.672 17.294 -1.897 0.33
-4.73 17.292 -1.899 0.31
-4.784 17.278 -1.899 0.25
-4.814 17.281 -1.9 0.33
-4.873 17.283 -1.902 0.29
-4.929 17.274 -1.903 0.32
-4.985 17.264 -1.904 0.32
-5.041 17.252 -1.904 0.29
-5.098 17.248 -1.906 0.32
-5.149 17.222 -1.904 0.29
-5.203 17.206 -1.904 0.28
-5.225 17.18 -1.902 0.29
-5.28 17.166 -1.903 0.3
-5.336 17.155 -1.903 0.3
-5.425 17.252 -1.917 0.24
-5.503 17.31 -1.926 0.4
-5.571 17.335 -1.932 0.45
-5.49 16.897 -1.88 0.31
-5.495 16.823 -1.872 0.29
-5.444 16.49 -1.833 0.29
-5.457 16.356 -1.819 0.37
-5.538 16.427 -1.83 0.33
-5.638 16.553 -1.847 0.34
-5.646 16.405 -1.831 0.39
-5.508 15.841 -1.763 0.0
-5.535 15.758 -1.755 0.0
-5.549 15.72 -1.752 0.07
-5.57 15.622 -1.742 0.14
-5.585 15.509 -1.73 0.23
-5.592 15.377 -1.716 0.11
-5.606 15.266 -1.704 0.08
-5.609 15.125 -1.689 0.15
-5.587 14.922 -1.665 0.15
-5.6 14.885 -1.662 0.14
-5.527 14.551 -1.622 0.4
-5.56 14.5 -1.618 0.31
-5.596 14.457 -1.615 0.4
-5.633 14.419 -1.612 0.36
-5.669 14.377 -1.609 0.55
-5.719 14.37 -1.611 0.27
-5.692 14.238 -1.595 0.29
-5.729 14.199 -1.593 0.5
-5.755 14.135 -1.587 0.3
-5.806 14.136 -1.589 0.43
-5.863 14.147 -1.593 0.45
-5.898 14.106 -1.59 0.39
-5.93 14.058 -1.586 0.39
-5.981 14.054 -1.588 0.25
-5.999 14.036 -1.587 0.52
-6.048 14.029 -1.589 0.25
-6.097 14.021 -1.59 0.55
-6.186 14.106 -1.603 0.25
-6.201 14.019 -1.595 0.42
-6.243 13.996 -1.594 0.42
-6.304 14.014 -1.599 0.43
-6.327 14.006 -1.599 0.36
-6.381 14.008 -1.602 0.41
-6.426 13.99 -1.602 0.38
-6.491 14.015 -1.608 0.4
-6.535 13.996 -1.608 0.48
-6.608 14.036 -1.616 0.3
-6.688 14.091 -1.626 0.45
-6.791 14.194 -1.642 0.39
-6.854 14.269 -1.653 0.32
-6.839 14.122 -1.637 0.25
-6.841 14.013 -1.626 0.5
-6.898 14.018 -1.629 0.36
-7.005 14.125 -1.646 0.36
-7.004 14.012 -1.634 0.36
-7.046 13.986 -1.634 0.4
-7.077 13.993 -1.636 0.4
-7.129 13.987 -1.638 0.45
-7.208 14.031 -1.647 0.32
-7.242 13.989 -1.644 0.47
-7.315 14.023 -1.652 0.34
-7.446 14.167 -1.674 0.3
-7.387 13.947 -1.648 0.34
-7.483 14.076 -1.666 0.4
-7.552 14.098 -1.672 0.32
-7.597 14.076 -1.673 0.38
-7.649 14.066 -1.674 0.42
-7.695 14.045 -1.675 0.36
-7.748 14.038 -1.677 0.44
-7.821 14.066 -1.684 0.24
-7.866 14.041 -1.684 0.53
-7.913 14.074 -1.69 0.33
-7.966 14.065 -1.692 0.39
-8.005 14.031 -1.691 0.44
-8.06 14.025 -1.694 0.26
-8.102 13.996 -1.693 0.55
-8.274 14.19 -1.723 0.19
-8.196 13.955 -1.695 0.41
-8.256 13.956 -1.698 0.36
-8.295 13.972 -1.702 0.51
-8.371 14.001 -1.71 0.4
-8.476 14.077 -1.724 0.29
-8.554 14.104 -1.731 0.34
-8.599 14.079 -1.731 0.35
-8.627 14.027 -1.728 0.35
-8.679 14.011 -1.73 0.46
-8.725 14.037 -1.735 0.24
-8.759 13.994 -1.733 0.55
-8.855 14.049 -1.744 0.35
-8.9 14.023 -1.744 0.32
-8.944 13.995 -1.744 0.49
-9.002 13.988 -1.747 0.34
-9.082 14.015 -1.755 0.38
-9.055 13.926 -1.745 0.4
-9.152 13.979 -1.756 0.28
-9.187 13.936 -1.754 0.53
-9.268 13.964 -1.762 0.34
-9.412 14.085 -1.783 0.4
-9.437 14.027 -1.779 0.34
-9.487 14.006 -1.78 0.41
-9.573 14.038 -1.789 0.32
-9.564 13.977 -1.783 0.4
-9.62 13.965 -1.785 0.48
-9.71 14.002 -1.795 0.33
-9.727 13.932 -1.789 0.38
-9.821 13.973 -1.8 0.41
-9.898 13.989 -1.806 0.37
-10.003 14.044 -1.819 0.38
-10.018 14.019 -1.817 0.35
-10.123 14.073 -1.83 0.29
-10.125 13.981 -1.821 0.37
-10.175 13.959 -1.822 0.33
-10.218 13.925 -1.822 0.45
-10.382 14.056 -1.846 0.39
-10.451 14.057 -1.851 0.33
-10.511 14.092 -1.858 0.36
-10.594 14.111 -1.866 0.35
-10.625 14.06 -1.863 0.39
-10.75 14.133 -1.879 0.43
-10.824 14.139 -1.885 0.33
-10.898 14.142 -1.89 0.36
-10.947 14.114 -1.891 0.34
-11.013 14.108 -1.895 0.38
-11.037 14.092 -1.896 0.39
-11.067 14.04 -1.893 0.41
-11.145 14.048 -1.899 0.36
-11.175 13.995 -1.897 0.47
-11.22 13.962 -1.897 0.32
-11.354 14.038 -1.914 0.32
-11.412 14.019 -1.916 0.43
-11.449 14.02 -1.919 0.36
-11.522 14.019 -1.924 0.34
-11.566 13.983 -1.924 0.45
-11.652 13.997 -1.932 0.31
-11.699 13.965 -1.933 0.48
-11.728 13.909 -1.93 0.35
-11.859 13.976 -1.946 0.44
-11.932 13.973 -1.951 0.35
-11.948 13.947 -1.95 0.36
-11.998 13.917 -1.951 0.41
-12.095 13.941 -1.961 0.37
-12.129 13.892 -1.959 0.38
-12.194 13.878 -1.963 0.4
-12.308 13.92 -1.975 0.27
-12.32 13.845 -1.97 0.55
-12.424 13.918 -1.984 0.31
-12.493 13.907 -1.989 0.31
-12.546 13.878 -1.99 0.31
-12.553 13.799 -1.984 0.47
-12.698 13.871 -2.002 0.25
-12.762 13.853 -2.005 0.35
-12.82 13.829 -2.008 0.49
-12.877 13.803 -2.01 0.28
-12.9 13.784 -2.01 0.31
-12.953 13.754 -2.012 0.48
-13.024 13.742 -2.016 0.32
-13.099 13.735 -2.022 0.39
-13.147 13.698 -2.023 0.3
-13.201 13.669 -2.025 0.28
-13.245 13.628 -2.025 0.3
-13.254 13.595 -2.023 0.3
-13.302 13.559 -2.024 0.19
-13.352 13.524 -2.025 0.4
-13.393 13.481 -2.025 0.24
-13.433 13.437 -2.024 0.27
-13.485 13.405 -2.026 0.27
-13.542 13.376 -2.028 0.27
-13.56 13.352 -2.028 0.2
-13.616 13.323 -2.03 0.41
-13.659 13.282 -2.03 0.23
-13.708 13.246 -2.032 0.19
-13.759 13.212 -2.033 0.4
-13.814 13.181 -2.035 0.25
-13.857 13.139 -2.036 0.24
-13.905 13.102 -2.037 0.18
-13.944 13.098 -2.04 0.43
-13.996 13.064 -2.041 0.23
-14.05 13.032 -2.043 0.19
-14.101 12.997 -2.045 0.41
-14.156 12.966 -2.047 0.23
-14.198 12.923 -2.048 0.18
-14.264 12.901 -2.052 0.39
-14.284 12.879 -2.052 0.22
-14.33 12.839 -2.052 0.18
-14.385 12.807 -2.055 0.4
-14.418 12.755 -2.054 0.25
-14.475 12.725 -2.056 0.2
-14.525 12.688 -2.058 0.38
-14.569 12.646 -2.059 0.23
-14.616 12.607 -2.06 0.18
-14.651 12.597 -2.062 0.39
-14.692 12.552 -2.062 0.24
-14.73 12.505 -2.062 0.19
-14.786 12.473 -2.065 0.41
-14.828 12.429 -2.065 0.23
-14.875 12.388 -2.066 0.18
-14.926 12.352 -2.068 0.39
-14.945 12.328 -2.068 0.23
-14.993 12.289 -2.069 0.19
-15.045 12.253 -2.072 0.39
-15.102 12.221 -2.074 0.23
-15.173 12.199 -2.079 0.28
-15.236 12.171 -2.083 0.22
-15.291 12.137 -2.086 0.39
-15.304 12.108 -2.085 0.18
-15.348 12.065 -2.086 0.35
-15.399 12.026 -2.087 0.19
-15.438 11.979 -2.088 0.23
-15.483 11.937 -2.089 0.21
-15.537 11.9 -2.091 0.22
-15.582 11.857 -2.092 0.2
-15.625 11.813 -2.093 0.21
-15.65 11.793 -2.094 0.19
-15.686 11.743 -2.094 0.21
-15.727 11.697 -2.095 0.19
-15.78 11.659 -2.097 0.21
-15.823 11.615 -2.098 0.18
-15.874 11.575 -2.1 0.21
-15.907 11.523 -2.099 0.18
-15.931 11.503 -2.1 0.21
-15.967 11.453 -2.1 0.18
-16.008 11.406 -2.101 0.21
-16.062 11.368 -2.104 0.18
-16.088 11.311 -2.102 0.33
-16.142 11.274 -2.105 0.2
-16.165 11.214 -2.103 0.33
-16.192 11.195 -2.105 0.2
-16.237 11.151 -2.106 0.18
-16.287 11.11 -2.108 0.3
-16.336 11.069 -2.11 0.2
-16.376 11.021 -2.111 0.18
-16.43 10.983 -2.114 0.22
-16.476 10.939 -2.115 0.2
-16.531 10.9 -2.118 0.21
-16.544 10.872 -2.118 0.19
-16.593 10.83 -2.12 0.21
-16.641 10.786 -2.122 0.18
-16.689 10.744 -2.124 0.33
-16.74 10.702 -2.126 0.2
-16.792 10.661 -2.129 0.33
-16.855 10.627 -2.133 0.19
-16.874 10.602 -2.133 0.34
-16.919 10.556 -2.135 0.19
-16.959 10.507 -2.135 0.35
-16.992 10.454 -2.135 0.2
-17.026 10.401 -2.136 0.36
-17.067 10.353 -2.137 0.22
-17.111 10.307 -2.139 0.2
-17.155 10.296 -2.142 0.41
-17.192 10.245 -2.143 0.23
-17.245 10.203 -2.146 0.19
-17.282 10.152 -2.146 0.4
-17.329 10.107 -2.149 0.22
-17.342 10.041 -2.146 0.25
-17.322 9.957 -2.139 0.21
-17.348 9.9 -2.138 0.23
-17.401 9.894 -2.143 0.28
-17.486 9.87 -2.151 0.18
-17.577 9.849 -2.159 0.32
-17.667 9.826 -2.167 0.33
-17.764 9.807 -2.175 0.36
-17.859 9.787 -2.184 0.32
-17.899 9.735 -2.185 0.43
-17.942 9.723 -2.189 0.25
-17.962 9.66 -2.188 0.43
-17.934 9.573 -2.18 0.23
-17.901 9.483 -2.172 0.19
-17.876 9.398 -2.164 0.39
-17.862 9.319 -2.159 0.24
-17.866 9.25 -2.155 0.24
-17.826 9.193 -2.148 0.29
-17.858 9.139 -2.149 0.19
-17.853 9.066 -2.144 0.41
-17.841 8.989 -2.139 0.24
-17.841 8.919 -2.135 0.18
-17.847 8.852 -2.132 0.39
-17.843 8.78 -2.128 0.23
-17.851 8.715 -2.125 0.18
-17.856 8.682 -2.124 0.39
-17.849 8.61 -2.12 0.19
-17.861 8.547 -2.118 0.38
-17.859 8.477 -2.114 0.22
-17.875 8.415 -2.113 0.2
-17.885 8.352 -2.111 0.38
-17.901 8.29 -2.109 0.23
-17.898 8.255 -2.107 0.19
-17.916 8.195 -2.106 0.41
-17.927 8.132 -2.105 0.23
-17.938 8.069 -2.103 0.19
-17.944 8.004 -2.1 0.41
-17.956 7.942 -2.099 0.24
-17.966 7.879 -2.097 0.18
-17.987 7.821 -2.096 0.39
-17.974 7.782 -2.093 0.22
-17.978 7.717 -2.09 0.18
-18.004 7.661 -2.091 0.39
-18.01 7.597 -2.088 0.23
-18.03 7.538 -2.088 0.16
-18.057 7.483 -2.088 0.45
-18.081 7.426 -2.088 0.22
-18.08 7.393 -2.087 0.18
-18.11 7.339 -2.088 0.39
-18.111 7.273 -2.085 0.2
-18.136 7.217 -2.085 0.38
-18.14 7.153 -2.083 0.19
-18.16 7.095 -2.082 0.36
-18.158 7.061 -2.081 0.19
-18.162 6.997 -2.079 0.36
-18.152 6.928 -2.075 0.21
-18.157 6.864 -2.072 0.23
-18.147 6.795 -2.069 0.2
-18.157 6.734 -2.067 0.22
-18.158 6.67 -2.065 0.19
-18.169 6.609 -2.063 0.21
-18.159 6.573 -2.061 0.18
-18.17 6.513 -2.06 0.13
-18.172 6.449 -2.057 0.17
-18.187 6.39 -2.057 0.28
-18.186 6.325 -2.054 0.27
-18.189 6.262 -2.052 0.18
-18.19 6.199 -2.05 0.17
-18.192 6.168 -2.049 0.18
-18.204 6.108 -2.048 0.17
-18.213 6.048 -2.047 0.18
-18.217 5.985 -2.045 0.17
-18.226 5.925 -2.044 0.16
-18.23 5.863 -2.042 0.18
-18.227 5.799 -2.039 0.18
-18.226 5.736 -2.037 0.16
-18.224 5.703 -2.036 0.17
-18.223 5.64 -2.033 0.23
-18.223 5.578 -2.031 0.24
-18.22 5.514 -2.029 0.2
-18.209 5.448 -2.025 0.19
-18.214 5.388 -2.024 0.31
-18.218 5.326 -2.022 0.19
-18.205 5.292 -2.019 0.24
-18.199 5.228 -2.017 0.2
-18.217 5.171 -2.017 0.22
-18.201 5.105 -2.013 0.19
-18.219 5.048 -2.013 0.21
-18.217 4.986 -2.011 0.19
-18.225 4.927 -2.01 0.23
-18.219 4.894 -2.009 0.19
-18.229 4.836 -2.008 0.3
-18.234 4.776 -2.007 0.2
-18.24 4.716 -2.006 0.18
-18.247 4.657 -2.005 0.12
-18.257 4.598 -2.004 0.16
-18.26 4.538 -2.003 0.27
-18.263 4.478 -2.001 0.19
-18.245 4.443 -1.998 0.18
-18.237 4.381 -1.996 0.12
-18.237 4.32 -1.994 0.16
-18.239 4.26 -1.993 0.3
-18.225 4.196 -1.989 0.2
-18.235 4.138 -1.989 0.18
-18.207 4.072 -1.984 0.34
-18.171 4.034 -1.979 0.18
-18.119 3.962 -1.971 0.21
-18.112 3.901 -1.969 0.34
-18.099 3.839 -1.966 0.37
-18.095 3.779 -1.964 0.3
-18.098 3.72 -1.963 0.53
-18.142 3.67 -1.967 0.27
-18.15 3.612 -1.966 0.21
-18.126 3.578 -1.963 0.42
-18.126 3.518 -1.962 0.25
-18.16 3.466 -1.964 0.25
-18.184 3.412 -1.966 0.25
-18.203 3.356 -1.967 0.18
-18.233 3.302 -1.969 0.43
-18.243 3.245 -1.969 0.24
-18.278 3.221 -1.973 0.2
-18.299 3.166 -1.974 0.41
-18.301 3.107 -1.973 0.25
-18.331 3.053 -1.976 0.19
-18.356 2.998 -1.977 0.4
-18.361 2.94 -1.977 0.23
-18.386 2.884 -1.979 0.17
-18.423 2.831 -1.982 0.39
-18.421 2.801 -1.981 0.23
-18.442 2.745 -1.983 0.21
-18.47 2.69 -1.985 0.38
-18.466 2.63 -1.984 0.23
-18.48 2.573 -1.984 0.19
-18.506 2.517 -1.986 0.39
-18.51 2.459 -1.986 0.23
-18.52 2.43 -1.987 0.18
-18.537 2.373 -1.988 0.39
-18.544 2.315 -1.988 0.24
-18.565 2.259 -1.989 0.23
-18.567 2.2 -1.989 0.17
-18.585 2.143 -1.99 0.42
-18.594 2.084 -1.99 0.24
-18.608 2.027 -1.991 0.27
-18.607 1.997 -1.991 0.27
-18.621 1.94 -1.992 0.27
-18.631 1.881 -1.992 0.2
-18.655 1.825 -1.994 0.42
-18.671 1.767 -1.996 0.23
-18.684 1.709 -1.996 0.19
-18.709 1.652 -1.999 0.4
-18.725 1.624 -2.0 0.23
-18.723 1.565 -1.999 0.18
-18.749 1.507 -2.002 0.41
-18.768 1.45 -2.004 0.19
-18.776 1.391 -2.004 0.38
-18.8 1.333 -2.006 0.21
-18.81 1.275 -2.007 0.24
-18.816 1.245 -2.008 0.21
-18.822 1.186 -2.008 0.16
-18.843 1.128 -2.01 0.39
-18.851 1.069 -2.01 0.19
-18.86 1.011 -2.011 0.38
-18.865 0.951 -2.011 0.18
-18.88 0.893 -2.013 0.35
-18.875 0.863 -2.012 0.17
-18.894 0.804 -2.014 0.35
-18.914 0.746 -2.016 0.19
-18.92 0.686 -2.016 0.23
-18.934 0.627 -2.018 0.2
-18.952 0.568 -2.02 0.22
-18.966 0.509 -2.021 0.19
-18.983 0.45 -2.023 0.21
-18.986 0.42 -2.023 0.18
-18.993 0.361 -2.024 0.12
-19.016 0.301 -2.026 0.16
-19.303 0.215 -2.06 0.25
-19.316 0.155 -2.061 0.25
-19.326 0.094 -2.062 0.25
-19.338 0.033 -2.064 0.25
-19.326 0.003 -2.062 0.11
-19.324 -0.058 -2.062 0.16
-19.316 -0.118 -2.061 0.27
-19.307 -0.179 -2.06 0.19
-19.301 -0.24 -2.06 0.17
-19.3 -0.3 -2.06 0.33
-19.315 -0.361 -2.062 0.19
-19.335 -0.422 -2.064 0.34
-19.347 -0.453 -2.066 0.18
-19.353 -0.514 -2.066 0.37
-19.357 -0.575 -2.067 0.2
-19.371 -0.636 -2.069 0.34
-19.359 -0.697 -2.068 0.18
-19.371 -0.758 -2.069 0.36
-19.39 -0.82 -2.072 0.21
-19.385 -0.85 -2.072 0.23
-19.394 -0.911 -2.073 0.21
-19.399 -0.973 -2.074 0.23
-19.39 -1.033 -2.073 0.2
-19.404 -1.095 -2.075 0.21
-19.411 -1.157 -2.076 0.18
-19.425 -1.219 -2.079 0.27
-19.441 -1.251 -2.081 0.27
-19.457 -1.313 -2.083 0.26
-19.472 -1.375 -2.085 0.27
-19.472 -1.437 -2.086 0.27
-19.465 -1.498 -2.086 0.26
-19.468 -1.56 -2.086 0.27
-19.455 -1.62 -2.086 0.18
-19.448 -1.681 -2.085 0.17
-19.448 -1.712 -2.086 0.32
-19.448 -1.773 -2.086 0.16
-19.454 -1.836 -2.088 0.36
-19.46 -1.898 -2.089 0.19
-19.488 -1.962 -2.093 0.37
-19.483 -2.024 -2.093 0.23
-19.519 -2.089 -2.098 0.18
-19.584 -2.127 -2.106 0.39
-19.593 -2.191 -2.108 0.19
-19.571 -2.25 -2.106 0.38
-18.887 -2.233 -2.026 0.17
-18.314 -2.224 -1.96 0.36
-18.293 -2.28 -1.958 0.2
-18.297 -2.339 -1.959 0.18
-18.3 -2.398 -1.961 0.32
-18.422 -2.443 -1.976 0.24
-18.491 -2.511 -1.985 0.2
-18.371 -2.554 -1.971 0.43
-18.323 -2.606 -1.967 0.21
-18.386 -2.674 -1.975 0.32
-18.393 -2.734 -1.977 0.19
-18.402 -2.794 -1.979 0.27
-18.58 -2.851 -2.001 0.23
-18.667 -2.924 -2.012 0.19
-18.686 -2.987 -2.015 0.16
-18.637 -3.04 -2.011 0.18
-18.57 -3.089 -2.004 0.29
-18.561 -3.147 -2.004 0.25
-18.652 -3.223 -2.016 0.2
-18.608 -3.245 -2.011 0.16
-18.23 -3.239 -1.968 0.0
-17.571 -3.18 -1.89 0.0
-19.115 -3.581 -2.077 0.09
-19.055 -3.632 -2.071 0.08
-18.957 -3.675 -2.061 0.13
-19.09 -3.732 -2.077 0.09
-19.08 -3.792 -2.077 0.13
-19.125 -3.863 -2.084 0.21
-19.003 -3.901 -2.071 0.11
-19.073 -3.978 -2.081 0.16
-19.167 -4.06 -2.094 0.29
-19.141 -4.117 -2.092 0.27
-19.077 -4.167 -2.086 0.2
-18.896 -4.158 -2.065 0.18
-19.137 -4.274 -2.096 0.21
-19.084 -4.325 -2.091 0.18
-19.067 -4.384 -2.09 0.29
-19.07 -4.448 -2.092 0.11
-18.923 -4.477 -2.076 0.15
-18.971 -4.551 -2.084 0.28
-18.861 -4.556 -2.072 0.27
-18.746 -4.591 -2.059 0.11
-18.612 -4.62 -2.045 0.15
-18.599 -4.679 -2.045 0.29
-18.548 -4.728 -2.041 0.26
-18.42 -4.758 -2.027 0.19
-18.187 -4.759 -2.001 0.18
-17.909 -4.717 -1.968 0.31
-17.523 -4.674 -1.923 0.0
-17.248 -4.659 -1.892 0.0
-18.375 -5.086 -2.032 0.29
-18.399 -5.155 -2.037 0.19
-18.287 -5.186 -2.025 0.32
-18.143 -5.176 -2.009 0.23
-18.066 -5.216 -2.001 0.26
-17.981 -5.252 -1.993 0.23
-17.84 -5.272 -1.978 0.3
-17.692 -5.289 -1.962 0.25
-17.58 -5.316 -1.95 0.28
-17.495 -5.351 -1.942 0.27
-17.402 -5.382 -1.933 0.25
-17.346 -5.395 -1.927 0.33
-17.132 -5.388 -1.903 0.34
-17.204 -5.47 -1.913 0.17
-17.232 -5.538 -1.919 0.47
-17.077 -5.548 -1.902 0.25
-17.129 -5.624 -1.911 0.24
-17.23 -5.717 -1.925 0.3
-17.133 -5.715 -1.914 0.29
-17.32 -5.898 -1.942 0.52
-17.578 -6.047 -1.976 0.2
-17.482 -6.076 -1.967 0.26
-17.498 -6.143 -1.971 0.36
-17.531 -6.217 -1.978 0.2
-17.179 -6.153 -1.936 0.19
-17.13 -6.166 -1.931 0.21
-17.103 -6.217 -1.93 0.18
-16.908 -6.206 -1.909 0.12
-16.739 -6.204 -1.89 0.17
-16.556 -6.196 -1.87 0.28
-16.308 -6.162 -1.841 0.18
-16.138 -6.156 -1.822 0.0
-16.017 -6.139 -1.808 0.14
-17.699 -6.845 -2.022 0.19
-17.689 -6.904 -2.023 0.33
-17.674 -6.963 -2.024 0.32
-17.652 -7.018 -2.024 0.29
-17.654 -7.083 -2.027 0.33
-17.65 -7.146 -2.029 0.4
-17.637 -7.173 -2.029 0.21
-17.622 -7.232 -2.03 0.35
-17.573 -7.276 -2.027 0.3
-17.572 -7.341 -2.029 0.33
-17.487 -7.37 -2.022 0.21
-17.467 -7.426 -2.022 0.39
-17.382 -7.454 -2.014 0.23
-17.328 -7.464 -2.009 0.32
-17.325 -7.527 -2.011 0.18
-17.279 -7.572 -2.009 0.29
-17.232 -7.616 -2.006 0.25
-17.091 -7.618 -1.991 0.17
-16.975 -7.63 -1.979 0.25
-16.976 -7.695 -1.982 0.16
-16.878 -7.715 -1.973 0.32
-16.781 -7.702 -1.962 0.19
-16.623 -7.693 -1.944 0.34
-16.467 -7.684 -1.927 0.18
-16.326 -7.681 -1.912 0.36
-16.183 -7.677 -1.897 0.18
-16.003 -7.653 -1.877 0.36
-15.852 -7.642 -1.86 0.2
-15.716 -7.608 -1.844 0.13
-15.589 -7.606 -1.831 0.0
-16.595 -8.225 -1.968 0.32
-16.614 -8.299 -1.974 0.25
-16.577 -8.346 -1.973 0.31
-16.465 -8.355 -1.962 0.36
-16.349 -8.361 -1.95 0.27
-16.32 -8.378 -1.948 0.32
-16.15 -8.356 -1.929 0.34
-16.117 -8.403 -1.928 0.23
-15.978 -8.394 -1.913 0.29
-15.893 -8.414 -1.905 0.27
-15.77 -8.413 -1.893 0.26
-15.653 -8.413 -1.88 0.25
-15.536 -8.382 -1.867 0.3
-15.417 -8.381 -1.854 0.27
-15.292 -8.375 -1.841 0.28
-15.163 -8.367 -1.827 0.29
-15.055 -8.369 -1.817 0.29
-14.929 -8.361 -1.803 0.32
-14.844 -8.375 -1.795 0.27
-14.852 -8.41 -1.798 0.22
-15.032 -8.574 -1.826 0.21
-14.981 -8.608 -1.823 0.34
-14.952 -8.654 -1.823 0.33
-14.932 -8.705 -1.823 0.4
-14.93 -8.767 -1.827 0.45
-14.887 -8.804 -1.825 0.34
-14.867 -8.824 -1.824 0.35
-14.791 -8.842 -1.817 0.31
-14.692 -8.845 -1.808 0.34
-14.591 -8.847 -1.798 0.35
-14.526 -8.87 -1.793 0.33
-14.448 -8.886 -1.786 0.38
-14.366 -8.898 -1.778 0.38
-14.281 -8.907 -1.77 0.44
-13.894 -8.697 -1.719 0.26
-14.168 -8.93 -1.761 0.46
-13.974 -8.869 -1.738 0.32
-14.05 -8.979 -1.752 0.3
-13.985 -9.0 -1.747 0.41
-13.893 -9.003 -1.738 0.39
-13.865 -9.047 -1.738 0.35
-13.796 -9.032 -1.73 0.36
-13.724 -9.047 -1.724 0.39
-13.729 -9.112 -1.729 0.38
-13.579 -9.075 -1.712 0.43
-13.48 -9.07 -1.702 0.34
-13.461 -9.119 -1.704 0.36
-13.46 -9.18 -1.707 0.41
-13.384 -9.19 -1.701 0.33
-13.346 -9.195 -1.697 0.42
-13.344 -9.255 -1.701 0.31
-13.262 -9.261 -1.694 0.55
-13.145 -9.241 -1.681 0.28
-13.105 -9.274 -1.68 0.43
-12.852 -9.157 -1.647 0.26
-13.041 -9.353 -1.679 0.45
-13.035 -9.379 -1.68 0.3
-12.986 -9.406 -1.677 0.42
-12.902 -9.407 -1.669 0.35
-12.85 -9.431 -1.666 0.36
-12.833 -9.481 -1.668 0.37
-12.779 -9.503 -1.664 0.32
-12.749 -9.544 -1.664 0.43
-12.508 -9.395 -1.631 0.39
-12.456 -9.417 -1.628 0.37
-12.566 -9.562 -1.649 0.37
-12.392 -9.491 -1.627 0.36
-12.41 -9.567 -1.634 0.34
-12.409 -9.629 -1.639 0.46
-12.426 -9.704 -1.646 0.36
-12.365 -9.688 -1.639 0.36
-12.415 -9.79 -1.651 0.33
-12.357 -9.808 -1.647 0.42
-12.289 -9.817 -1.641 0.29
-12.267 -9.863 -1.643 0.26
-12.085 -9.779 -1.62 0.42
-12.079 -9.837 -1.624 0.39
-12.079 -9.869 -1.626 0.35
-11.96 -9.835 -1.613 0.38
-11.952 -9.891 -1.616 0.37
-11.887 -9.901 -1.611 0.39
-11.862 -9.943 -1.612 0.45
-11.726 -9.892 -1.596 0.26
-11.875 -10.082 -1.624 0.36
-11.754 -10.043 -1.61 0.38
-11.76 -10.079 -1.613 0.31
-11.695 -10.088 -1.608 0.41
-11.632 -10.097 -1.603 0.38
-11.607 -10.14 -1.604 0.35
-11.616 -10.212 -1.611 0.38
-11.613 -10.275 -1.615 0.38
-11.575 -10.306 -1.614 0.34
-11.586 -10.348 -1.619 0.47
-11.498 -10.335 -1.61 0.29
-11.29 -10.213 -1.582 0.31
-11.458 -10.43 -1.614 0.43
-11.371 -10.416 -1.605 0.42
-11.327 -10.441 -1.604 0.29
-11.34 -10.52 -1.611 0.38
-11.243 -10.496 -1.601 0.34
-11.22 -10.507 -1.6 0.4
-11.188 -10.543 -1.6 0.36
-11.263 -10.681 -1.617 0.36
-11.241 -10.727 -1.619 0.38
-11.128 -10.687 -1.606 0.39
-11.042 -10.671 -1.598 0.36
-10.911 -10.611 -1.582 0.39
-10.974 -10.706 -1.595 0.35
-10.987 -10.786 -1.603 0.27
-11.0 -10.867 -1.61 0.48
-10.98 -10.915 -1.613 0.22
-10.882 -10.886 -1.602 0.58
-10.433 -10.504 -1.533 0.24
-10.91 -11.052 -1.618 0.41
-10.77 -10.945 -1.598 0.38
-10.722 -10.964 -1.595 0.4
-10.686 -10.997 -1.595 0.38
-10.553 -10.929 -1.579 0.28
-10.617 -11.063 -1.595 0.29
-10.557 -11.071 -1.591 0.39
-10.558 -11.141 -1.597 0.3
-10.503 -11.119 -1.591 0.36
-10.474 -11.158 -1.592 0.33
-10.451 -11.204 -1.594 0.45
-10.286 -11.097 -1.571 0.39
-10.452 -11.347 -1.606 0.32
-10.06 -10.992 -1.544 0.3
-10.27 -11.292 -1.587 0.25
-10.144 -11.189 -1.568 0.38
-10.738 -11.916 -1.678 0.16
-9.945 -11.109 -1.546 0.45
-10.662 -11.982 -1.678 0.18
-10.624 -12.015 -1.678 0.42
-10.574 -12.035 -1.676 0.24
-10.536 -12.068 -1.676 0.23
-10.438 -12.032 -1.665 0.38
-10.448 -12.082 -1.67 0.25
-10.402 -12.106 -1.669 0.27
-10.349 -12.12 -1.666 0.2
-10.288 -12.125 -1.662 0.41
-10.03 -11.898 -1.622 0.18
-9.278 -11.08 -1.492 0.36
-10.15 -12.194 -1.657 0.25
-10.122 -12.2 -1.656 0.28
-10.08 -12.227 -1.655 0.27
-10.031 -12.246 -1.653 0.27
-9.002 -11.065 -1.47 0.26
-9.926 -12.275 -1.648 0.25
-9.882 -12.298 -1.647 0.25
-9.833 -12.317 -1.645 0.25
-9.791 -12.304 -1.641 0.17
-8.818 -11.157 -1.465 0.47
-9.708 -12.358 -1.64 0.27
-9.663 -12.38 -1.639 0.26
-9.615 -12.4 -1.637 0.25
-9.58 -12.435 -1.638 0.24
-9.532 -12.454 -1.636 0.21
-9.482 -12.469 -1.634 0.4
-9.451 -12.468 -1.632 0.25
-9.396 -12.477 -1.629 0.26
-9.36 -12.512 -1.629 0.24
-9.309 -12.525 -1.627 0.21
-9.254 -12.533 -1.624 0.41
-9.206 -12.551 -1.622 0.25
-9.162 -12.574 -1.621 0.28
-9.144 -12.59 -1.622 0.28
-9.098 -12.61 -1.621 0.26
-9.054 -12.632 -1.62 0.26
-9.012 -12.658 -1.619 0.3
-8.968 -12.679 -1.618 0.3
-8.929 -12.709 -1.618 0.26
-8.888 -12.735 -1.618 0.27
-8.869 -12.751 -1.618 0.26
-8.837 -12.79 -1.62 0.3
-8.799 -12.821 -1.621 0.32
-8.75 -12.837 -1.619 0.24
-8.706 -12.858 -1.618 0.19
-8.632 -12.836 -1.611 0.45
-8.609 -12.889 -1.615 0.29
-8.559 -12.858 -1.608 0.42
-8.488 -12.839 -1.602 0.32
-8.441 -12.855 -1.601 0.39
-8.381 -12.852 -1.596 0.41
-8.342 -12.88 -1.597 0.35
-8.286 -12.883 -1.593 0.45
-8.253 -12.92 -1.595 0.29
-8.212 -12.902 -1.591 0.51
-8.181 -12.942 -1.593 0.29
-8.114 -12.926 -1.587 0.55
-8.055 -12.921 -1.583 0.34
-8.014 -12.946 -1.583 0.43
-7.983 -12.987 -1.585 0.25
-7.955 -13.034 -1.588 0.52
-7.894 -13.025 -1.583 0.36
-7.844 -12.99 -1.577 0.48
-7.817 -13.036 -1.58 0.32
-7.739 -12.999 -1.571 0.47
-7.691 -13.012 -1.57 0.36
-7.629 -13.0 -1.565 0.43
-7.6 -13.044 -1.567 0.36
-7.548 -13.049 -1.565 0.41
-7.521 -13.049 -1.563 0.36
-7.48 -13.073 -1.563 0.39
-7.425 -13.072 -1.56 0.38
