# .PCD v.7 - Point Cloud Data file format
VERSION .7
FIELDS x y z intensity
SIZE 4 4 4 4
TYPE F F F F
COUNT 1 1 1 1
WIDTH 1876
HEIGHT 1
VIEWPOINT 0 0 0 1 0 0 0
POINTS 1876
DATA ascii
11.592 8.208 -1.812 0.33
11.579 8.253 -1.815 0.18
11.57 8.302 -1.818 0.35
11.573 8.36 -1.823 0.19
11.559 8.377 -1.823 0.0
11.225 8.189 -1.769 0.0
11.111 8.16 -1.753 0.0
11.06 8.176 -1.749 0.0
10.996 8.183 -1.742 0.0
10.918 8.178 -1.733 0.0
10.86 8.189 -1.727 0.0
10.838 8.199 -1.726 0.0
10.822 8.24 -1.727 0.0
10.848 8.313 -1.737 0.0
11.343 8.748 -1.83 0.09
11.437 8.878 -1.851 0.3
11.419 8.921 -1.853 0.2
11.388 8.955 -1.853 0.18
11.384 8.981 -1.855 0.33
11.381 9.036 -1.859 0.19
11.37 9.086 -1.862 0.32
11.356 9.134 -1.865 0.2
11.366 9.2 -1.872 0.17
11.345 9.242 -1.873 0.31
11.348 9.304 -1.879 0.2
11.372 9.353 -1.886 0.18
11.373 9.414 -1.892 0.32
11.372 9.474 -1.897 0.21
11.376 9.538 -1.903 0.18
11.376 9.599 -1.909 0.21
11.373 9.658 -1.914 0.16
11.373 9.719 -1.92 0.09
11.228 9.626 -1.895 0.09
11.15 9.62 -1.886 0.14
11.083 9.624 -1.88 0.09
11.032 9.641 -1.876 0.15
10.989 9.663 -1.873 0.0
10.918 9.662 -1.866 0.0
10.92 9.726 -1.872 0.0
10.912 9.78 -1.876 0.1
11.213 10.081 -1.936 0.2
11.148 10.086 -1.93 0.38
11.074 10.082 -1.922 0.22
11.017 10.094 -1.917 0.18
10.953 10.099 -1.911 0.39
10.884 10.099 -1.904 0.23
10.823 10.106 -1.898 0.15
10.775 10.093 -1.892 0.42
10.71 10.096 -1.885 0.25
10.67 10.121 -1.884 0.21
10.611 10.129 -1.878 0.38
10.579 10.162 -1.878 0.19
10.54 10.188 -1.877 0.36
10.51 10.224 -1.878 0.2
10.477 10.224 -1.874 0.24
10.432 10.244 -1.872 0.21
10.397 10.274 -1.871 0.23
10.372 10.314 -1.872 0.18
10.326 10.332 -1.87 0.33
10.297 10.369 -1.871 0.19
10.253 10.39 -1.868 0.33
10.215 10.417 -1.867 0.18
10.192 10.425 -1.866 0.36
10.156 10.455 -1.865 0.22
10.13 10.494 -1.867 0.18
10.097 10.525 -1.867 0.4
10.071 10.564 -1.868 0.21
10.027 10.584 -1.866 0.25
10.014 10.604 -1.867 0.21
9.978 10.633 -1.866 0.23
9.943 10.663 -1.866 0.2
9.915 10.7 -1.867 0.23
9.883 10.732 -1.867 0.2
9.855 10.769 -1.868 0.22
9.822 10.801 -1.869 0.18
9.808 10.82 -1.869 0.34
9.768 10.845 -1.868 0.19
9.733 10.874 -1.868 0.35
9.705 10.912 -1.869 0.19
9.668 10.939 -1.869 0.35
9.642 10.978 -1.87 0.2
9.602 11.003 -1.869 0.23
9.565 11.03 -1.869 0.19
9.553 11.051 -1.87 0.21
9.521 11.084 -1.87 0.18
9.492 11.121 -1.872 0.21
9.458 11.152 -1.872 0.2
9.423 11.182 -1.872 0.22
9.388 11.212 -1.872 0.2
9.357 11.246 -1.873 0.21
9.338 11.259 -1.872 0.17
9.292 11.276 -1.87 0.31
9.258 11.307 -1.871 0.2
9.231 11.346 -1.872 0.17
9.179 11.355 -1.869 0.32
9.149 11.39 -1.87 0.21
9.103 11.407 -1.868 0.18
9.087 11.424 -1.868 0.21
9.047 11.446 -1.867 0.18
9.015 11.481 -1.868 0.31
8.978 11.508 -1.868 0.2
8.948 11.543 -1.869 0.16
8.897 11.553 -1.866 0.13
8.869 11.592 -1.868 0.17
8.835 11.623 -1.869 0.3
8.816 11.635 -1.868 0.2
8.777 11.659 -1.868 0.17
8.742 11.69 -1.868 0.32
8.704 11.716 -1.868 0.2
8.666 11.742 -1.868 0.18
8.632 11.772 -1.868 0.0
6.126 8.423 -1.276 0.0
8.561 11.792 -1.865 0.11
8.528 11.823 -1.865 0.23
8.494 11.855 -1.866 0.27
8.45 11.872 -1.865 0.16
5.912 8.375 -1.253 0.14
5.925 8.45 -1.263 0.16
5.922 8.502 -1.269 0.19
5.923 8.56 -1.275 0.39
5.931 8.6 -1.281 0.11
5.919 8.642 -1.285 0.08
5.878 8.639 -1.281 0.0
5.668 8.389 -1.235 0.11
5.615 8.367 -1.228 0.28
5.581 8.373 -1.226 0.21
5.548 8.352 -1.221 0.34
5.5 8.337 -1.216 0.0
5.466 8.342 -1.214 0.0
5.432 8.348 -1.212 0.0
5.389 8.338 -1.207 0.0
5.356 8.345 -1.206 0.07
5.329 8.36 -1.205 0.19
5.287 8.352 -1.201 0.24
5.266 8.349 -1.199 0.22
5.237 8.36 -1.198 0.2
5.192 8.348 -1.193 0.15
5.159 8.352 -1.191 0.0
5.13 8.365 -1.191 0.0
5.119 8.405 -1.195 0.0
5.126 8.477 -1.204 0.04
5.29 8.778 -1.253 0.0
5.167 8.635 -1.226 0.15
4.962 8.354 -1.177 0.25
4.927 8.354 -1.175 0.28
4.897 8.364 -1.174 0.29
4.87 8.378 -1.174 0.27
4.837 8.381 -1.172 0.29
4.813 8.37 -1.169 0.28
4.782 8.378 -1.167 0.29
4.748 8.379 -1.165 0.29
4.706 8.367 -1.161 0.28
4.68 8.381 -1.161 0.28
4.643 8.377 -1.158 0.29
4.61 8.379 -1.156 0.28
4.575 8.378 -1.153 0.29
4.555 8.373 -1.151 0.28
4.524 8.379 -1.15 0.29
4.493 8.384 -1.148 0.28
4.457 8.381 -1.146 0.29
4.424 8.383 -1.144 0.28
4.386 8.374 -1.14 0.28
4.357 8.382 -1.139 0.29
4.334 8.37 -1.136 0.27
4.303 8.374 -1.135 0.27
4.267 8.368 -1.132 0.18
4.233 8.368 -1.129 0.47
4.205 8.377 -1.129 0.23
4.17 8.373 -1.126 0.29
4.138 8.375 -1.124 0.28
4.106 8.376 -1.122 0.29
4.086 8.368 -1.12 0.29
4.051 8.363 -1.117 0.28
4.021 8.369 -1.116 0.3
3.988 8.367 -1.114 0.29
3.953 8.362 -1.111 0.28
3.928 8.378 -1.112 0.27
3.899 8.383 -1.11 0.28
3.879 8.374 -1.108 0.28
3.847 8.376 -1.107 0.28
3.81 8.364 -1.103 0.3
3.778 8.364 -1.101 0.29
3.748 8.367 -1.1 0.29
3.717 8.367 -1.098 0.29
3.686 8.37 -1.096 0.29
3.652 8.363 -1.094 0.29
3.633 8.356 -1.092 0.29
3.604 8.361 -1.091 0.29
3.574 8.363 -1.089 0.29
3.547 8.372 -1.089 0.28
3.515 8.37 -1.087 0.26
3.482 8.365 -1.084 0.27
3.449 8.359 -1.082 0.25
3.433 8.359 -1.081 0.27
3.409 8.376 -1.082 0.25
3.376 8.37 -1.079 0.18
3.341 8.358 -1.076 0.42
3.319 8.38 -1.078 0.21
3.282 8.363 -1.073 0.23
3.239 8.369 -1.072 0.42
3.207 8.364 -1.07 0.23
3.178 8.369 -1.069 0.25
3.152 8.378 -1.069 0.25
3.117 8.364 -1.065 0.19
3.09 8.374 -1.065 0.43
3.061 8.374 -1.064 0.24
3.045 8.372 -1.063 0.2
3.015 8.372 -1.061 0.41
2.991 8.387 -1.062 0.21
2.961 8.387 -1.061 0.13
2.989 8.549 -1.084 0.0
2.974 8.592 -1.089 0.0
2.978 8.693 -1.103 0.0
2.986 8.804 -1.118 0.0
2.961 8.777 -1.113 0.06
2.928 8.769 -1.11 0.16
2.896 8.767 -1.109 0.09
2.868 8.772 -1.108 0.08
2.834 8.762 -1.105 0.09
2.795 8.737 -1.1 0.0
2.755 8.705 -1.094 0.0
2.738 8.699 -1.093 0.0
2.705 8.691 -1.09 0.0
2.674 8.686 -1.088 0.0
2.645 8.689 -1.087 0.0
2.615 8.69 -1.086 0.0
2.58 8.671 -1.082 0.0
2.555 8.687 -1.084 0.0
2.537 8.676 -1.081 0.0
2.511 8.687 -1.082 0.0
2.484 8.699 -1.082 0.0
2.457 8.707 -1.082 0.0
2.428 8.709 -1.082 0.0
2.399 8.711 -1.081 0.0
2.351 8.642 -1.07 0.0
2.243 8.353 -1.026 0.0
2.241 8.397 -1.032 0.12
2.214 8.402 -1.032 0.25
2.187 8.407 -1.031 0.19
2.158 8.406 -1.03 0.39
2.132 8.411 -1.03 0.23
2.107 8.423 -1.031 0.21
2.083 8.443 -1.033 0.0
2.062 8.412 -1.028 0.0
2.044 8.455 -1.033 0.0
2.03 8.513 -1.041 0.0
1.999 8.744 -1.072 0.41
1.969 8.741 -1.07 0.16
1.988 8.889 -1.091 0.19
1.95 8.846 -1.084 0.0
1.974 9.088 -1.118 0.0
1.972 9.217 -1.136 0.0
1.998 9.48 -1.173 0.0
1.981 9.547 -1.182 0.0
1.959 9.593 -1.188 0.1
2.901 14.373 -1.878 0.26
2.877 14.368 -1.876 0.29
2.837 14.406 -1.88 0.25
2.792 14.415 -1.88 0.3
2.752 14.451 -1.884 0.26
2.709 14.471 -1.886 0.23
2.658 14.454 -1.882 0.2
2.616 14.476 -1.884 0.48
2.603 14.535 -1.892 0.26
2.556 14.535 -1.891 0.3
2.509 14.539 -1.89 0.26
2.464 14.549 -1.891 0.2
2.418 14.556 -1.891 0.41
2.374 14.576 -1.892 0.21
2.331 14.599 -1.895 0.22
2.286 14.608 -1.895 0.41
2.26 14.598 -1.893 0.23
2.216 14.613 -1.894 0.19
2.172 14.631 -1.896 0.4
2.125 14.632 -1.895 0.24
2.08 14.649 -1.896 0.23
2.032 14.637 -1.894 0.37
1.99 14.675 -1.898 0.23
1.962 14.643 -1.893 0.23
1.917 14.653 -1.894 0.15
1.872 14.673 -1.896 0.38
1.827 14.68 -1.896 0.16
1.783 14.704 -1.899 0.3
1.733 14.684 -1.895 0.2
1.687 14.691 -1.895 0.27
1.662 14.674 -1.892 0.16
1.618 14.699 -1.895 0.43
1.572 14.702 -1.895 0.25
1.529 14.734 -1.899 0.23
1.483 14.743 -1.899 0.18
1.436 14.744 -1.899 0.42
1.39 14.754 -1.9 0.25
1.344 14.762 -1.9 0.2
1.322 14.772 -1.901 0.41
1.275 14.77 -1.901 0.25
1.229 14.776 -1.901 0.2
1.182 14.782 -1.901 0.41
1.136 14.794 -1.902 0.23
1.09 14.799 -1.902 0.27
1.044 14.808 -1.903 0.26
1.021 14.816 -1.904 0.23
0.974 14.813 -1.903 0.18
0.928 14.816 -1.903 0.42
0.881 14.819 -1.903 0.24
0.835 14.829 -1.904 0.2
0.789 14.84 -1.906 0.41
0.743 14.852 -1.907 0.24
0.696 14.847 -1.906 0.25
0.673 14.854 -1.907 0.2
0.626 14.858 -1.907 0.41
0.579 14.848 -1.905 0.25
0.532 14.837 -1.904 0.27
0.486 14.861 -1.907 0.19
0.439 14.858 -1.906 0.42
0.393 14.872 -1.908 0.24
0.369 14.87 -1.908 0.27
0.323 14.885 -1.909 0.2
0.276 14.89 -1.91 0.41
0.23 14.903 -1.912 0.25
0.183 14.891 -1.91 0.19
0.136 14.894 -1.91 0.41
0.089 14.902 -1.911 0.24
0.066 14.918 -1.914 0.2
0.019 14.904 -1.912 0.39
-0.028 14.902 -1.911 0.24
-0.075 14.908 -1.912 0.27
-0.121 14.908 -1.912 0.26
-0.168 14.925 -1.915 0.2
-0.215 14.915 -1.913 0.42
-0.262 14.926 -1.915 0.25
-0.286 14.92 -1.914 0.25
-0.332 14.915 -1.914 0.27
-0.379 14.919 -1.915 0.26
-0.426 14.918 -1.915 0.26
-0.473 14.911 -1.914 0.27
-0.52 14.901 -1.913 0.21
-0.566 14.9 -1.913 0.23
-0.589 14.873 -1.909 0.41
-0.636 14.883 -1.911 0.27
-0.683 14.897 -1.913 0.16
-0.728 14.847 -1.906 0.37
-0.777 14.898 -1.914 0.36
-0.824 14.901 -1.915 0.26
-0.871 14.889 -1.913 0.27
-0.896 14.925 -1.918 0.15
-0.938 14.845 -1.908 0.53
-0.991 14.939 -1.921 0.25
-1.04 14.955 -1.924 0.2
-1.086 14.942 -1.923 0.42
-1.133 14.939 -1.923 0.24
-1.18 14.943 -1.924 0.22
-1.226 14.923 -1.922 0.35
-1.252 14.955 -1.926 0.25
-1.299 14.945 -1.925 0.21
-1.346 14.943 -1.926 0.4
-1.393 14.947 -1.927 0.25
-1.44 14.936 -1.926 0.3
-1.486 14.926 -1.925 0.28
-1.534 14.935 -1.927 0.28
-1.557 14.926 -1.926 0.26
-1.605 14.931 -1.928 0.27
-1.651 14.916 -1.926 0.29
-1.7 14.931 -1.929 0.25
-1.747 14.929 -1.93 0.29
-1.791 14.898 -1.926 0.27
-1.839 14.896 -1.927 0.27
-1.863 14.903 -1.928 0.31
-1.911 14.903 -1.929 0.31
-1.953 14.862 -1.924 0.33
-1.993 14.803 -1.916 0.36
-2.002 14.525 -1.878 0.23
-2.017 14.299 -1.846 0.21
-2.051 14.215 -1.835 0.51
-2.11 14.308 -1.849 0.3
-2.111 14.156 -1.828 0.25
-2.163 14.204 -1.836 0.36
-2.225 14.305 -1.851 0.39
-2.247 14.155 -1.831 0.31
-2.301 14.208 -1.839 0.45
-2.343 14.183 -1.837 0.29
-2.393 14.209 -1.842 0.34
-2.429 14.287 -1.853 0.31
-2.464 14.219 -1.845 0.48
-2.512 14.229 -1.847 0.35
-2.546 14.166 -1.839 0.42
-2.579 14.092 -1.83 0.29
-2.633 14.135 -1.837 0.42
-2.677 14.128 -1.837 0.31
-2.721 14.114 -1.837 0.43
-2.75 14.148 -1.842 0.39
-2.808 14.21 -1.852 0.34
-2.842 14.146 -1.844 0.38
-2.881 14.11 -1.841 0.35
-2.927 14.107 -1.841 0.39
-2.979 14.138 -1.847 0.24
-3.03 14.16 -1.852 0.41
-3.046 14.124 -1.847 0.4
-3.106 14.186 -1.858 0.39
-3.143 14.142 -1.853 0.39
-3.179 14.095 -1.847 0.41
-3.246 14.185 -1.862 0.37
-3.286 14.154 -1.859 0.33
-3.314 14.076 -1.849 0.45
-3.37 14.116 -1.856 0.34
-3.408 14.176 -1.866 0.31
-3.442 14.121 -1.859 0.36
-3.513 14.217 -1.875 0.34
-3.545 14.154 -1.867 0.33
-3.595 14.166 -1.871 0.41
-3.62 14.078 -1.86 0.45
-3.696 14.189 -1.878 0.28
-3.695 14.094 -1.864 0.25
-3.741 14.091 -1.866 0.46
-3.814 14.187 -1.881 0.34
-3.933 14.448 -1.922 0.36
-3.91 14.187 -1.885 0.34
-3.932 14.095 -1.873 0.36
-3.961 14.027 -1.865 0.34
-3.997 14.07 -1.872 0.38
-4.034 14.033 -1.869 0.36
-4.082 14.032 -1.871 0.4
-4.145 14.085 -1.88 0.36
-4.214 14.156 -1.893 0.34
-4.273 14.192 -1.9 0.38
-4.345 14.269 -1.913 0.35
-4.376 14.21 -1.907 0.35
-4.4 14.207 -1.907 0.32
-4.435 14.163 -1.903 0.39
-4.491 14.185 -1.908 0.34
-4.532 14.161 -1.907 0.34
-4.582 14.162 -1.909 0.33
-4.635 14.176 -1.913 0.42
-4.693 14.201 -1.919 0.32
-4.718 14.203 -1.92 0.43
-4.784 14.252 -1.93 0.43
-4.834 14.252 -1.932 0.27
-4.872 14.218 -1.929 0.4
-4.907 14.174 -1.925 0.4
-4.931 14.099 -1.916 0.32
-4.974 14.079 -1.916 0.43
-5.031 14.099 -1.921 0.42
-5.081 14.17 -1.933 0.3
-5.12 14.141 -1.931 0.36
-5.168 14.132 -1.932 0.34
-5.202 14.089 -1.928 0.3
-5.26 14.11 -1.934 0.46
-5.312 14.112 -1.936 0.28
-5.35 14.079 -1.934 0.43
-5.394 14.13 -1.943 0.19
-5.415 14.052 -1.934 0.52
-5.471 14.064 -1.938 0.32
-5.506 14.023 -1.934 0.4
-5.567 14.05 -1.941 0.48
-5.631 14.082 -1.949 0.3
-5.687 14.093 -1.953 0.32
-5.713 14.094 -1.955 0.43
-5.76 14.083 -1.956 0.29
-5.808 14.074 -1.957 0.32
-5.866 14.089 -1.962 0.36
-5.914 14.079 -1.964 0.34
-5.97 14.09 -1.968 0.29
-6.004 14.045 -1.964 0.29
-6.063 14.063 -1.97 0.39
-6.1 14.086 -1.975 0.32
-6.145 14.07 -1.975 0.31
-6.193 14.058 -1.976 0.39
-6.259 14.088 -1.984 0.4
-6.303 14.068 -1.984 0.3
-6.339 14.03 -1.981 0.18
-6.385 14.015 -1.982 0.54
-6.397 13.982 -1.978 0.23
-6.438 13.956 -1.978 0.48
-6.509 13.995 -1.987 0.27
-6.553 13.975 -1.987 0.32
-6.601 13.963 -1.988 0.33
-6.646 13.944 -1.989 0.29
-6.69 13.923 -1.989 0.35
-6.717 13.923 -1.99 0.25
-6.759 13.899 -1.99 0.3
-6.812 13.897 -1.993 0.43
-6.868 13.9 -1.997 0.28
-6.92 13.896 -1.999 0.37
-6.95 13.846 -1.995 0.32
-6.992 13.823 -1.995 0.28
-7.031 13.792 -1.993 0.26
-7.059 13.793 -1.995 0.23
-7.097 13.76 -1.994 0.21
-7.139 13.736 -1.993 0.45
-7.184 13.717 -1.994 0.24
-7.234 13.707 -1.996 0.2
-7.279 13.687 -1.996 0.41
-7.321 13.663 -1.996 0.23
-7.359 13.631 -1.995 0.16
-7.392 13.64 -1.998 0.42
-7.431 13.61 -1.997 0.25
-7.479 13.597 -1.999 0.24
-7.521 13.572 -1.998 0.17
-7.574 13.567 -2.001 0.43
-7.619 13.548 -2.002 0.25
-7.659 13.519 -2.001 0.16
-7.689 13.523 -2.004 0.44
-7.728 13.492 -2.003 0.23
-7.776 13.478 -2.005 0.18
-7.826 13.467 -2.007 0.39
-7.877 13.458 -2.009 0.21
-7.923 13.438 -2.01 0.25
-7.965 13.413 -2.01 0.21
-7.988 13.404 -2.011 0.22
-8.038 13.392 -2.013 0.38
-8.089 13.382 -2.015 0.21
-8.128 13.352 -2.015 0.24
-8.172 13.329 -2.015 0.21
-8.219 13.312 -2.017 0.18
-8.271 13.303 -2.019 0.41
-8.313 13.277 -2.019 0.23
-8.336 13.267 -2.02 0.19
-8.387 13.256 -2.022 0.41
-8.435 13.24 -2.024 0.24
-8.484 13.225 -2.026 0.21
-8.529 13.203 -2.027 0.38
-8.574 13.181 -2.028 0.25
-8.616 13.156 -2.028 0.21
-8.637 13.142 -2.028 0.38
-8.679 13.117 -2.028 0.22
-8.728 13.101 -2.03 0.2
-8.773 13.08 -2.031 0.39
-8.812 13.049 -2.031 0.22
-8.869 13.044 -2.035 0.26
-8.904 13.008 -2.033 0.18
-8.948 12.985 -2.034 0.39
-8.973 12.978 -2.035 0.22
-9.016 12.953 -2.036 0.19
-9.058 12.926 -2.036 0.39
-9.102 12.902 -2.037 0.23
-9.146 12.878 -2.038 0.19
-9.191 12.856 -2.039 0.4
-9.228 12.822 -2.038 0.23
-9.254 12.816 -2.04 0.18
-9.304 12.801 -2.042 0.39
-9.342 12.769 -2.042 0.2
-9.387 12.746 -2.043 0.38
-9.426 12.714 -2.042 0.23
-9.463 12.682 -2.042 0.19
-9.513 12.664 -2.044 0.39
-9.532 12.65 -2.044 0.22
-9.565 12.61 -2.042 0.3
-9.615 12.594 -2.045 0.18
-9.667 12.58 -2.048 0.39
-9.712 12.557 -2.049 0.21
-9.747 12.52 -2.048 0.21
-9.791 12.496 -2.049 0.42
-9.828 12.462 -2.049 0.24
-9.852 12.453 -2.05 0.18
-9.9 12.432 -2.052 0.39
-9.938 12.4 -2.051 0.23
-9.989 12.384 -2.054 0.24
-10.027 12.351 -2.054 0.18
-10.088 12.347 -2.059 0.45
-10.146 12.338 -2.063 0.21
-10.161 12.318 -2.062 0.25
-10.196 12.281 -2.061 0.18
-10.245 12.261 -2.064 0.21
-10.274 12.218 -2.062 0.19
-10.321 12.196 -2.064 0.21
-10.367 12.173 -2.065 0.19
-10.409 12.145 -2.066 0.3
-10.426 12.126 -2.066 0.2
-10.461 12.09 -2.065 0.18
-10.501 12.058 -2.065 0.22
-10.536 12.022 -2.065 0.19
-10.589 12.007 -2.068 0.23
-10.619 11.965 -2.066 0.2
-10.668 11.945 -2.069 0.21
-10.707 11.913 -2.069 0.18
-10.735 11.906 -2.071 0.22
-10.771 11.871 -2.071 0.2
-10.812 11.841 -2.072 0.21
-10.87 11.829 -2.076 0.18
-10.903 11.791 -2.075 0.23
-10.945 11.762 -2.076 0.19
-11.0 11.746 -2.08 0.22
-11.028 11.739 -2.082 0.18
-11.067 11.707 -2.082 0.33
-11.102 11.671 -2.082 0.21
-11.125 11.622 -2.079 0.18
-11.177 11.603 -2.082 0.22
-11.217 11.572 -2.083 0.18
-11.244 11.527 -2.081 0.32
-11.29 11.501 -2.083 0.2
-11.312 11.488 -2.084 0.18
-11.347 11.451 -2.084 0.23
-11.381 11.413 -2.084 0.18
-11.424 11.385 -2.085 0.21
-11.46 11.349 -2.085 0.18
-11.511 11.328 -2.088 0.22
-11.541 11.286 -2.087 0.18
-11.571 11.28 -2.089 0.21
-11.604 11.241 -2.089 0.19
-11.653 11.219 -2.092 0.21
-11.697 11.19 -2.093 0.18
-11.741 11.161 -2.095 0.34
-11.783 11.131 -2.096 0.2
-11.818 11.094 -2.096 0.24
-11.858 11.063 -2.098 0.2
-11.887 11.055 -2.1 0.21
-11.923 11.019 -2.1 0.19
-11.967 10.989 -2.102 0.22
-12.007 10.957 -2.103 0.18
-12.041 10.919 -2.103 0.33
-12.083 10.888 -2.104 0.2
-12.117 10.85 -2.104 0.34
-12.145 10.84 -2.106 0.18
-12.193 10.815 -2.109 0.35
-12.247 10.794 -2.113 0.2
-12.279 10.754 -2.112 0.32
-12.325 10.726 -2.115 0.19
-12.36 10.688 -2.115 0.34
-12.401 10.656 -2.116 0.2
-12.407 10.627 -2.114 0.18
-12.455 10.601 -2.117 0.45
-12.516 10.585 -2.122 0.18
-12.563 10.557 -2.125 0.37
-12.603 10.524 -2.126 0.22
-12.636 10.484 -2.126 0.19
-12.681 10.455 -2.128 0.41
-12.698 10.435 -2.128 0.23
-12.741 10.404 -2.13 0.18
-12.785 10.372 -2.132 0.39
-12.816 10.331 -2.132 0.23
-12.854 10.295 -2.133 0.16
-12.897 10.264 -2.135 0.42
-12.929 10.223 -2.135 0.23
-12.954 10.176 -2.134 0.18
-12.967 10.153 -2.133 0.4
-12.989 10.105 -2.132 0.23
-13.032 10.073 -2.133 0.23
-13.079 10.044 -2.136 0.27
-13.14 10.026 -2.142 0.29
-13.217 10.019 -2.15 0.27
-13.28 10.002 -2.155 0.4
-13.313 9.994 -2.158 0.36
-13.369 9.97 -2.163 0.27
-13.467 9.977 -2.174 0.5
-13.507 9.942 -2.176 0.23
-13.542 9.902 -2.177 0.48
-13.538 9.834 -2.17 0.25
-13.525 9.76 -2.163 0.18
-13.526 9.728 -2.16 0.4
-13.518 9.658 -2.154 0.24
-13.509 9.588 -2.147 0.16
-13.523 9.534 -2.144 0.43
-13.543 9.484 -2.142 0.23
-13.539 9.418 -2.137 0.17
-13.559 9.369 -2.135 0.43
-13.564 9.309 -2.131 0.25
-13.572 9.283 -2.13 0.19
-13.588 9.232 -2.127 0.39
-13.577 9.162 -2.121 0.23
-13.591 9.11 -2.118 0.16
-13.62 9.067 -2.118 0.43
-13.625 9.009 -2.114 0.23
-13.64 8.957 -2.112 0.19
-13.644 8.929 -2.11 0.39
-13.644 8.868 -2.105 0.22
-13.652 8.812 -2.102 0.17
-13.681 8.77 -2.102 0.39
-13.687 8.713 -2.099 0.2
-13.693 8.657 -2.095 0.38
-13.715 8.61 -2.094 0.23
-13.713 8.579 -2.092 0.19
-13.745 8.539 -2.093 0.39
-13.76 8.489 -2.091 0.23
-13.788 8.447 -2.091 0.18
-13.795 8.391 -2.088 0.39
-13.817 8.345 -2.087 0.2
-13.842 8.301 -2.087 0.38
-13.847 8.245 -2.083 0.23
-13.854 8.219 -2.082 0.18
-13.873 8.172 -2.081 0.39
-13.885 8.12 -2.079 0.23
-13.893 8.066 -2.076 0.18
-13.922 8.025 -2.077 0.42
-13.935 7.974 -2.075 0.23
-13.954 7.927 -2.074 0.18
-13.955 7.899 -2.072 0.39
-13.969 7.849 -2.07 0.23
-13.989 7.802 -2.069 0.17
-14.022 7.763 -2.071 0.39
-14.036 7.713 -2.069 0.18
-14.06 7.669 -2.069 0.38
-14.094 7.63 -2.071 0.19
-14.116 7.585 -2.07 0.38
-14.125 7.561 -2.07 0.18
-14.136 7.51 -2.068 0.38
-14.156 7.464 -2.067 0.2
-14.169 7.414 -2.066 0.34
-14.201 7.374 -2.067 0.2
-14.205 7.319 -2.064 0.34
-14.233 7.277 -2.065 0.19
-14.232 7.249 -2.063 0.34
-14.248 7.2 -2.062 0.18
-14.247 7.144 -2.058 0.35
-14.25 7.089 -2.055 0.19
-14.26 7.038 -2.053 0.23
-14.263 6.984 -2.05 0.2
-14.279 6.936 -2.049 0.22
-14.285 6.911 -2.048 0.18
-14.299 6.863 -2.047 0.21
-14.306 6.811 -2.045 0.18
-14.31 6.758 -2.042 0.13
-14.313 6.704 -2.039 0.17
-14.339 6.662 -2.04 0.31
-14.349 6.612 -2.038 0.19
-14.371 6.594 -2.04 0.18
-14.366 6.538 -2.036 0.17
-14.369 6.484 -2.033 0.16
-14.391 6.44 -2.034 0.16
-14.391 6.386 -2.031 0.17
-14.398 6.335 -2.029 0.17
-14.418 6.29 -2.029 0.17
-14.424 6.265 -2.028 0.16
-14.437 6.217 -2.027 0.16
-14.451 6.169 -2.026 0.16
-14.45 6.115 -2.023 0.17
-14.467 6.069 -2.023 0.16
-14.483 6.022 -2.022 0.16
-14.472 5.964 -2.018 0.23
-14.48 5.914 -2.016 0.11
-14.496 5.895 -2.017 0.15
-14.496 5.842 -2.014 0.16
-14.489 5.786 -2.01 0.09
-14.507 5.74 -2.01 0.14
-14.501 5.685 -2.007 0.17
-14.524 5.642 -2.008 0.16
-14.516 5.586 -2.004 0.13
-14.514 5.559 -2.002 0.17
-14.524 5.511 -2.001 0.21
-14.517 5.456 -1.997 0.2
-14.534 5.41 -1.997 0.21
-14.532 5.358 -1.994 0.2
-14.549 5.312 -1.994 0.3
-14.56 5.264 -1.994 0.21
-14.558 5.212 -1.991 0.18
-14.566 5.189 -1.991 0.21
-14.592 5.146 -1.992 0.17
-14.576 5.089 -1.987 0.13
-14.598 5.045 -1.988 0.17
-14.604 4.996 -1.987 0.12
-14.603 4.945 -1.984 0.16
-14.63 4.903 -1.986 0.28
-14.626 4.876 -1.984 0.27
-14.643 4.83 -1.985 0.26
-14.643 4.779 -1.982 0.25
-14.647 4.73 -1.981 0.26
-14.654 4.681 -1.98 0.25
-14.652 4.63 -1.977 0.11
-14.661 4.582 -1.976 0.15
-14.662 4.557 -1.975 0.12
-14.657 4.505 -1.973 0.15
-14.662 4.456 -1.971 0.12
-14.651 4.403 -1.968 0.16
-14.656 4.354 -1.966 0.12
-14.658 4.304 -1.964 0.17
-14.654 4.253 -1.962 0.29
-14.646 4.226 -1.96 0.2
-14.649 4.177 -1.958 0.18
-14.601 4.114 -1.949 0.21
-14.601 4.064 -1.947 0.3
-14.594 4.013 -1.945 0.34
-14.599 3.965 -1.943 0.32
-14.602 3.917 -1.942 0.27
-14.555 3.855 -1.933 0.55
-14.63 3.85 -1.943 0.24
-14.644 3.805 -1.944 0.18
-14.639 3.754 -1.941 0.39
-14.641 3.706 -1.94 0.22
-14.648 3.659 -1.939 0.18
-14.673 3.616 -1.941 0.4
-14.69 3.572 -1.942 0.24
-14.709 3.552 -1.944 0.17
-14.732 3.508 -1.946 0.4
-14.735 3.46 -1.945 0.22
-14.758 3.417 -1.946 0.21
-14.782 3.373 -1.948 0.27
-14.794 3.327 -1.948 0.21
-14.816 3.283 -1.95 0.21
-14.837 3.263 -1.952 0.38
-14.841 3.216 -1.952 0.19
-14.855 3.17 -1.952 0.38
-14.861 3.122 -1.952 0.16
-14.886 3.079 -1.954 0.39
-14.91 3.035 -1.956 0.17
-14.917 2.988 -1.955 0.37
-14.934 2.942 -1.957 0.17
-14.95 2.921 -1.958 0.37
-14.963 2.875 -1.959 0.19
-14.982 2.83 -1.96 0.38
-14.995 2.783 -1.961 0.2
-14.998 2.735 -1.96 0.23
-15.01 2.689 -1.961 0.2
-15.016 2.641 -1.96 0.17
-15.034 2.62 -1.962 0.39
-15.04 2.572 -1.962 0.18
-15.056 2.526 -1.963 0.38
-15.052 2.477 -1.961 0.18
-15.068 2.431 -1.962 0.37
-15.079 2.384 -1.963 0.19
-15.085 2.337 -1.963 0.37
-15.092 2.314 -1.963 0.23
-15.106 2.267 -1.964 0.21
-15.12 2.221 -1.965 0.38
-15.137 2.175 -1.967 0.23
-15.13 2.125 -1.965 0.18
-15.145 2.079 -1.966 0.39
-15.165 2.033 -1.968 0.25
-15.163 1.984 -1.967 0.18
-15.186 1.963 -1.969 0.4
-15.192 1.915 -1.969 0.23
-15.214 1.87 -1.972 0.18
-15.223 1.822 -1.972 0.4
-15.243 1.776 -1.974 0.18
-15.246 1.728 -1.974 0.36
-15.25 1.68 -1.974 0.18
-15.27 1.658 -1.976 0.37
-15.279 1.61 -1.977 0.18
-15.278 1.562 -1.976 0.36
-15.307 1.516 -1.979 0.2
-15.298 1.467 -1.977 0.23
-15.298 1.418 -1.977 0.19
-15.322 1.372 -1.98 0.23
-15.326 1.348 -1.98 0.18
-15.337 1.3 -1.981 0.23
-15.35 1.253 -1.982 0.21
-15.358 1.205 -1.983 0.23
-15.368 1.157 -1.983 0.2
-15.377 1.109 -1.984 0.22
-15.369 1.06 -1.983 0.19
-15.372 1.012 -1.983 0.21
-15.37 0.988 -1.982 0.2
-15.387 0.94 -1.984 0.23
-15.391 0.892 -1.984 0.19
-15.414 0.845 -1.987 0.22
-15.436 0.797 -1.99 0.18
-15.441 0.749 -1.99 0.34
-15.441 0.7 -1.99 0.2
-15.468 0.677 -1.994 0.16
-15.458 0.628 -1.992 0.13
-15.46 0.58 -1.992 0.18
-15.476 0.531 -1.994 0.29
-15.497 0.484 -1.997 0.18
-15.494 0.435 -1.996 0.17
-15.513 0.386 -1.999 0.17
-15.517 0.338 -1.999 0.16
-15.537 0.314 -2.002 0.16
-15.532 0.265 -2.001 0.16
-15.546 0.216 -2.003 0.17
-15.543 0.167 -2.002 0.23
-15.548 0.119 -2.003 0.25
-15.544 0.07 -2.002 0.26
-15.544 0.021 -2.002 0.26
-15.548 -0.003 -2.003 0.18
-15.532 -0.052 -2.001 0.18
-15.52 -0.101 -1.999 0.19
-15.529 -0.15 -2.0 0.22
-15.531 -0.199 -2.001 0.19
-15.528 -0.247 -2.0 0.23
-15.515 -0.296 -1.999 0.2
-15.541 -0.321 -2.002 0.21
-15.528 -0.369 -2.001 0.19
-15.544 -0.419 -2.003 0.23
-15.541 -0.467 -2.003 0.19
-15.549 -0.517 -2.004 0.23
-15.544 -0.565 -2.004 0.21
-15.552 -0.614 -2.005 0.22
-15.554 -0.663 -2.006 0.18
-15.566 -0.688 -2.008 0.23
-15.556 -0.737 -2.006 0.19
-15.419 -0.779 -1.987 0.22
-15.427 -0.828 -1.989 0.18
-15.408 -0.876 -1.987 0.14
-15.403 -0.9 -1.986 0.17
-15.408 -0.949 -1.987 0.12
-15.421 -0.998 -1.989 0.17
-15.433 -1.048 -1.992 0.27
-15.44 -1.097 -1.993 0.27
-15.446 -1.146 -1.994 0.25
-15.448 -1.195 -1.995 0.27
-15.448 -1.219 -1.996 0.25
-15.441 -1.268 -1.995 0.11
-15.429 -1.315 -1.994 0.15
-15.434 -1.365 -1.995 0.11
-15.428 -1.413 -1.995 0.14
-15.423 -1.461 -1.995 0.12
-15.423 -1.51 -1.996 0.18
-15.43 -1.56 -1.997 0.22
-15.421 -1.584 -1.996 0.18
-15.406 -1.631 -1.995 0.34
-15.413 -1.681 -1.997 0.19
-15.414 -1.73 -1.998 0.38
-15.414 -1.779 -1.998 0.19
-15.428 -1.83 -2.001 0.37
-15.444 -1.881 -2.004 0.22
-15.521 -1.915 -2.016 0.34
-15.549 -1.968 -2.02 0.21
-15.535 -2.015 -2.019 0.23
-15.528 -2.064 -2.019 0.21
-15.206 -2.07 -1.974 0.31
-14.769 -2.059 -1.913 0.2
-14.49 -2.067 -1.874 0.13
-14.485 -2.09 -1.874 0.17
-14.467 -2.133 -1.872 0.12
-14.583 -2.197 -1.89 0.32
-14.567 -2.241 -1.888 0.21
-14.661 -2.303 -1.903 0.24
-14.619 -2.343 -1.898 0.34
-14.613 -2.39 -1.898 0.25
-14.555 -2.404 -1.89 0.26
-14.5 -2.442 -1.883 0.17
-14.44 -2.478 -1.876 0.42
-14.549 -2.544 -1.893 0.19
-14.451 -2.574 -1.88 0.32
-14.63 -2.653 -1.907 0.27
-14.671 -2.708 -1.914 0.11
-14.693 -2.759 -1.918 0.09
-14.763 -2.796 -1.929 0.14
-14.801 -2.852 -1.936 0.09
-14.753 -2.891 -1.93 0.14
-14.825 -2.953 -1.942 0.17
-14.806 -2.998 -1.94 0.18
-14.721 -3.029 -1.929 0.16
-14.449 -3.021 -1.892 0.17
-14.613 -3.079 -1.916 0.16
-14.408 -3.083 -1.888 0.0
-14.042 -3.052 -1.836 0.0
-13.727 -3.029 -1.792 0.0
-14.894 -3.382 -1.964 0.0
-14.786 -3.407 -1.95 0.0
-14.814 -3.462 -1.955 0.0
-14.922 -3.512 -1.972 0.0
-14.882 -3.552 -1.968 0.13
-14.946 -3.617 -1.979 0.1
-14.964 -3.671 -1.983 0.0
-14.933 -3.713 -1.98 0.14
-14.983 -3.775 -1.989 0.12
-14.971 -3.822 -1.989 0.18
-14.944 -3.841 -1.986 0.31
-14.966 -3.896 -1.991 0.2
-14.925 -3.936 -1.987 0.18
-14.941 -3.99 -1.991 0.34
-14.919 -4.035 -1.99 0.18
-14.956 -4.095 -1.997 0.27
-14.882 -4.125 -1.988 0.2
-14.776 -4.121 -1.973 0.29
-14.826 -4.185 -1.983 0.26
-14.792 -4.226 -1.98 0.2
-14.845 -4.291 -1.989 0.14
-14.851 -4.343 -1.992 0.15
-14.748 -4.364 -1.979 0.16
-14.674 -4.443 -1.972 0.52
-14.578 -4.439 -1.959 0.27
-14.587 -4.492 -1.962 0.12
-14.497 -4.514 -1.951 0.45
-14.267 -4.492 -1.919 0.18
-14.285 -4.547 -1.924 0.18
-14.275 -4.593 -1.925 0.16
-14.1 -4.586 -1.901 0.13
-13.942 -4.559 -1.878 0.17
-13.728 -4.538 -1.849 0.12
-13.498 -4.509 -1.816 0.0
-13.394 -4.521 -1.803 0.0
-14.245 -4.907 -1.935 0.31
-14.198 -4.94 -1.93 0.2
-14.278 -4.993 -1.943 0.33
-14.085 -4.976 -1.916 0.22
-14.053 -5.014 -1.914 0.26
-13.942 -5.024 -1.9 0.29
-13.911 -5.062 -1.897 0.2
-13.858 -5.093 -1.892 0.22
-13.795 -5.119 -1.885 0.41
-13.698 -5.108 -1.871 0.22
-13.725 -5.167 -1.878 0.23
-13.638 -5.183 -1.867 0.35
-13.564 -5.204 -1.858 0.27
-13.431 -5.202 -1.841 0.22
-13.402 -5.239 -1.839 0.27
-13.308 -5.251 -1.827 0.19
-13.223 -5.265 -1.817 0.12
-13.27 -5.308 -1.825 0.45
-13.127 -5.299 -1.806 0.24
-13.176 -5.367 -1.816 0.14
-13.236 -5.44 -1.828 0.45
-13.193 -5.471 -1.824 0.23
-13.264 -5.549 -1.837 0.3
-13.173 -5.56 -1.826 0.13
-13.134 -5.567 -1.821 0.19
-13.486 -5.766 -1.878 0.17
-13.47 -5.809 -1.878 0.12
-13.393 -5.826 -1.869 0.16
-13.44 -5.897 -1.879 0.2
-13.431 -5.943 -1.881 0.38
-13.43 -5.993 -1.884 0.22
-13.415 -6.037 -1.884 0.34
-13.327 -6.023 -1.872 0.27
-13.227 -6.028 -1.86 0.11
-13.171 -6.052 -1.854 0.16
-13.087 -6.064 -1.844 0.29
-12.985 -6.066 -1.831 0.19
-12.871 -6.062 -1.816 0.17
-12.759 -6.059 -1.801 0.17
-12.658 -6.036 -1.787 0.16
-12.533 -6.025 -1.77 0.1
-12.4 -6.009 -1.752 0.16
-12.294 -6.006 -1.739 0.0
-12.179 -5.997 -1.724 0.0
-12.089 -6.0 -1.712 0.05
-13.354 -6.677 -1.915 0.11
-13.329 -6.691 -1.913 0.31
-13.342 -6.75 -1.918 0.31
-13.338 -6.801 -1.921 0.25
-13.306 -6.837 -1.92 0.31
-13.242 -6.857 -1.913 0.28
-13.247 -6.913 -1.917 0.26
-13.22 -6.951 -1.916 0.27
-13.216 -6.976 -1.917 0.32
-13.187 -7.014 -1.916 0.32
-13.214 -7.081 -1.924 0.25
-13.171 -7.111 -1.921 0.3
-13.136 -7.146 -1.919 0.18
-13.073 -7.165 -1.912 0.48
-13.063 -7.213 -1.914 0.21
-13.072 -7.271 -1.919 0.16
-13.036 -7.279 -1.915 0.48
-13.035 -7.332 -1.919 0.24
-12.907 -7.314 -1.902 0.26
-12.941 -7.386 -1.911 0.26
-12.954 -7.448 -1.917 0.24
-12.915 -7.479 -1.915 0.18
-12.842 -7.491 -1.906 0.17
-12.686 -7.427 -1.883 0.16
-12.601 -7.431 -1.873 0.31
-12.597 -7.482 -1.876 0.26
-12.566 -7.517 -1.875 0.26
-12.498 -7.53 -1.867 0.2
-12.419 -7.536 -1.858 0.19
-12.341 -7.542 -1.849 0.22
-12.239 -7.533 -1.836 0.19
-12.172 -7.518 -1.827 0.21
-12.081 -7.514 -1.816 0.19
-12.0 -7.517 -1.806 0.21
-11.901 -7.507 -1.794 0.19
-11.825 -7.511 -1.785 0.3
-11.715 -7.493 -1.77 0.2
-11.616 -7.482 -1.758 0.18
-11.533 -7.454 -1.746 0.0
-11.453 -7.454 -1.736 0.0
-11.376 -7.455 -1.727 0.0
-11.312 -7.463 -1.72 0.04
-12.196 -8.1 -1.874 0.11
-12.08 -8.078 -1.859 0.25
-12.071 -8.127 -1.862 0.37
-12.016 -8.117 -1.855 0.25
-11.948 -8.126 -1.847 0.38
-11.868 -8.126 -1.838 0.22
-11.834 -8.158 -1.837 0.28
-11.765 -8.165 -1.829 0.25
-11.784 -8.233 -1.837 0.47
-11.754 -8.267 -1.836 0.22
-11.687 -8.248 -1.827 0.42
-11.616 -8.252 -1.819 0.21
-11.521 -8.239 -1.807 0.24
-11.45 -8.243 -1.799 0.21
-11.366 -8.237 -1.789 0.17
-11.292 -8.238 -1.781 0.39
-11.234 -8.25 -1.775 0.22
-11.157 -8.221 -1.764 0.18
-11.088 -8.224 -1.756 0.43
-11.013 -8.222 -1.747 0.23
-10.933 -8.217 -1.738 0.19
-10.862 -8.216 -1.73 0.39
-10.784 -8.211 -1.721 0.25
-10.711 -8.209 -1.712 0.26
-10.642 -8.21 -1.705 0.2
-10.597 -8.201 -1.699 0.39
-10.555 -8.222 -1.696 0.21
-10.517 -8.246 -1.694 0.33
-10.523 -8.304 -1.699 0.19
-10.592 -8.412 -1.717 0.2
-10.64 -8.505 -1.73 0.43
-10.619 -8.543 -1.731 0.32
-10.578 -8.537 -1.726 0.32
-10.503 -8.532 -1.717 0.25
-10.42 -8.519 -1.707 0.45
-10.416 -8.57 -1.711 0.26
-10.386 -8.6 -1.711 0.26
-10.344 -8.62 -1.708 0.45
-10.309 -8.646 -1.707 0.27
-10.229 -8.607 -1.694 0.35
-10.203 -8.64 -1.694 0.41
-10.201 -8.694 -1.699 0.41
-10.154 -8.709 -1.696 0.25
-10.132 -8.745 -1.696 0.33
-10.038 -8.72 -1.684 0.32
-9.938 -8.687 -1.67 0.32
-9.936 -8.713 -1.673 0.38
-9.929 -8.763 -1.677 0.45
-9.835 -8.735 -1.664 0.24
-9.865 -8.817 -1.675 0.38
-9.83 -8.841 -1.673 0.32
-9.786 -8.858 -1.67 0.34
-9.717 -8.851 -1.662 0.3
-9.591 -8.792 -1.644 0.33
-9.599 -8.827 -1.648 0.31
-9.483 -8.776 -1.631 0.34
-9.458 -8.808 -1.631 0.46
-9.453 -8.859 -1.636 0.32
-9.397 -8.862 -1.63 0.3
-9.379 -8.901 -1.632 0.3
-9.308 -8.889 -1.624 0.36
-9.239 -8.852 -1.613 0.36
-9.194 -8.864 -1.61 0.33
-9.208 -8.933 -1.618 0.27
-9.116 -8.9 -1.605 0.44
-9.074 -8.915 -1.602 0.35
-9.092 -8.989 -1.612 0.32
-9.027 -8.981 -1.604 0.37
-8.85 -8.834 -1.572 0.3
-8.915 -8.954 -1.59 0.32
-8.936 -9.031 -1.6 0.3
-8.861 -9.012 -1.591 0.34
-8.818 -9.025 -1.588 0.37
-8.763 -9.025 -1.583 0.37
-8.717 -9.034 -1.579 0.38
-8.681 -9.055 -1.578 0.34
-8.656 -9.057 -1.575 0.38
-8.655 -9.113 -1.581 0.33
-8.656 -9.171 -1.587 0.36
-8.611 -9.181 -1.584 0.38
-8.517 -9.139 -1.57 0.28
-8.526 -9.206 -1.578 0.37
-8.488 -9.223 -1.576 0.29
-8.479 -9.242 -1.577 0.3
-8.466 -9.286 -1.581 0.46
-8.429 -9.304 -1.579 0.27
-8.375 -9.304 -1.574 0.37
-8.32 -9.301 -1.568 0.3
-8.302 -9.34 -1.571 0.32
-8.265 -9.357 -1.569 0.38
-8.242 -9.361 -1.567 0.3
-8.159 -9.326 -1.556 0.32
-8.121 -9.341 -1.554 0.36
-8.119 -9.398 -1.56 0.33
-8.01 -9.332 -1.543 0.32
-8.031 -9.416 -1.554 0.35
-8.016 -9.457 -1.557 0.25
-7.892 -9.342 -1.533 0.47
-7.892 -9.401 -1.539 0.3
-7.866 -9.431 -1.54 0.36
-7.776 -9.382 -1.527 0.34
-7.784 -9.452 -1.535 0.3
-7.769 -9.495 -1.539 0.36
-7.694 -9.464 -1.528 0.34
-7.663 -9.487 -1.528 0.32
-7.573 -9.405 -1.511 0.3
-7.673 -9.591 -1.541 0.35
-7.634 -9.604 -1.539 0.32
-7.612 -9.637 -1.54 0.37
-7.592 -9.675 -1.543 0.34
-7.495 -9.613 -1.527 0.29
-7.454 -9.623 -1.525 0.23
-7.489 -9.7 -1.537 0.41
-7.407 -9.656 -1.525 0.31
-7.419 -9.734 -1.534 0.26
-7.378 -9.745 -1.532 0.49
-7.105 -9.447 -1.475 0.22
-7.342 -9.824 -1.538 0.32
-7.306 -9.841 -1.537 0.36
-7.247 -9.794 -1.527 0.39
-7.196 -9.789 -1.522 0.25
-7.171 -9.82 -1.523 0.31
-7.062 -9.735 -1.504 0.36
-7.06 -9.796 -1.511 0.29
-7.124 -9.95 -1.534 0.3
-7.037 -9.895 -1.521 0.3
-6.985 -9.888 -1.516 0.27
-6.952 -9.873 -1.511 0.38
-6.973 -9.969 -1.524 0.29
-6.859 -9.872 -1.504 0.35
-6.923 -10.031 -1.527 0.27
-6.795 -9.914 -1.503 0.31
-6.729 -9.883 -1.494 0.49
-6.775 -10.018 -1.514 0.24
-6.726 -9.98 -1.505 0.3
-6.774 -10.119 -1.526 0.23
-6.79 -10.211 -1.538 0.38
-6.722 -10.178 -1.528 0.29
-6.685 -10.193 -1.527 0.25
-6.653 -10.214 -1.527 0.36
-6.634 -10.254 -1.531 0.38
-6.582 -10.21 -1.521 0.29
-6.549 -10.229 -1.521 0.37
-6.546 -10.294 -1.529 0.3
-6.432 -10.186 -1.507 0.32
-6.398 -10.203 -1.507 0.38
-6.41 -10.294 -1.518 0.34
-6.349 -10.268 -1.511 0.31
-6.367 -10.334 -1.52 0.33
-6.304 -10.303 -1.512 0.32
-6.281 -10.338 -1.514 0.29
-6.227 -10.322 -1.508 0.42
-6.208 -10.365 -1.512 0.3
-6.167 -10.37 -1.51 0.37
-6.125 -10.374 -1.507 0.34
-6.128 -10.453 -1.517 0.34
-6.116 -10.471 -1.518 0.33
-6.077 -10.48 -1.517 0.27
-6.038 -10.488 -1.515 0.41
-6.001 -10.5 -1.514 0.27
-5.969 -10.521 -1.514 0.33
-5.932 -10.533 -1.513 0.36
-5.833 -10.434 -1.494 0.35
-5.779 -10.376 -1.483 0.29
-5.753 -10.406 -1.485 0.35
-5.753 -10.483 -1.495 0.26
-5.727 -10.513 -1.497 0.43
-5.681 -10.507 -1.493 0.26
-5.638 -10.507 -1.49 0.38
-5.595 -10.505 -1.487 0.3
-5.609 -10.572 -1.496 0.38
-5.57 -10.579 -1.494 0.34
-5.505 -10.535 -1.484 0.32
-5.492 -10.591 -1.491 0.29
-5.446 -10.583 -1.487 0.35
-5.413 -10.602 -1.487 0.36
-5.372 -10.603 -1.484 0.32
-5.368 -10.637 -1.488 0.27
-5.304 -10.593 -1.479 0.32
-5.242 -10.553 -1.47 0.36
-5.212 -10.575 -1.471 0.2
-5.178 -10.589 -1.47 0.49
-5.162 -10.641 -1.476 0.25
-5.103 -10.604 -1.468 0.39
-5.07 -10.622 -1.468 0.29
-5.058 -10.639 -1.469 0.32
-5.023 -10.653 -1.469 0.33
-4.991 -10.67 -1.469 0.34
-4.971 -10.714 -1.474 0.36
-4.929 -10.714 -1.471 0.3
-4.879 -10.693 -1.466 0.32
-4.866 -10.754 -1.473 0.32
-4.849 -10.761 -1.473 0.34
-4.823 -10.794 -1.475 0.25
-4.735 -10.688 -1.457 0.4
-4.709 -10.72 -1.459 0.37
-4.649 -10.674 -1.45 0.3
-4.626 -10.713 -1.454 0.3
-4.59 -10.722 -1.453 0.29
-4.589 -10.765 -1.458 0.38
-4.538 -10.739 -1.452 0.25
-4.52 -10.792 -1.458 0.38
-4.495 -10.828 -1.461 0.31
-4.474 -10.873 -1.466 0.28
-4.415 -10.827 -1.457 0.32
-4.4 -10.886 -1.464 0.31
-4.394 -10.921 -1.468 0.3
-4.361 -10.938 -1.469 0.34
-4.286 -10.849 -1.453 0.22
-4.281 -10.936 -1.464 0.35
-4.202 -10.837 -1.447 0.27
-4.196 -10.922 -1.458 0.4
-4.157 -10.922 -1.456 0.34
-4.134 -10.967 -1.461 0.34
-4.09 -10.901 -1.45 0.2
-4.09 -11.006 -1.464 0.39
-4.067 -11.049 -1.468 0.25
-3.97 -10.893 -1.443 0.31
-3.94 -10.918 -1.445 0.34
-3.936 -11.012 -1.457 0.27
-3.894 -11.004 -1.454 0.42
-3.89 -11.049 -1.46 0.24
-3.853 -11.054 -1.459 0.35
-3.812 -11.049 -1.456 0.25
-3.777 -11.059 -1.456 0.43
-3.766 -11.142 -1.467 0.27
-3.692 -11.036 -1.449 0.29
-3.655 -11.042 -1.448 0.38
-3.641 -11.059 -1.45 0.32
-3.615 -11.097 -1.454 0.34
-3.572 -11.082 -1.45 0.3
-3.543 -11.112 -1.453 0.27
-3.508 -11.121 -1.453 0.25
-3.476 -11.143 -1.454 0.26
-3.411 -11.056 -1.44 0.36
-3.403 -11.091 -1.444 0.18
-3.361 -11.079 -1.441 0.5
-3.405 -11.351 -1.479 0.23
-3.326 -11.216 -1.458 0.22
-3.263 -11.135 -1.444 0.31
-3.218 -11.109 -1.439 0.29
-3.164 -11.054 -1.43 0.31
-3.153 -11.082 -1.433 0.26
-3.106 -11.046 -1.426 0.35
-3.087 -11.113 -1.435 0.23
-3.018 -10.999 -1.416 0.39
-3.004 -11.083 -1.427 0.32
-2.984 -11.149 -1.436 0.22
-2.956 -11.186 -1.44 0.4
-2.914 -11.168 -1.436 0.34
-2.884 -11.125 -1.429 0.32
-2.86 -11.176 -1.435 0.36
-2.828 -11.196 -1.437 0.31
-2.769 -11.113 -1.423 0.23
-2.763 -11.237 -1.44 0.39
-2.72 -11.215 -1.435 0.32
-2.682 -11.21 -1.433 0.3
-2.659 -11.191 -1.43 0.32
-2.61 -11.141 -1.422 0.29
-2.578 -11.165 -1.424 0.32
-2.54 -11.159 -1.422 0.34
-2.498 -11.135 -1.417 0.27
-2.481 -11.224 -1.429 0.2
-2.466 -11.326 -1.443 0.46
-2.429 -11.241 -1.43 0.29
-2.386 -11.214 -1.425 0.28
-2.354 -11.235 -1.427 0.3
-2.305 -11.176 -1.417 0.31
-2.267 -11.17 -1.415 0.26
-2.235 -11.192 -1.417 0.32
-2.208 -11.242 -1.424 0.36
-2.176 -11.174 -1.413 0.33
-2.156 -11.256 -1.424 0.33
-2.104 -11.173 -1.411 0.29
-2.067 -11.172 -1.41 0.3
-2.028 -11.157 -1.407 0.22
-2.005 -11.23 -1.417 0.26
-1.979 -11.287 -1.424 0.38
-1.955 -11.255 -1.419 0.29
-1.935 -11.352 -1.432 0.25
-1.886 -11.278 -1.421 0.21
-1.845 -11.249 -1.415 0.28
-1.791 -11.143 -1.4 0.52
-1.775 -11.264 -1.416 0.22
-1.719 -11.143 -1.398 0.27
-1.479 -9.711 -1.192 0.35
-1.431 -9.6 -1.176 0.27
-1.395 -9.563 -1.17 0.29
-1.361 -9.54 -1.166 0.32
-1.334 -9.566 -1.169 0.31
-1.302 -9.559 -1.167 0.38
-1.271 -9.555 -1.166 0.23
-1.242 -9.565 -1.167 0.23
-1.228 -9.572 -1.168 0.28
-1.195 -9.557 -1.165 0.2
-1.166 -9.568 -1.166 0.32
-1.137 -9.584 -1.168 0.21
-1.112 -9.626 -1.174 0.17
-1.087 -9.673 -1.18 0.43
-1.069 -9.787 -1.195 0.16
-1.055 -9.808 -1.198 0.3
-1.033 -9.886 -1.209 0.13
-1.131 -11.134 -1.386 0.3
-1.093 -11.108 -1.382 0.29
-1.066 -11.194 -1.394 0.32
-1.027 -11.15 -1.387 0.26
-0.996 -11.205 -1.394 0.32
-0.976 -11.177 -1.39 0.29
-0.941 -11.186 -1.391 0.29
-0.911 -11.246 -1.399 0.31
-0.875 -11.245 -1.398 0.25
-0.84 -11.245 -1.398 0.28
-0.806 -11.262 -1.4 0.33
-0.769 -11.252 -1.398 0.36
-0.746 -11.169 -1.386 0.25
-0.712 -11.197 -1.39 0.24
-0.674 -11.155 -1.384 0.35
-0.635 -11.082 -1.373 0.29
-0.604 -11.157 -1.384 0.34
-0.574 -11.252 -1.397 0.25
-0.531 -11.098 -1.375 0.31
-0.516 -11.148 -1.382 0.32
-0.486 -11.27 -1.399 0.35
-0.452 -11.289 -1.401 0.28
-0.415 -11.251 -1.396 0.34
-0.379 -11.254 -1.396 0.29
-0.343 -11.232 -1.393 0.3
-0.309 -11.266 -1.397 0.34
-0.272 -11.202 -1.388 0.22
-0.255 -11.23 -1.392 0.27
-0.219 -11.221 -1.391 0.33
-0.184 -11.186 -1.386 0.31
-0.15 -11.264 -1.396 0.25
-0.114 -11.262 -1.396 0.39
-0.078 -11.219 -1.39 0.25
-0.043 -11.225 -1.391 0.39
-0.026 -11.217 -1.39 0.27
0.01 -11.146 -1.38 0.39
0.045 -11.249 -1.394 0.31
0.081 -11.361 -1.41 0.29
0.116 -11.226 -1.391 0.3
0.151 -11.254 -1.395 0.27
0.186 -11.212 -1.389 0.32
0.204 -11.251 -1.395 0.33
0.24 -11.258 -1.396 0.27
0.273 -11.174 -1.384 0.37
0.31 -11.253 -1.395 0.3
0.345 -11.222 -1.391 0.28
0.38 -11.207 -1.389 0.32
0.416 -11.227 -1.392 0.36
0.435 -11.268 -1.398 0.24
0.467 -11.19 -1.387 0.38
0.506 -11.269 -1.399 0.29
0.534 -11.117 -1.377 0.29
0.578 -11.299 -1.403 0.3
0.608 -11.197 -1.389 0.36
0.646 -11.246 -1.396 0.23
0.683 -11.262 -1.399 0.35
0.699 -11.239 -1.396 0.35
0.736 -11.259 -1.399 0.25
0.769 -11.219 -1.394 0.32
0.809 -11.287 -1.404 0.34
0.842 -11.255 -1.4 0.32
0.865 -11.084 -1.376 0.31
0.915 -11.273 -1.403 0.25
0.934 -11.29 -1.405 0.35
0.967 -11.263 -1.402 0.3
0.999 -11.222 -1.397 0.28
1.039 -11.262 -1.403 0.38
1.075 -11.273 -1.405 0.31
1.105 -11.212 -1.397 0.28
1.15 -11.307 -1.411 0.38
1.159 -11.219 -1.398 0.29
1.194 -11.213 -1.398 0.4
1.215 -11.077 -1.379 0.25
1.259 -11.158 -1.391 0.33
1.295 -11.16 -1.392 0.34
1.33 -11.152 -1.392 0.28
1.37 -11.191 -1.398 0.29
1.392 -11.228 -1.403 0.43
1.424 -11.196 -1.4 0.24
1.463 -11.223 -1.404 0.32
1.494 -11.185 -1.399 0.31
1.524 -11.139 -1.393 0.42
1.545 -11.036 -1.379 0.25
1.589 -11.096 -1.389 0.39
1.617 -11.166 -1.399 0.36
1.635 -11.043 -1.382 0.29
1.694 -11.203 -1.406 0.33
1.727 -11.186 -1.404 0.32
1.767 -11.211 -1.408 0.3
1.803 -11.206 -1.408 0.32
1.834 -11.177 -1.405 0.27
1.819 -10.976 -1.377 0.38
1.882 -11.141 -1.401 0.32
1.912 -11.107 -1.397 0.28
1.952 -11.13 -1.401 0.32
1.982 -11.093 -1.397 0.31
2.019 -11.1 -1.399 0.32
2.044 -11.039 -1.391 0.34
2.05 -10.974 -1.382 0.23
2.108 -11.092 -1.4 0.42
2.069 -10.7 -1.345 0.25
2.154 -10.96 -1.383 0.35
2.209 -11.056 -1.398 0.32
2.23 -10.979 -1.388 0.22
2.255 -10.929 -1.382 0.36
2.286 -10.905 -1.379 0.31
2.309 -10.93 -1.383 0.27
2.355 -10.977 -1.391 0.36
2.352 -10.794 -1.366 0.3
2.431 -10.995 -1.396 0.38
2.452 -10.926 -1.387 0.22
2.476 -10.87 -1.38 0.38
2.533 -10.962 -1.394 0.28
2.552 -10.968 -1.396 0.3
2.586 -10.958 -1.396 0.28
2.609 -10.899 -1.388 0.41
2.643 -10.891 -1.388 0.27
2.668 -10.844 -1.383 0.31
2.731 -10.953 -1.4 0.3
2.732 -10.814 -1.381 0.34
2.768 -10.885 -1.392 0.39
2.719 -10.548 -1.344 0.17
2.832 -10.85 -1.389 0.31
2.859 -10.812 -1.385 0.33
2.875 -10.738 -1.375 0.29
2.935 -10.826 -1.39 0.39
2.972 -10.829 -1.391 0.29
2.983 -10.801 -1.388 0.34
3.021 -10.805 -1.39 0.3
3.07 -10.849 -1.398 0.37
3.11 -10.86 -1.401 0.29
3.125 -10.785 -1.391 0.29
3.168 -10.806 -1.396 0.35
3.192 -10.764 -1.391 0.26
3.213 -10.77 -1.393 0.38
3.235 -10.72 -1.387 0.3
3.279 -10.746 -1.392 0.34
3.312 -10.734 -1.392 0.34
3.335 -10.687 -1.387 0.28
3.367 -10.671 -1.386 0.33
3.405 -10.675 -1.388 0.32
3.46 -10.731 -1.398 0.35
3.449 -10.64 -1.385 0.3
3.486 -10.641 -1.387 0.36
3.494 -10.551 -1.375 0.25
3.57 -10.669 -1.394 0.37
3.589 -10.617 -1.388 0.31
3.621 -10.6 -1.387 0.35
3.665 -10.62 -1.392 0.31
3.679 -10.607 -1.391 0.34
3.709 -10.584 -1.389 0.27
3.758 -10.617 -1.396 0.27
3.786 -10.593 -1.394 0.38
3.81 -10.554 -1.39 0.29
3.853 -10.569 -1.394 0.34
3.855 -10.471 -1.381 0.32
3.875 -10.476 -1.383 0.27
3.903 -10.449 -1.381 0.37
3.937 -10.442 -1.382 0.31
3.961 -10.406 -1.378 0.31
4.0 -10.41 -1.38 0.38
4.045 -10.429 -1.385 0.33
4.063 -10.377 -1.379 0.29
4.031 -10.247 -1.361 0.36
4.133 -10.413 -1.388 0.29
4.114 -10.269 -1.368 0.25
4.157 -10.284 -1.372 0.34
4.19 -10.271 -1.372 0.45
4.211 -10.23 -1.368 0.32
4.283 -10.316 -1.383 0.32
4.317 -10.351 -1.389 0.34
4.192 -9.959 -1.331 0.28
4.348 -10.243 -1.377 0.29
4.366 -10.197 -1.372 0.39
4.426 -10.247 -1.382 0.25
4.463 -10.244 -1.384 0.33
4.473 -10.181 -1.376 0.38
4.462 -10.112 -1.366 0.23
4.067 -9.133 -1.217 0.35
4.074 -9.071 -1.209 0.28
4.099 -9.051 -1.208 0.26
4.12 -9.02 -1.206 0.36
4.149 -9.009 -1.206 0.21
4.145 -8.926 -1.195 0.25
4.156 -8.877 -1.189 0.21
4.165 -8.859 -1.188 0.27
4.183 -8.826 -1.184 0.29
4.257 -8.91 -1.2 0.23
4.299 -8.925 -1.204 0.23
4.325 -8.908 -1.204 0.39
4.343 -8.875 -1.2 0.29
4.383 -8.886 -1.204 0.2
4.396 -8.877 -1.204 0.4
4.438 -8.89 -1.208 0.18
5.049 -10.043 -1.393 0.29
5.06 -9.987 -1.387 0.3
5.012 -9.814 -1.362 0.3
5.155 -10.018 -1.397 0.3
5.182 -9.993 -1.395 0.39
5.182 -9.955 -1.391 0.21
5.213 -9.937 -1.39 0.39
5.261 -9.954 -1.396 0.33
5.305 -9.96 -1.399 0.32
5.302 -9.88 -1.389 0.31
5.329 -9.855 -1.388 0.21
5.36 -9.84 -1.388 0.5
5.406 -9.887 -1.397 0.31
5.421 -9.841 -1.392 0.32
5.465 -9.848 -1.396 0.32
5.456 -9.758 -1.384 0.29
5.517 -9.796 -1.393 0.36
5.542 -9.768 -1.392 0.28
5.574 -9.753 -1.392 0.32
5.622 -9.801 -1.401 0.37
5.551 -9.606 -1.372 0.28
5.604 -9.628 -1.379 0.34
5.645 -9.629 -1.382 0.35
5.699 -9.652 -1.389 0.25
5.641 -9.484 -1.364 0.3
5.706 -9.526 -1.374 0.31
5.726 -9.526 -1.375 0.4
5.773 -9.536 -1.38 0.25
5.817 -9.54 -1.384 0.36
5.853 -9.532 -1.385 0.28
5.875 -9.502 -1.383 0.41
5.831 -9.364 -1.363 0.28
5.969 -9.519 -1.392 0.3
6.002 -9.505 -1.393 0.33
6.027 -9.512 -1.396 0.32
6.007 -9.415 -1.383 0.33
6.089 -9.477 -1.396 0.35
6.142 -9.495 -1.403 0.28
6.172 -9.475 -1.403 0.46
5.947 -9.066 -1.337 0.27
6.16 -9.327 -1.384 0.27
6.211 -9.374 -1.394 0.35
6.233 -9.343 -1.392 0.29
6.267 -9.33 -1.393 0.31
6.208 -9.178 -1.37 0.32
6.345 -9.32 -1.398 0.35
6.399 -9.336 -1.404 0.3
6.414 -9.294 -1.4 0.3
6.443 -9.305 -1.404 0.29
6.427 -9.22 -1.393 0.34
6.483 -9.239 -1.4 0.32
6.512 -9.218 -1.4 0.38
6.539 -9.195 -1.399 0.32
6.526 -9.116 -1.389 0.31
6.583 -9.134 -1.396 0.32
6.626 -9.164 -1.403 0.32
6.696 -9.201 -1.413 0.28
6.726 -9.181 -1.413 0.38
6.71 -9.098 -1.402 0.31
6.76 -9.107 -1.407 0.32
6.788 -9.084 -1.407 0.29
6.769 -8.999 -1.396 0.36
6.852 -9.08 -1.412 0.34
6.878 -9.056 -1.412 0.32
6.909 -9.037 -1.412 0.29
6.963 -9.048 -1.418 0.35
7.002 -9.041 -1.421 0.29
7.031 -9.02 -1.421 0.4
7.015 -8.94 -1.41 0.35
7.078 -8.963 -1.419 0.29
7.104 -8.968 -1.421 0.29
7.144 -8.959 -1.424 0.4
7.156 -8.917 -1.42 0.3
7.223 -8.944 -1.429 0.32
7.239 -8.906 -1.426 0.35
7.276 -8.893 -1.428 0.37
7.222 -8.771 -1.41 0.29
7.294 -8.83 -1.423 0.36
7.376 -8.873 -1.435 0.41
7.388 -8.831 -1.432 0.27
7.364 -8.746 -1.42 0.37
7.416 -8.751 -1.426 0.34
7.481 -8.773 -1.434 0.32
7.516 -8.786 -1.438 0.35
7.443 -8.645 -1.417 0.32
7.573 -8.741 -1.439 0.38
7.574 -8.686 -1.433 0.34
7.573 -8.631 -1.427 0.34
7.614 -8.622 -1.43 0.3
7.649 -8.607 -1.432 0.37
7.682 -8.59 -1.433 0.3
7.714 -8.599 -1.437 0.38
7.752 -8.586 -1.439 0.28
7.777 -8.56 -1.439 0.37
7.813 -8.546 -1.441 0.36
7.848 -8.53 -1.443 0.29
7.88 -8.511 -1.444 0.38
7.938 -8.52 -1.45 0.29
7.946 -8.502 -1.449 0.39
7.988 -8.493 -1.452 0.3
8.01 -8.463 -1.451 0.36
8.056 -8.458 -1.455 0.33
8.111 -8.463 -1.461 0.33
8.154 -8.454 -1.465 0.36
8.183 -8.432 -1.465 0.26
8.214 -8.437 -1.469 0.41
8.177 -8.346 -1.456 0.25
8.288 -8.407 -1.473 0.28
8.321 -8.388 -1.474 0.3
8.342 -8.356 -1.473 0.32
8.373 -8.334 -1.474 0.26
8.386 -8.295 -1.472 0.23
8.403 -8.286 -1.472 0.5
8.462 -8.291 -1.479 0.3
8.481 -8.258 -1.477 0.24
8.526 -8.251 -1.481 0.4
8.551 -8.222 -1.481 0.25
8.581 -8.2 -1.482 0.23
8.614 -8.179 -1.483 0.32
8.632 -8.145 -1.482 0.32
8.649 -8.136 -1.483 0.24
8.688 -8.121 -1.485 0.28
8.7 -8.081 -1.483 0.24
8.663 -7.996 -1.471 0.17
8.681 -7.962 -1.469 0.33
8.724 -7.951 -1.473 0.22
8.781 -7.953 -1.479 0.21
8.806 -7.951 -1.481 0.36
8.871 -7.959 -1.489 0.18
8.912 -7.946 -1.492 0.36
8.974 -7.951 -1.499 0.19
9.036 -7.955 -1.506 0.38
9.085 -7.948 -1.511 0.22
9.146 -7.95 -1.517 0.21
9.19 -7.963 -1.523 0.35
9.252 -7.967 -1.53 0.21
9.304 -7.961 -1.535 0.34
9.362 -7.96 -1.541 0.19
9.42 -7.959 -1.548 0.35
9.488 -7.965 -1.555 0.18
9.541 -7.959 -1.561 0.36
9.596 -7.98 -1.569 0.18
9.649 -7.972 -1.574 0.37
9.709 -7.971 -1.58 0.18
9.768 -7.968 -1.586 0.37
9.831 -7.968 -1.593 0.23
9.905 -7.977 -1.602 0.24
9.96 -7.97 -1.608 0.18
10.011 -7.985 -1.615 0.43
10.065 -7.977 -1.62 0.25
10.145 -7.988 -1.63 0.26
10.192 -7.973 -1.634 0.21
10.139 -7.88 -1.62 0.0
10.204 -7.88 -1.627 0.0
9.366 -7.183 -1.473 0.0
9.412 -7.195 -1.479 0.0
9.45 -7.178 -1.482 0.11
9.506 -7.173 -1.488 0.22
9.568 -7.173 -1.495 0.26
9.627 -7.17 -1.501 0.26
9.702 -7.179 -1.51 0.11
9.788 -7.195 -1.521 0.17
9.855 -7.197 -1.529 0.12
9.914 -7.217 -1.538 0.16
9.971 -7.21 -1.544 0.12
10.045 -7.216 -1.553 0.17
10.103 -7.21 -1.559 0.3
10.167 -7.208 -1.566 0.2
10.24 -7.211 -1.575 0.18
10.308 -7.211 -1.583 0.29
10.361 -7.224 -1.59 0.18
10.41 -7.21 -1.594 0.18
10.444 -7.185 -1.596 0.16
10.501 -7.175 -1.602 0.1
10.553 -7.163 -1.607 0.14
10.546 -7.109 -1.602 0.34
10.571 -7.078 -1.603 0.24
10.602 -7.075 -1.606 0.26
10.659 -7.065 -1.612 0.12
10.831 -7.131 -1.638 0.45
10.862 -7.102 -1.639 0.26
10.839 -7.039 -1.631 0.11
10.923 -7.044 -1.642 0.14
10.938 -7.006 -1.641 0.31
10.931 -6.977 -1.638 0.18
10.963 -6.949 -1.639 0.37
10.988 -6.916 -1.64 0.17
10.899 -6.812 -1.621 0.32
10.977 -6.814 -1.631 0.37
10.985 -6.771 -1.629 0.19
11.0 -6.732 -1.627 0.25
11.036 -6.73 -1.632 0.2
11.075 -6.707 -1.635 0.25
11.003 -6.616 -1.619 0.21
11.056 -6.601 -1.625 0.42
11.043 -6.546 -1.619 0.16
11.133 -6.552 -1.631 0.37
11.084 -6.476 -1.619 0.25
11.101 -6.463 -1.62 0.16
11.107 -6.42 -1.618 0.43
11.081 -6.358 -1.61 0.27
11.168 -6.362 -1.621 0.0
11.226 -6.348 -1.627 0.0
10.128 -5.682 -1.446 0.0
10.201 -5.682 -1.455 0.0
10.269 -5.677 -1.463 0.07
10.332 -5.691 -1.472 0.08
10.431 -5.703 -1.485 0.08
10.539 -5.72 -1.499 0.09
10.622 -5.722 -1.51 0.14
10.696 -5.718 -1.519 0.09
10.783 -5.722 -1.53 0.14
10.857 -5.718 -1.539 0.1
10.931 -5.735 -1.549 0.16
11.009 -5.731 -1.559 0.16
11.072 -5.721 -1.566 0.1
11.134 -5.708 -1.573 0.14
11.17 -5.682 -1.576 0.22
11.253 -5.681 -1.586 0.11
11.244 -5.632 -1.582 0.14
11.299 -5.637 -1.589 0.1
11.286 -5.587 -1.585 0.14
11.288 -5.543 -1.582 0.1
11.332 -5.521 -1.586 0.09
11.34 -5.481 -1.585 0.09
11.334 -5.434 -1.581 0.09
11.35 -5.398 -1.581 0.14
11.338 -5.37 -1.578 0.22
11.352 -5.333 -1.577 0.19
11.386 -5.306 -1.58 0.22
11.313 -5.228 -1.566 0.25
11.367 -5.21 -1.572 0.19
11.421 -5.192 -1.578 0.13
11.355 -5.118 -1.565 0.36
11.476 -5.152 -1.583 0.19
11.404 -5.076 -1.569 0.33
11.347 -5.008 -1.558 0.2
11.445 -5.008 -1.57 0.35
11.484 -4.982 -1.574 0.17
11.51 -4.951 -1.576 0.15
11.499 -4.903 -1.571 0.18
11.545 -4.901 -1.577 0.21
11.538 -4.856 -1.574 0.21
11.577 -4.83 -1.578 0.28
11.585 -4.79 -1.576 0.2
11.631 -4.767 -1.581 0.18
11.745 -4.77 -1.596 0.22
11.883 -4.783 -1.615 0.19
11.929 -4.758 -1.62 0.18
11.971 -4.754 -1.625 0.4
11.994 -4.719 -1.626 0.24
12.119 -4.725 -1.643 0.22
12.148 -4.692 -1.645 0.17
12.154 -4.651 -1.644 0.35
12.213 -4.629 -1.651 0.0
12.181 -4.573 -1.644 0.0
11.28 -4.172 -1.504 0.05
11.388 -4.172 -1.519 0.09
11.531 -4.184 -1.538 0.14
11.691 -4.201 -1.56 0.12
11.813 -4.203 -1.577 0.16
11.932 -4.203 -1.593 0.12
12.042 -4.221 -1.608 0.16
11.952 -4.147 -1.593 0.12
12.171 -4.181 -1.624 0.14
12.429 -4.183 -1.658 0.3
12.39 -4.126 -1.65 0.2
12.405 -4.088 -1.651 0.3
12.383 -4.059 -1.647 0.21
12.458 -4.04 -1.656 0.22
12.559 -4.03 -1.669 0.21
12.556 -3.986 -1.667 0.23
12.563 -3.944 -1.666 0.18
12.579 -3.906 -1.666 0.33
12.465 -3.827 -1.648 0.2
12.529 -3.826 -1.656 0.2
12.536 -3.785 -1.655 0.26
12.587 -3.757 -1.661 0.2
12.591 -3.715 -1.66 0.41
12.595 -3.674 -1.659 0.22
12.59 -3.629 -1.657 0.15
12.493 -3.558 -1.641 0.34
12.611 -3.571 -1.657 0.21
12.608 -3.527 -1.655 0.22
12.604 -3.483 -1.653 0.19
12.619 -3.445 -1.654 0.21
12.618 -3.402 -1.652 0.18
12.64 -3.365 -1.654 0.3
12.651 -3.326 -1.654 0.19
12.638 -3.28 -1.65 0.18
12.628 -3.256 -1.648 0.17
12.629 -3.214 -1.647 0.16
12.623 -3.17 -1.644 0.16
12.635 -3.131 -1.645 0.16
12.62 -3.085 -1.641 0.09
12.628 -3.045 -1.641 0.15
12.635 -3.005 -1.64 0.0
11.566 -2.691 -1.483 0.0
11.711 -2.686 -1.503 0.07
11.999 -2.713 -1.543 0.09
12.203 -2.72 -1.572 0.15
12.36 -2.714 -1.593 0.1
12.435 -2.69 -1.603 0.09
12.51 -2.686 -1.613 0.14
12.538 -2.651 -1.616 0.21
12.628 -2.628 -1.628 0.18
12.638 -2.589 -1.628 0.34
12.65 -2.55 -1.629 0.21
12.644 -2.508 -1.627 0.24
12.642 -2.466 -1.625 0.21
12.508 -2.419 -1.605 0.25
12.572 -2.391 -1.613 0.33
12.583 -2.352 -1.614 0.24
12.599 -2.314 -1.615 0.14
12.415 -2.239 -1.588 0.44
12.404 -2.197 -1.585 0.25
12.528 -2.179 -1.602 0.27
12.418 -2.139 -1.586 0.29
12.464 -2.107 -1.591 0.23
12.451 -2.065 -1.588 0.27
12.446 -2.024 -1.587 0.32
12.433 -1.981 -1.584 0.3
12.468 -1.947 -1.588 0.2
