# .PCD v.7 - Point Cloud Data file format
VERSION .7
FIELDS x y z intensity
SIZE 4 4 4 4
TYPE F F F F
COUNT 1 1 1 1
WIDTH 1852
HEIGHT 1
VIEWPOINT 0 0 0 1 0 0 0
POINTS 1852
DATA ascii
-20.309 -15.46 -0.461 0.27
-20.049 -15.362 -0.454 0.38
-19.968 -15.399 -0.453 0.33
-19.839 -15.399 -0.45 0.43
-19.836 -15.497 -0.452 0.34
-19.803 -15.522 -0.451 0.27
-19.654 -15.505 -0.448 0.44
-19.485 -15.471 -0.444 0.24
-19.268 -15.397 -0.438 0.5
-19.282 -15.508 -0.441 0.29
-19.116 -15.474 -0.437 0.29
-11.225 -9.131 -0.173 0.2
-11.206 -9.145 -0.172 0.29
-11.154 -9.161 -0.172 0.62
-11.185 -9.245 -0.174 0.32
-11.089 -9.224 -0.171 0.47
-11.047 -9.249 -0.171 0.39
-11.015 -9.281 -0.171 0.48
-10.949 -9.284 -0.17 0.32
-11.124 -9.493 -0.177 0.39
-11.066 -9.474 -0.175 0.33
-10.974 -9.455 -0.173 0.25
-10.996 -9.534 -0.175 0.46
-10.913 -9.522 -0.173 0.5
-10.742 -9.432 -0.168 0.39
-10.699 -9.454 -0.168 0.27
-10.613 -9.437 -0.166 0.4
-10.768 -9.606 -0.172 0.44
-10.657 -9.567 -0.169 0.37
-10.549 -9.53 -0.166 0.5
-10.501 -9.546 -0.165 0.34
-10.486 -9.593 -0.166 0.43
-10.58 -9.741 -0.17 0.26
-10.715 -9.928 -0.176 0.55
-10.726 -9.97 -0.177 0.41
-10.742 -10.048 -0.179 0.27
-10.808 -10.174 -0.182 0.59
-10.766 -10.198 -0.182 0.29
-10.719 -10.218 -0.181 0.37
-10.673 -10.238 -0.181 0.36
-10.645 -10.276 -0.181 0.44
-10.659 -10.322 -0.182 0.36
-15.853 -15.466 -0.373 0.3
-15.788 -15.5 -0.372 0.32
-15.668 -15.479 -0.37 0.38
-15.593 -15.501 -0.369 0.41
-15.486 -15.492 -0.366 0.37
-15.429 -15.532 -0.366 0.35
-15.362 -15.562 -0.366 0.38
-15.302 -15.551 -0.364 0.27
-15.133 -15.476 -0.36 0.42
-15.026 -15.463 -0.358 0.36
-14.908 -15.438 -0.355 0.36
-14.85 -15.475 -0.355 0.34
-14.756 -15.473 -0.353 0.31
-14.673 -15.483 -0.352 0.39
-14.685 -15.546 -0.353 0.43
-14.653 -15.609 -0.354 0.29
-14.652 -15.706 -0.355 0.47
-14.495 -15.636 -0.351 0.29
-14.337 -15.564 -0.347 0.28
-14.24 -15.556 -0.345 0.32
-14.108 -15.509 -0.342 0.27
-14.034 -15.476 -0.34 0.56
-13.608 -15.101 -0.325 0.2
-13.554 -15.136 -0.325 0.23
-13.478 -15.147 -0.324 0.48
-13.448 -15.209 -0.325 0.46
-13.416 -15.269 -0.325 0.17
-13.613 -15.593 -0.335 0.31
-13.617 -15.696 -0.337 0.5
-13.646 -15.78 -0.339 0.32
-13.57 -15.792 -0.338 0.29
-13.459 -15.763 -0.336 0.36
-13.327 -15.708 -0.332 0.38
-13.181 -15.635 -0.329 0.33
-13.123 -15.665 -0.328 0.4
-13.035 -15.66 -0.327 0.38
-13.03 -15.704 -0.327 0.43
-12.97 -15.732 -0.327 0.24
-12.867 -15.706 -0.325 0.48
-12.836 -15.77 -0.326 0.42
-12.785 -15.809 -0.325 0.39
-12.715 -15.824 -0.325 0.33
-12.632 -15.821 -0.323 0.35
-12.585 -15.813 -0.322 0.34
-12.498 -15.805 -0.321 0.35
-12.421 -15.81 -0.32 0.34
-12.347 -15.817 -0.319 0.37
-12.266 -15.817 -0.317 0.36
-12.189 -15.819 -0.316 0.32
-12.119 -15.831 -0.315 0.3
-11.963 -15.677 -0.31 0.34
-11.919 -15.722 -0.31 0.37
-11.92 -15.827 -0.312 0.38
-11.841 -15.824 -0.311 0.35
-11.765 -15.826 -0.31 0.34
-11.688 -15.826 -0.308 0.29
-11.613 -15.829 -0.307 0.32
-11.568 -15.819 -0.306 0.31
-11.49 -15.817 -0.305 0.34
-11.416 -15.819 -0.304 0.34
-11.346 -15.827 -0.303 0.33
-11.272 -15.828 -0.302 0.39
-11.2 -15.831 -0.301 0.37
-11.123 -15.828 -0.3 0.43
-11.052 -15.832 -0.299 0.4
-11.005 -15.818 -0.298 0.36
-10.934 -15.821 -0.297 0.36
-10.868 -15.833 -0.296 0.35
-10.796 -15.834 -0.295 0.33
-10.725 -15.836 -0.294 0.4
-10.65 -15.831 -0.293 0.36
-10.577 -15.83 -0.292 0.36
-10.539 -15.826 -0.291 0.38
-10.473 -15.836 -0.29 0.31
-10.401 -15.834 -0.289 0.37
-10.331 -15.836 -0.288 0.3
-5.823 -8.966 -0.074 0.33
-5.857 -9.082 -0.077 0.21
-5.815 -9.078 -0.076 0.55
-9.997 -15.752 -0.282 0.22
-5.724 -9.03 -0.074 0.23
-5.701 -9.056 -0.074 0.35
-5.65 -9.038 -0.073 0.32
-5.715 -9.207 -0.078 0.38
-5.707 -9.259 -0.079 0.39
-5.683 -9.286 -0.079 0.36
-5.619 -9.245 -0.077 0.55
-9.563 -15.827 -0.277 0.14
-9.505 -15.844 -0.277 0.32
-9.434 -15.837 -0.276 0.31
-9.375 -15.851 -0.276 0.31
-9.308 -15.851 -0.275 0.29
-9.238 -15.846 -0.274 0.33
-9.168 -15.84 -0.273 0.32
-9.137 -15.844 -0.272 0.44
-5.306 -9.246 -0.073 0.18
-5.252 -9.218 -0.072 0.35
-5.219 -9.227 -0.072 0.33
-5.178 -9.223 -0.071 0.38
-5.148 -9.237 -0.071 0.38
-5.122 -9.259 -0.071 0.39
-5.111 -9.274 -0.071 0.43
-5.103 -9.328 -0.073 0.29
-8.582 -15.843 -0.265 0.36
-8.522 -15.851 -0.265 0.37
-8.454 -15.844 -0.264 0.37
-8.4 -15.862 -0.263 0.4
-8.336 -15.861 -0.263 0.33
-8.298 -15.85 -0.262 0.34
-8.236 -15.853 -0.261 0.34
-8.176 -15.859 -0.261 0.32
-8.112 -15.856 -0.26 0.25
-8.049 -15.855 -0.259 0.4
-7.989 -15.86 -0.258 0.36
-7.92 -15.848 -0.257 0.31
-7.894 -15.858 -0.257 0.33
-7.833 -15.86 -0.257 0.36
-7.772 -15.861 -0.256 0.34
-7.709 -15.858 -0.255 0.39
-7.647 -15.857 -0.254 0.32
-7.584 -15.854 -0.254 0.38
-7.527 -15.861 -0.253 0.3
-7.47 -15.87 -0.253 0.29
-7.431 -15.853 -0.252 0.38
-7.372 -15.855 -0.251 0.35
-7.316 -15.865 -0.251 0.33
-7.251 -15.855 -0.25 0.31
-7.191 -15.856 -0.249 0.34
-7.14 -15.875 -0.249 0.38
-7.075 -15.864 -0.248 0.35
-7.046 -15.866 -0.248 0.36
-6.989 -15.872 -0.248 0.34
-6.923 -15.857 -0.246 0.34
-6.867 -15.864 -0.246 0.34
-6.818 -15.887 -0.246 0.36
-6.751 -15.868 -0.245 0.34
-6.698 -15.882 -0.245 0.34
-6.664 -15.87 -0.244 0.36
-6.602 -15.864 -0.243 0.37
-6.553 -15.886 -0.243 0.34
-6.493 -15.881 -0.243 0.38
-6.429 -15.866 -0.242 0.46
-6.374 -15.875 -0.241 0.35
-6.316 -15.874 -0.241 0.32
-6.223 -15.782 -0.238 0.32
-6.194 -15.783 -0.237 0.36
-6.137 -15.783 -0.237 0.38
-6.076 -15.771 -0.236 0.37
-6.021 -15.777 -0.236 0.36
-5.967 -15.783 -0.235 0.36
-5.91 -15.783 -0.235 0.37
-5.856 -15.79 -0.234 0.41
-5.828 -15.79 -0.234 0.3
-5.771 -15.789 -0.234 0.45
-5.715 -15.788 -0.233 0.37
-5.68 -15.846 -0.234 0.26
-5.638 -15.886 -0.235 0.42
-5.581 -15.885 -0.234 0.33
-5.525 -15.885 -0.234 0.34
-5.495 -15.879 -0.233 0.37
-5.441 -15.885 -0.233 0.33
-5.388 -15.89 -0.233 0.27
-5.273 -15.712 -0.227 0.45
-5.279 -15.897 -0.232 0.33
-5.225 -15.9 -0.232 0.36
-5.167 -15.892 -0.231 0.42
-5.137 -15.885 -0.231 0.32
-5.091 -15.914 -0.231 0.18
-5.009 -15.829 -0.228 0.57
-4.97 -15.879 -0.229 0.21
-4.903 -15.839 -0.228 0.57
-4.855 -15.858 -0.228 0.37
-4.811 -15.893 -0.228 0.39
-4.78 -15.881 -0.228 0.32
-4.727 -15.885 -0.227 0.36
-4.669 -15.873 -0.227 0.37
-4.613 -15.868 -0.226 0.39
-4.565 -15.886 -0.226 0.31
-4.509 -15.879 -0.226 0.36
-4.46 -15.897 -0.226 0.36
-4.428 -15.881 -0.225 0.4
-4.373 -15.876 -0.225 0.39
-4.322 -15.883 -0.225 0.31
-4.269 -15.887 -0.224 0.36
-4.216 -15.887 -0.224 0.36
-4.168 -15.908 -0.224 0.39
-4.114 -15.906 -0.224 0.39
-4.059 -15.901 -0.223 0.4
-4.03 -15.89 -0.223 0.36
-3.978 -15.893 -0.222 0.33
-3.925 -15.895 -0.222 0.35
-3.873 -15.898 -0.222 0.37
-3.818 -15.891 -0.221 0.36
-3.766 -15.891 -0.221 0.35
-3.717 -15.907 -0.221 0.34
-3.689 -15.899 -0.221 0.33
-3.637 -15.904 -0.221 0.37
-3.586 -15.91 -0.221 0.37
-3.532 -15.903 -0.22 0.43
-3.48 -15.907 -0.22 0.32
-3.432 -15.923 -0.22 0.36
-3.378 -15.916 -0.22 0.38
-3.35 -15.908 -0.219 0.43
-3.3 -15.917 -0.219 0.34
-3.245 -15.901 -0.218 0.44
-3.191 -15.892 -0.218 0.38
-3.142 -15.908 -0.218 0.33
-3.092 -15.919 -0.218 0.38
-3.041 -15.921 -0.218 0.39
-3.011 -15.902 -0.217 0.39
-2.958 -15.894 -0.217 0.3
-2.884 -15.772 -0.213 0.41
-2.858 -15.912 -0.217 0.36
-2.808 -15.919 -0.217 0.36
-2.757 -15.922 -0.217 0.32
-2.702 -15.903 -0.216 0.46
-2.636 -15.659 -0.209 0.38
-2.598 -15.738 -0.211 0.32
-2.576 -15.916 -0.216 0.37
-2.524 -15.91 -0.215 0.36
-2.471 -15.902 -0.215 0.4
-2.42 -15.904 -0.215 0.37
-2.37 -15.909 -0.215 0.34
-2.32 -15.913 -0.215 0.43
-2.295 -15.917 -0.215 0.36
-2.243 -15.912 -0.214 0.36
-2.194 -15.931 -0.215 0.36
-2.142 -15.922 -0.214 0.33
-2.092 -15.926 -0.214 0.35
-2.04 -15.921 -0.214 0.42
-1.99 -15.923 -0.214 0.32
-1.963 -15.906 -0.213 0.27
-1.898 -15.793 -0.21 0.35
-1.839 -15.712 -0.208 0.45
-1.772 -15.567 -0.204 0.44
-1.726 -15.598 -0.204 0.27
-1.68 -15.627 -0.205 0.53
-1.639 -15.716 -0.207 0.27
-1.614 -15.71 -0.207 0.52
-1.585 -15.926 -0.213 0.35
-1.536 -15.937 -0.213 0.43
-1.486 -15.942 -0.213 0.38
-1.436 -15.951 -0.213 0.31
-1.383 -15.927 -0.212 0.4
-1.334 -15.941 -0.212 0.36
-1.289 -15.69 -0.206 0.38
-1.238 -15.682 -0.205 0.5
-1.197 -15.792 -0.208 0.39
-1.158 -15.941 -0.212 0.38
-1.107 -15.933 -0.212 0.36
-1.057 -15.944 -0.212 0.4
-1.007 -15.947 -0.212 0.39
-0.956 -15.928 -0.211 0.43
-0.932 -15.944 -0.212 0.36
-0.88 -15.927 -0.211 0.38
-0.818 -15.69 -0.205 0.38
-0.773 -15.78 -0.207 0.43
-0.723 -15.773 -0.207 0.32
-0.668 -15.643 -0.204 0.5
-0.624 -15.781 -0.207 0.37
-0.596 -15.688 -0.205 0.29
-0.548 -15.73 -0.206 0.39
-0.498 -15.709 -0.205 0.46
-0.45 -15.773 -0.207 0.38
-0.4 -15.73 -0.206 0.46
-0.351 -15.759 -0.206 0.25
-0.303 -15.852 -0.209 0.55
-0.276 -15.749 -0.206 0.44
-0.229 -15.935 -0.211 0.36
-0.179 -15.938 -0.211 0.34
-0.129 -15.945 -0.211 0.31
-0.079 -15.935 -0.211 0.26
-0.029 -15.869 -0.209 0.3
0.021 -15.835 -0.208 0.46
0.045 -15.757 -0.206 0.36
0.094 -15.673 -0.204 0.41
0.144 -15.737 -0.206 0.45
0.193 -15.668 -0.204 0.35
0.242 -15.675 -0.204 0.45
0.294 -15.79 -0.207 0.38
0.341 -15.679 -0.204 0.34
0.367 -15.735 -0.206 0.48
0.422 -15.948 -0.211 0.41
0.473 -15.962 -0.212 0.33
0.524 -15.985 -0.212 0.31
0.573 -15.969 -0.212 0.42
0.623 -15.949 -0.211 0.4
0.67 -15.891 -0.21 0.35
0.719 -15.855 -0.209 0.39
0.749 -15.974 -0.212 0.42
0.799 -15.957 -0.212 0.4
0.85 -15.97 -0.212 0.34
0.899 -15.942 -0.212 0.4
0.945 -15.887 -0.21 0.41
0.994 -15.856 -0.21 0.34
1.017 -15.825 -0.209 0.32
1.073 -15.923 -0.211 0.47
1.121 -15.886 -0.211 0.27
1.17 -15.872 -0.21 0.51
1.217 -15.828 -0.209 0.3
1.26 -15.745 -0.207 0.53
1.305 -15.685 -0.206 0.38
1.358 -15.725 -0.207 0.43
1.381 -15.705 -0.206 0.46
1.436 -15.764 -0.208 0.31
1.487 -15.773 -0.208 0.59
1.548 -15.888 -0.212 0.36
1.591 -15.817 -0.21 0.38
1.645 -15.846 -0.211 0.32
1.669 -15.602 -0.204 0.38
1.695 -15.613 -0.205 0.35
1.757 -15.729 -0.208 0.39
1.805 -15.712 -0.208 0.46
1.86 -15.752 -0.209 0.36
1.911 -15.756 -0.209 0.45
1.959 -15.736 -0.209 0.36
2.012 -15.763 -0.21 0.42
2.043 -15.804 -0.211 0.45
2.092 -15.793 -0.211 0.36
2.145 -15.812 -0.211 0.47
2.195 -15.805 -0.211 0.3
2.24 -15.769 -0.211 0.49
2.29 -15.766 -0.211 0.32
2.331 -15.699 -0.209 0.58
2.383 -15.877 -0.214 0.31
2.4 -15.654 -0.208 0.32
2.449 -15.647 -0.208 0.52
2.511 -15.722 -0.21 0.36
2.566 -15.747 -0.211 0.42
2.621 -15.773 -0.212 0.48
2.663 -15.719 -0.211 0.29
2.711 -15.703 -0.211 0.46
2.732 -15.675 -0.21 0.36
2.778 -15.648 -0.21 0.6
2.858 -15.809 -0.214 0.34
2.938 -15.963 -0.219 0.22
2.941 -15.704 -0.212 0.32
2.99 -15.697 -0.212 0.45
3.027 -15.621 -0.21 0.43
3.057 -15.645 -0.211 0.38
3.105 -15.632 -0.211 0.42
3.147 -15.587 -0.21 0.41
3.206 -15.622 -0.211 0.29
3.266 -15.666 -0.213 0.56
3.37 -15.91 -0.219 0.3
3.411 -15.858 -0.218 0.52
3.454 -15.937 -0.221 0.29
3.481 -15.821 -0.218 0.32
3.521 -15.769 -0.217 0.46
3.585 -15.822 -0.218 0.25
3.654 -15.892 -0.221 0.51
3.714 -15.924 -0.222 0.28
3.745 -15.832 -0.22 0.44
3.776 -15.853 -0.22 0.45
3.865 -16.001 -0.225 0.38
3.918 -16.0 -0.225 0.35
3.961 -15.959 -0.224 0.33
4.021 -15.985 -0.225 0.18
4.053 -15.901 -0.223 0.57
4.112 -15.925 -0.224 0.36
4.128 -15.883 -0.223 0.34
4.18 -15.878 -0.223 0.53
4.268 -16.006 -0.227 0.29
4.322 -16.008 -0.228 0.37
4.376 -16.006 -0.228 0.31
4.43 -16.007 -0.228 0.36
4.482 -16.001 -0.229 0.29
4.538 -16.006 -0.229 0.35
4.574 -16.037 -0.23 0.19
4.578 -15.861 -0.226 0.48
4.623 -15.832 -0.225 0.32
4.673 -15.817 -0.225 0.48
4.733 -15.837 -0.226 0.3
4.787 -15.835 -0.227 0.44
4.845 -15.849 -0.227 0.36
4.863 -15.816 -0.227 0.54
4.956 -15.94 -0.231 0.36
5.038 -16.026 -0.233 0.34
5.092 -16.021 -0.234 0.31
5.147 -16.02 -0.234 0.39
5.202 -16.017 -0.234 0.4
5.229 -16.017 -0.235 0.31
5.288 -16.025 -0.235 0.3
5.346 -16.031 -0.236 0.36
5.395 -16.012 -0.236 0.32
5.457 -16.027 -0.237 0.38
5.51 -16.02 -0.237 0.4
5.56 -16.002 -0.237 0.37
5.618 -16.005 -0.238 0.37
5.652 -16.021 -0.238 0.38
5.704 -16.009 -0.238 0.33
5.765 -16.019 -0.239 0.35
5.826 -16.031 -0.24 0.31
5.881 -16.026 -0.24 0.37
5.94 -16.03 -0.241 0.37
5.996 -16.026 -0.241 0.4
6.024 -16.024 -0.242 0.38
6.055 -15.954 -0.24 0.37
6.144 -16.036 -0.243 0.33
6.201 -16.033 -0.244 0.39
6.262 -16.042 -0.244 0.34
6.322 -16.048 -0.245 0.35
6.352 -15.976 -0.244 0.27
6.373 -15.955 -0.243 0.58
6.447 -15.994 -0.245 0.26
6.44 -15.833 -0.241 0.48
6.585 -16.046 -0.248 0.34
6.646 -16.049 -0.248 0.4
6.705 -16.05 -0.249 0.36
6.765 -16.051 -0.249 0.41
6.798 -16.059 -0.25 0.39
6.853 -16.049 -0.25 0.4
6.908 -16.036 -0.251 0.29
6.935 -15.961 -0.249 0.49
6.941 -15.841 -0.246 0.28
7.043 -15.936 -0.25 0.46
7.118 -15.97 -0.251 0.31
7.209 -16.037 -0.254 0.42
7.245 -16.049 -0.254 0.39
7.3 -16.037 -0.255 0.34
7.364 -16.043 -0.256 0.4
7.421 -16.035 -0.256 0.3
7.488 -16.047 -0.257 0.23
7.533 -16.013 -0.257 0.45
7.578 -15.977 -0.256 0.33
7.611 -15.983 -0.257 0.5
7.707 -16.052 -0.26 0.27
7.774 -16.062 -0.261 0.39
7.834 -16.057 -0.261 0.4
7.884 -16.033 -0.261 0.29
7.894 -15.927 -0.259 0.29
7.946 -15.906 -0.259 0.55
8.014 -15.979 -0.261 0.4
8.122 -16.066 -0.265 0.36
8.181 -16.059 -0.265 0.27
8.18 -15.933 -0.262 0.37
8.274 -15.993 -0.265 0.38
8.376 -16.064 -0.268 0.3
8.442 -16.068 -0.269 0.27
8.46 -16.04 -0.268 0.22
8.471 -15.941 -0.266 0.4
8.503 -15.881 -0.265 0.42
8.549 -15.846 -0.265 0.47
8.63 -15.877 -0.266 0.44
8.785 -16.04 -0.272 0.4
8.805 -15.958 -0.271 0.3
8.849 -15.978 -0.272 0.29
8.912 -15.974 -0.272 0.39
8.978 -15.974 -0.273 0.31
9.045 -15.975 -0.274 0.33
9.11 -15.973 -0.275 0.36
9.179 -15.977 -0.276 0.31
9.245 -15.976 -0.277 0.38
9.279 -15.975 -0.277 0.32
9.355 -15.991 -0.278 0.25
9.482 -16.09 -0.282 0.39
9.543 -16.079 -0.283 0.39
9.614 -16.084 -0.284 0.32
9.682 -16.082 -0.285 0.35
9.71 -16.014 -0.284 0.32
9.663 -15.881 -0.28 0.21
9.865 -16.098 -0.288 0.54
9.928 -16.087 -0.288 0.3
9.997 -16.085 -0.289 0.28
10.067 -16.085 -0.29 0.43
10.139 -16.088 -0.291 0.39
10.212 -16.091 -0.292 0.27
10.254 -16.1 -0.293 0.26
10.247 -15.979 -0.29 0.36
10.273 -15.91 -0.289 0.4
10.35 -15.919 -0.29 0.29
10.385 -15.863 -0.29 0.48
10.596 -16.074 -0.297 0.3
10.697 -16.117 -0.3 0.3
10.76 -16.102 -0.3 0.35
10.811 -16.123 -0.301 0.36
10.885 -16.124 -0.303 0.36
10.948 -16.108 -0.303 0.36
11.021 -16.106 -0.304 0.38
11.099 -16.111 -0.305 0.45
11.164 -16.097 -0.306 0.32
11.253 -16.116 -0.308 0.36
11.308 -16.141 -0.309 0.38
11.37 -16.122 -0.31 0.36
11.444 -16.118 -0.311 0.34
11.526 -16.126 -0.312 0.41
11.588 -16.106 -0.313 0.37
11.669 -16.112 -0.314 0.38
11.748 -16.114 -0.315 0.36
11.79 -16.118 -0.316 0.34
11.868 -16.118 -0.317 0.34
11.953 -16.127 -0.319 0.41
12.022 -16.113 -0.32 0.36
12.102 -16.115 -0.321 0.33
12.185 -16.12 -0.322 0.3
12.261 -16.115 -0.323 0.38
12.31 -16.126 -0.324 0.3
12.392 -16.129 -0.326 0.39
12.462 -16.115 -0.327 0.34
12.556 -16.131 -0.328 0.28
12.634 -16.126 -0.329 0.33
12.709 -16.118 -0.331 0.29
12.806 -16.135 -0.332 0.44
12.852 -16.142 -0.333 0.3
12.928 -16.133 -0.334 0.35
13.026 -16.151 -0.336 0.32
13.095 -16.132 -0.337 0.25
13.172 -16.123 -0.338 0.31
13.265 -16.132 -0.34 0.33
13.35 -16.132 -0.341 0.31
13.431 -16.127 -0.343 0.35
13.491 -16.147 -0.344 0.27
13.582 -16.152 -0.346 0.3
13.667 -16.151 -0.347 0.34
13.754 -16.15 -0.348 0.29
13.836 -16.143 -0.35 0.26
13.918 -16.136 -0.351 0.3
14.023 -16.154 -0.353 0.36
14.073 -16.161 -0.354 0.25
14.17 -16.169 -0.356 0.31
14.256 -16.165 -0.357 0.29
14.35 -16.168 -0.359 0.36
14.424 -16.149 -0.36 0.3
14.538 -16.174 -0.362 0.4
14.613 -16.155 -0.363 0.31
14.681 -16.179 -0.365 0.29
14.771 -16.176 -0.366 0.28
14.868 -16.179 -0.368 0.35
14.954 -16.17 -0.37 0.32
15.052 -16.175 -0.371 0.29
15.137 -16.164 -0.373 0.38
15.243 -16.174 -0.375 0.34
15.311 -16.195 -0.376 0.27
15.406 -16.193 -0.378 0.39
15.493 -16.182 -0.379 0.32
15.596 -16.188 -0.381 0.34
15.69 -16.184 -0.383 0.27
15.796 -16.19 -0.385 0.39
15.89 -16.184 -0.387 0.29
15.96 -16.205 -0.388 0.32
16.049 -16.193 -0.39 0.32
16.142 -16.185 -0.391 0.34
16.251 -16.192 -0.394 0.36
16.35 -16.189 -0.395 0.36
16.455 -16.19 -0.397 0.32
16.553 -16.185 -0.399 0.24
16.632 -16.21 -0.401 0.31
16.733 -16.207 -0.403 0.39
16.84 -16.208 -0.405 0.38
16.95 -16.211 -0.407 0.39
17.046 -16.201 -0.409 0.27
17.164 -16.21 -0.411 0.29
17.257 -16.196 -0.412 0.26
17.369 -16.199 -0.415 0.31
17.446 -16.219 -0.416 0.28
17.561 -16.224 -0.419 0.36
17.668 -16.22 -0.421 0.34
17.783 -16.222 -0.423 0.32
17.878 -16.206 -0.425 0.36
17.988 -16.204 -0.427 0.39
18.081 -16.235 -0.429 0.32
18.193 -16.233 -0.431 0.33
18.307 -16.231 -0.433 0.34
18.424 -16.232 -0.436 0.35
18.527 -16.22 -0.437 0.3
18.649 -16.223 -0.44 0.31
18.765 -16.221 -0.442 0.31
18.88 -16.216 -0.444 0.34
18.97 -16.243 -0.447 0.29
19.09 -16.241 -0.449 0.3
19.207 -16.237 -0.451 0.34
19.336 -16.242 -0.454 0.3
19.447 -16.231 -0.456 0.32
19.573 -16.232 -0.458 0.32
19.696 -16.23 -0.461 0.33
19.791 -16.256 -0.463 0.32
19.915 -16.253 -0.466 0.26
20.056 -16.264 -0.469 0.38
20.162 -16.244 -0.47 0.23
20.288 -16.241 -0.473 0.41
20.415 -16.238 -0.476 0.21
20.546 -16.237 -0.478 0.25
20.644 -16.261 -0.481 0.21
20.771 -16.256 -0.483 0.51
20.906 -16.255 -0.486 0.25
21.045 -16.258 -0.489 0.25
21.168 -16.246 -0.491 0.23
21.314 -16.252 -0.494 0.4
21.445 -16.246 -0.497 0.24
21.558 -16.278 -0.5 0.27
21.71 -16.286 -0.503 0.22
21.841 -16.277 -0.506 0.36
21.985 -16.277 -0.509 0.22
22.127 -16.274 -0.512 0.29
22.267 -16.27 -0.514 0.29
22.415 -16.27 -0.518 0.28
22.529 -16.299 -0.52 0.3
22.671 -16.293 -0.523 0.21
15.078 -10.775 -0.279 0.19
15.074 -10.701 -0.277 0.36
15.075 -10.631 -0.276 0.38
15.11 -10.584 -0.276 0.36
15.168 -10.554 -0.277 0.45
15.488 -10.741 -0.287 0.24
15.664 -10.789 -0.291 0.37
15.681 -10.729 -0.291 0.33
15.687 -10.66 -0.29 0.41
15.695 -10.594 -0.289 0.41
15.695 -10.523 -0.288 0.3
15.708 -10.46 -0.287 0.36
15.73 -10.439 -0.288 0.41
15.789 -10.407 -0.288 0.34
15.791 -10.337 -0.287 0.18
25.122 -16.314 -0.576 0.14
25.322 -16.332 -0.581 0.18
25.47 -16.314 -0.584 0.43
25.646 -16.313 -0.588 0.23
25.834 -16.318 -0.592 0.27
25.949 -16.334 -0.595 0.2
26.153 -16.348 -0.6 0.4
26.335 -16.347 -0.604 0.19
26.497 -16.332 -0.607 0.27
26.676 -16.327 -0.611 0.2
26.855 -16.321 -0.615 0.2
27.054 -16.325 -0.619 0.39
27.22 -16.367 -0.624 0.18
27.404 -16.36 -0.628 0.36
27.598 -16.358 -0.632 0.2
27.789 -16.354 -0.636 0.24
27.98 -16.348 -0.64 0.18
28.176 -16.344 -0.645 0.12
28.378 -16.342 -0.649 0.16
28.548 -16.38 -0.654 0.12
28.742 -16.371 -0.658 0.15
28.965 -16.378 -0.663 0.18
29.156 -16.365 -0.667 0.09
29.395 -16.378 -0.673 0.14
29.6 -16.37 -0.677 0.21
29.816 -16.367 -0.682 0.25
19.739 -10.725 -0.381 0.36
19.766 -10.659 -0.381 0.39
19.828 -10.612 -0.382 0.29
20.189 -10.724 -0.391 0.19
31.138 -16.399 -0.713 0.14
31.358 -16.389 -0.718 0.0
31.551 -16.426 -0.723 0.0
31.762 -16.409 -0.728 0.0
32.029 -16.42 -0.734 0.0
32.292 -16.427 -0.74 0.0
32.492 -16.4 -0.744 0.15
32.363 -16.207 -0.739 0.0
33.037 -16.415 -0.757 0.0
33.287 -16.473 -0.764 0.0
33.545 -16.47 -0.77 0.0
33.776 -16.452 -0.775 0.06
34.051 -16.454 -0.781 0.14
34.303 -16.442 -0.787 0.1
34.574 -16.439 -0.794 0.08
34.848 -16.435 -0.8 0.18
22.482 -10.527 -0.443 0.2
22.319 -10.408 -0.437 0.16
21.981 -10.167 -0.427 0.42
22.038 -10.109 -0.428 0.36
22.001 -10.009 -0.426 0.35
22.05 -9.948 -0.426 0.3
22.081 -9.878 -0.426 0.48
22.286 -9.886 -0.431 0.31
22.278 -9.84 -0.43 0.3
22.47 -9.841 -0.435 0.35
22.337 -9.699 -0.43 0.34
22.351 -9.622 -0.43 0.26
22.613 -9.65 -0.436 0.0
38.931 -16.45 -0.897 0.07
39.02 -16.343 -0.898 0.09
39.337 -16.403 -0.907 0.0
39.767 -16.436 -0.917 0.0
40.198 -16.466 -0.928 0.08
40.55 -16.461 -0.937 0.14
40.889 -16.449 -0.945 0.1
41.243 -16.441 -0.953 0.14
41.529 -16.404 -0.96 0.17
41.806 -16.437 -0.967 0.0
35.654 -13.894 -0.793 0.0
42.36 -16.348 -0.979 0.0
42.004 -16.06 -0.968 0.0
42.037 -15.921 -0.968 0.0
42.319 -15.876 -0.974 0.0
42.673 -15.856 -0.982 0.0
43.015 -15.829 -0.991 0.0
43.128 -15.794 -0.993 0.0
43.281 -15.696 -0.996 0.0
43.373 -15.575 -0.997 0.0
43.456 -15.451 -0.998 0.0
43.51 -15.316 -0.998 0.0
43.573 -15.185 -0.999 0.0
43.758 -15.095 -1.002 0.0
43.839 -15.046 -1.004 0.0
43.914 -14.918 -1.005 0.0
43.966 -14.782 -1.005 0.0
44.064 -14.66 -1.006 0.0
44.172 -14.543 -1.008 0.0
44.284 -14.425 -1.01 0.0
43.888 -14.144 -0.998 0.0
43.927 -14.081 -0.998 0.07
44.276 -14.039 -1.007 0.15
44.688 -14.015 -1.017 0.11
43.499 -13.343 -0.982 0.73
43.623 -13.231 -0.984 0.19
46.227 -13.861 -1.054 0.0
40.316 -12.023 -0.892 0.0
47.026 -13.859 -1.074 0.0
41.057 -11.963 -0.91 0.0
47.17 -13.58 -1.075 0.0
47.28 -13.451 -1.077 0.0
47.505 -13.354 -1.082 0.0
43.807 -12.168 -0.981 0.0
43.745 -12.077 -0.979 0.0
43.883 -11.967 -0.981 0.0
44.16 -11.893 -0.988 0.0
43.159 -11.479 -0.96 0.0
43.367 -11.388 -0.965 0.0
43.776 -11.349 -0.975 0.0
43.519 -11.136 -0.967 0.0
44.286 -11.258 -0.987 0.0
44.605 -11.19 -0.995 0.0
45.036 -11.147 -1.005 0.0
45.35 -11.074 -1.013 0.0
45.762 -11.022 -1.023 0.0
45.872 -10.896 -1.025 0.0
46.027 -10.78 -1.028 0.0
46.135 -10.729 -1.031 0.0
46.438 -10.646 -1.038 0.0
46.52 -10.511 -1.039 0.0
47.319 -10.535 -1.059 0.0
47.886 -10.503 -1.074 0.0
48.407 -10.458 -1.087 0.0
48.905 -10.404 -1.099 0.0
49.759 -10.422 -1.121 0.0
50.512 -10.497 -1.141 0.0
51.514 -10.536 -1.166 0.0
52.143 -10.494 -1.182 0.0
52.703 -10.434 -1.196 0.0
53.495 -10.416 -1.217 0.0
53.809 -9.864 -1.222 0.0
54.251 -9.769 -1.233 0.0
54.747 -9.503 -1.244 0.0
54.568 -9.296 -1.239 0.0
54.545 -9.116 -1.237 0.0
54.804 -9.07 -1.244 0.0
67.782 -10.993 -1.586 0.0
54.39 -8.301 -1.23 0.0
54.219 -7.927 -1.224 0.0
54.301 -7.852 -1.226 0.0
54.428 -7.696 -1.229 0.0
54.672 -7.555 -1.235 0.0
55.237 -7.456 -1.249 0.0
55.575 -7.324 -1.257 0.0
56.721 -6.66 -1.285 0.0
56.877 -6.497 -1.288 0.0
56.957 -6.325 -1.29 0.0
56.911 -6.139 -1.288 0.0
56.679 -5.934 -1.281 0.0
56.245 -5.264 -1.268 0.0
55.792 -5.045 -1.256 0.0
55.184 -4.816 -1.24 0.0
54.954 -4.622 -1.233 0.0
54.348 -4.399 -1.217 0.0
54.237 -4.305 -1.214 0.0
55.901 -4.083 -1.257 0.0
55.865 -3.904 -1.256 0.0
55.721 -1.087 -1.249 0.0
47.626 0.019 -1.32 0.0
47.604 0.169 -1.319 0.0
47.547 0.318 -1.318 0.0
47.495 0.393 -1.316 0.0
47.445 0.541 -1.314 0.0
47.389 0.69 -1.313 0.0
47.369 0.838 -1.312 0.0
47.312 0.986 -1.31 0.0
47.287 1.134 -1.31 0.0
47.297 1.283 -1.31 0.0
47.265 1.356 -1.309 0.0
47.278 1.505 -1.31 0.0
47.239 1.653 -1.309 0.0
47.166 1.799 -1.306 0.0
47.134 1.946 -1.306 0.0
47.058 2.091 -1.303 0.0
46.977 2.235 -1.301 0.0
46.972 2.309 -1.301 0.0
46.95 2.455 -1.3 0.0
47.002 2.606 -1.302 0.0
47.183 2.765 -1.308 0.0
47.366 2.925 -1.315 0.0
47.512 3.084 -1.32 0.0
47.622 3.241 -1.323 0.0
47.677 3.32 -1.325 0.0
47.738 3.475 -1.328 0.0
47.866 3.635 -1.332 0.0
48.03 3.8 -1.338 0.0
48.171 3.963 -1.343 0.0
48.332 4.129 -1.348 0.0
49.178 5.058 -1.378 0.0
49.4 5.238 -1.386 0.0
49.475 5.403 -1.389 0.0
49.621 5.576 -1.394 0.0
49.771 5.672 -1.399 0.0
49.91 5.847 -1.404 0.0
49.943 6.01 -1.406 0.0
49.983 6.174 -1.408 0.0
50.263 6.369 -1.417 0.0
50.328 6.538 -1.42 0.0
50.505 6.722 -1.426 0.0
50.72 6.832 -1.434 0.0
50.903 7.019 -1.44 0.0
51.009 7.197 -1.444 0.0
51.198 7.388 -1.451 0.0
44.69 6.739 -1.242 0.0
42.626 6.772 -1.177 0.0
42.133 6.829 -1.162 0.0
41.746 6.902 -1.15 0.0
41.479 7.126 -1.143 0.12
41.414 7.248 -1.141 0.0
39.595 6.995 -1.083 0.0
36.508 7.343 -0.988 0.0
36.505 7.462 -0.988 0.0
36.362 7.552 -0.984 0.0
36.363 7.91 -0.987 0.08
36.244 8.004 -0.984 0.18
36.082 8.027 -0.979 0.0
36.349 8.206 -0.988 0.0
36.387 8.335 -0.99 0.06
36.62 8.752 -1.001 0.72
36.668 8.886 -1.003 0.0
50.258 12.253 -1.451 0.0
50.332 12.438 -1.455 0.0
26.987 7.772 -0.695 0.0
26.903 7.839 -0.693 0.0
26.858 7.918 -0.692 0.0
26.838 8.004 -0.692 0.0
26.844 8.097 -0.693 0.0
26.816 8.181 -0.693 0.0
26.823 8.275 -0.694 0.0
26.785 8.356 -0.694 0.0
26.812 8.41 -0.695 0.0
26.816 8.504 -0.696 0.0
24.022 8.038 -0.606 0.0
24.013 8.245 -0.608 0.0
23.995 8.323 -0.609 0.0
23.852 8.358 -0.605 0.0
23.111 8.181 -0.58 0.0
24.191 8.862 -0.62 0.03
24.165 8.939 -0.62 0.0
24.135 9.014 -0.62 0.0
18.856 8.115 -0.453 0.0
18.904 8.206 -0.455 0.0
19.728 8.636 -0.485 0.07
19.646 8.674 -0.483 0.0
19.6 8.727 -0.482 0.0
17.904 8.143 -0.425 0.0
19.932 9.138 -0.497 0.13
19.644 9.081 -0.488 0.2
19.762 9.211 -0.493 0.2
19.766 9.289 -0.495 0.35
19.773 9.368 -0.496 0.24
19.712 9.415 -0.495 0.22
19.553 9.377 -0.49 0.0
19.693 9.52 -0.496 0.0
19.456 9.481 -0.488 0.0
18.932 9.523 -0.474 0.0
18.915 9.551 -0.474 0.0
17.975 9.58 -0.448 0.0
25.35 13.652 -0.717 0.17
25.096 13.617 -0.709 0.36
25.241 13.798 -0.716 0.18
25.095 13.822 -0.713 0.27
24.945 13.841 -0.709 0.0
27.581 15.414 -0.807 0.0
27.543 15.45 -0.806 0.0
27.555 15.571 -0.809 0.0
27.55 15.682 -0.81 0.0
27.679 15.871 -0.817 0.0
24.855 14.358 -0.714 0.0
27.722 16.127 -0.822 0.0
27.684 16.222 -0.823 0.0
27.722 16.302 -0.825 0.06
28.993 17.294 -0.876 0.24
28.841 17.327 -0.873 0.51
24.897 15.068 -0.727 0.24
24.839 15.14 -0.727 0.39
28.311 17.374 -0.859 0.24
28.168 17.348 -0.854 0.32
28.001 17.367 -0.85 0.39
27.847 17.392 -0.846 0.31
27.68 17.409 -0.842 0.55
27.502 17.418 -0.838 0.22
22.301 14.228 -0.642 0.4
22.207 14.267 -0.64 0.34
22.033 14.204 -0.635 0.32
21.891 14.211 -0.631 0.3
21.853 14.284 -0.631 0.44
21.904 14.415 -0.635 0.29
21.755 14.415 -0.631 0.34
21.736 14.501 -0.632 0.24
21.817 14.654 -0.637 0.42
21.822 14.707 -0.638 0.46
21.818 14.805 -0.64 0.21
21.815 14.903 -0.641 0.3
21.812 15.002 -0.643 0.11
21.839 15.121 -0.646 0.12
21.931 15.287 -0.651 0.13
21.814 15.307 -0.649 0.16
22.779 16.09 -0.688 0.29
22.817 16.171 -0.691 0.22
22.846 16.299 -0.694 0.28
22.866 16.422 -0.697 0.28
22.879 16.541 -0.699 0.23
22.834 16.617 -0.7 0.52
22.891 16.769 -0.704 0.17
22.882 16.873 -0.706 0.26
20.713 15.327 -0.62 0.3
20.596 15.341 -0.618 0.29
20.493 15.365 -0.615 0.46
20.411 15.404 -0.614 0.23
20.331 15.444 -0.613 0.36
20.211 15.453 -0.61 0.31
20.097 15.466 -0.607 0.32
20.018 15.455 -0.605 0.36
19.895 15.46 -0.602 0.32
19.786 15.476 -0.6 0.38
19.681 15.494 -0.597 0.2
19.565 15.502 -0.595 0.55
19.469 15.526 -0.593 0.16
19.269 15.516 -0.587 0.61
19.112 15.489 -0.583 0.24
19.002 15.5 -0.581 0.29
17.031 13.985 -0.501 0.25
16.972 14.025 -0.5 0.34
16.932 14.083 -0.501 0.4
16.819 14.078 -0.498 0.34
16.754 14.068 -0.496 0.31
16.636 14.059 -0.493 0.35
16.574 14.096 -0.492 0.41
16.352 13.996 -0.485 0.35
16.232 13.982 -0.481 0.34
16.179 14.025 -0.481 0.35
16.094 14.041 -0.479 0.33
16.082 14.075 -0.48 0.34
15.984 14.078 -0.477 0.39
15.922 14.112 -0.477 0.35
15.785 14.08 -0.473 0.29
15.766 14.152 -0.474 0.35
15.691 14.175 -0.472 0.29
15.617 14.197 -0.471 0.39
15.581 14.254 -0.472 0.38
15.606 14.322 -0.474 0.36
15.588 14.395 -0.475 0.32
15.566 14.466 -0.476 0.39
15.595 14.584 -0.479 0.36
15.587 14.669 -0.481 0.34
15.577 14.752 -0.482 0.35
15.573 14.841 -0.484 0.37
15.7 15.009 -0.491 0.33
15.719 15.121 -0.494 0.34
15.652 15.153 -0.493 0.3
15.641 15.237 -0.495 0.45
15.671 15.363 -0.498 0.36
15.643 15.431 -0.499 0.39
18.088 17.95 -0.611 0.22
18.106 18.024 -0.613 0.21
18.025 18.057 -0.612 0.46
17.927 18.072 -0.61 0.38
17.824 18.081 -0.608 0.43
17.719 18.089 -0.606 0.38
17.629 18.11 -0.605 0.29
17.521 18.112 -0.602 0.59
14.763 15.315 -0.476 0.31
14.703 15.35 -0.476 0.34
14.663 15.405 -0.476 0.51
17.142 18.115 -0.594 0.2
17.06 18.143 -0.593 0.39
16.965 18.155 -0.591 0.39
16.858 18.156 -0.589 0.4
16.762 18.166 -0.587 0.39
16.702 18.159 -0.585 0.4
16.596 18.158 -0.583 0.42
16.511 18.179 -0.582 0.4
16.423 18.197 -0.58 0.39
16.314 18.19 -0.578 0.41
16.227 18.209 -0.576 0.4
16.156 18.186 -0.574 0.41
16.095 18.233 -0.574 0.35
16.037 18.283 -0.574 0.65
15.992 18.347 -0.575 0.53
15.926 18.388 -0.574 0.25
15.825 18.388 -0.572 0.14
11.895 13.919 -0.382 0.43
11.847 13.952 -0.381 0.18
11.832 13.978 -0.382 0.49
11.83 14.065 -0.384 0.44
11.719 14.023 -0.381 0.21
11.546 13.905 -0.374 0.64
11.724 14.209 -0.385 0.34
11.804 14.397 -0.392 0.27
11.398 13.993 -0.373 0.31
11.299 13.916 -0.369 0.37
11.313 14.023 -0.372 0.45
11.179 13.946 -0.368 0.22
11.075 13.906 -0.365 0.62
11.096 14.022 -0.368 0.31
10.87 13.826 -0.359 0.46
10.835 13.872 -0.359 0.34
10.809 13.884 -0.359 0.46
10.747 13.894 -0.358 0.37
10.685 13.904 -0.357 0.41
10.563 13.834 -0.353 0.53
10.546 13.902 -0.354 0.43
10.843 14.387 -0.372 0.28
10.504 14.029 -0.357 0.3
10.369 13.94 -0.352 0.22
10.228 13.796 -0.345 0.6
10.183 13.827 -0.345 0.39
10.148 13.87 -0.346 0.27
10.003 13.763 -0.34 0.43
9.944 13.773 -0.339 0.43
9.861 13.749 -0.337 0.45
9.834 13.803 -0.338 0.34
9.776 13.766 -0.336 0.34
9.657 13.691 -0.332 0.52
9.549 13.628 -0.328 0.32
9.512 13.666 -0.329 0.32
9.482 13.715 -0.329 0.42
9.432 13.735 -0.329 0.45
9.396 13.775 -0.329 0.29
9.39 13.813 -0.33 0.46
9.351 13.849 -0.33 0.35
9.183 13.692 -0.323 0.27
9.172 13.769 -0.325 0.5
9.183 13.879 -0.328 0.27
9.106 13.858 -0.326 0.39
9.036 13.847 -0.325 0.34
8.936 13.788 -0.322 0.42
8.904 13.787 -0.321 0.4
8.877 13.84 -0.322 0.4
8.83 13.863 -0.322 0.34
8.765 13.856 -0.32 0.49
8.702 13.852 -0.319 0.27
8.623 13.823 -0.317 0.54
8.617 13.91 -0.319 0.36
8.588 13.913 -0.319 0.33
8.545 13.94 -0.319 0.49
8.522 14.001 -0.32 0.35
8.502 14.068 -0.322 0.36
8.486 14.141 -0.323 0.47
8.345 14.007 -0.317 0.34
8.348 14.112 -0.32 0.41
8.397 14.245 -0.325 0.28
8.403 14.358 -0.328 0.52
8.413 14.479 -0.332 0.36
8.413 14.583 -0.334 0.38
8.383 14.637 -0.336 0.45
8.473 14.902 -0.344 0.23
8.511 15.079 -0.35 0.46
10.079 17.913 -0.453 0.36
10.012 17.925 -0.453 0.44
9.941 17.931 -0.452 0.34
9.871 17.937 -0.451 0.45
9.809 17.958 -0.451 0.28
9.73 17.946 -0.449 0.6
9.674 17.979 -0.449 0.15
9.58 17.938 -0.447 0.49
9.542 17.936 -0.446 0.5
9.471 17.937 -0.445 0.5
9.403 17.944 -0.444 0.52
9.377 18.032 -0.446 0.7
9.275 17.974 -0.443 0.18
9.211 17.989 -0.442 0.45
9.145 18.0 -0.442 0.37
9.104 17.988 -0.441 0.47
9.043 18.009 -0.441 0.3
8.964 17.991 -0.439 0.61
8.901 18.007 -0.439 0.3
7.557 15.417 -0.345 0.33
7.499 15.423 -0.345 0.5
7.542 15.636 -0.351 0.29
7.542 15.698 -0.353 0.73
7.559 15.86 -0.358 0.29
7.55 15.969 -0.361 0.48
6.619 14.122 -0.295 0.43
6.557 14.105 -0.293 0.29
6.539 14.184 -0.296 0.24
6.475 14.161 -0.294 0.35
6.455 14.235 -0.296 0.51
6.404 14.182 -0.294 0.34
6.324 14.123 -0.291 0.43
6.254 14.085 -0.289 0.36
6.225 14.139 -0.29 0.39
6.175 14.148 -0.29 0.46
6.125 14.152 -0.289 0.29
6.111 14.243 -0.292 0.5
6.07 14.21 -0.29 0.36
6.004 14.178 -0.288 0.32
5.92 14.105 -0.285 0.47
5.92 14.228 -0.289 0.25
5.814 14.099 -0.284 0.66
5.881 14.387 -0.293 0.32
5.732 14.152 -0.284 0.42
5.729 14.209 -0.286 0.32
5.721 14.318 -0.289 0.48
5.672 14.325 -0.289 0.32
5.629 14.348 -0.289 0.45
5.567 14.323 -0.287 0.45
5.557 14.43 -0.291 0.35
5.455 14.3 -0.285 0.45
5.414 14.328 -0.286 0.35
5.364 14.263 -0.283 0.44
5.301 14.232 -0.282 0.33
5.243 14.213 -0.28 0.43
5.212 14.266 -0.282 0.39
5.126 14.168 -0.278 0.3
5.114 14.276 -0.281 0.49
5.051 14.242 -0.279 0.39
5.078 14.389 -0.284 0.4
4.972 14.231 -0.278 0.37
4.935 14.269 -0.279 0.35
4.882 14.26 -0.278 0.39
4.846 14.302 -0.279 0.45
4.797 14.304 -0.279 0.38
4.804 14.474 -0.284 0.5
4.783 14.565 -0.286 0.39
4.708 14.413 -0.281 0.28
4.662 14.424 -0.281 0.59
5.054 15.799 -0.327 0.28
4.625 14.623 -0.287 0.36
4.575 14.626 -0.286 0.39
4.54 14.674 -0.287 0.22
4.494 14.689 -0.287 0.66
4.51 14.824 -0.292 0.35
4.811 15.988 -0.33 0.3
4.766 16.018 -0.331 0.41
4.715 16.033 -0.331 0.36
4.688 16.126 -0.333 0.54
4.64 16.151 -0.333 0.31
4.602 16.211 -0.335 0.41
4.584 16.242 -0.336 0.42
4.52 16.212 -0.334 0.47
4.469 16.226 -0.334 0.38
4.436 16.305 -0.336 0.34
4.396 16.36 -0.338 0.48
4.362 16.439 -0.34 0.37
4.791 18.275 -0.4 0.57
4.754 18.254 -0.399 0.76
4.704 18.294 -0.4 0.39
4.149 16.362 -0.336 0.34
4.102 16.392 -0.336 0.39
4.044 16.38 -0.336 0.61
3.99 16.379 -0.335 0.27
3.94 16.401 -0.336 0.55
3.894 16.435 -0.336 0.33
3.637 15.465 -0.304 0.47
3.586 15.468 -0.304 0.59
3.541 15.491 -0.304 0.62
3.488 15.485 -0.304 0.61
3.438 15.49 -0.303 0.61
3.388 15.496 -0.303 0.62
3.337 15.493 -0.303 0.71
3.328 15.571 -0.305 0.23
3.274 15.556 -0.304 0.52
3.231 15.595 -0.305 0.4
3.182 15.605 -0.305 0.4
3.132 15.609 -0.305 0.41
3.081 15.609 -0.305 0.4
3.032 15.619 -0.305 0.41
3.007 15.626 -0.305 0.41
2.956 15.623 -0.305 0.4
2.908 15.636 -0.305 0.41
2.856 15.634 -0.304 0.42
2.804 15.627 -0.304 0.4
2.755 15.634 -0.304 0.45
2.704 15.634 -0.303 0.39
2.653 15.631 -0.303 0.36
2.63 15.643 -0.303 0.36
2.579 15.641 -0.303 0.36
2.53 15.649 -0.303 0.32
2.48 15.649 -0.303 0.41
2.433 15.671 -0.303 0.24
2.382 15.668 -0.303 0.47
2.333 15.68 -0.303 0.37
2.309 15.683 -0.303 0.43
2.254 15.653 -0.302 0.92
2.205 15.662 -0.302 0.92
2.156 15.673 -0.302 0.91
2.11 15.701 -0.303 0.55
2.06 15.704 -0.303 0.48
2.01 15.7 -0.302 0.48
1.983 15.692 -0.302 0.51
1.935 15.708 -0.302 0.39
1.884 15.7 -0.302 0.41
1.835 15.708 -0.302 0.48
1.785 15.709 -0.302 0.51
1.736 15.715 -0.302 0.62
1.687 15.724 -0.302 0.67
1.638 15.733 -0.302 0.75
1.612 15.726 -0.302 0.84
1.563 15.729 -0.302 0.84
1.513 15.736 -0.302 0.82
1.463 15.735 -0.301 0.84
1.414 15.737 -0.301 0.86
1.364 15.741 -0.301 0.86
1.315 15.746 -0.301 0.86
1.29 15.75 -0.301 0.87
1.246 15.813 -0.303 0.88
1.191 15.756 -0.301 0.87
1.139 15.723 -0.3 0.87
1.094 15.793 -0.302 0.88
1.038 15.702 -0.299 0.7
0.986 15.662 -0.298 0.64
0.937 15.673 -0.298 0.64
0.913 15.67 -0.298 0.66
0.864 15.679 -0.298 0.66
0.814 15.677 -0.298 0.66
0.764 15.652 -0.297 0.76
0.853 18.576 -0.391 0.38
0.678 15.952 -0.307 0.58
1.229 30.618 -0.776 0.21
1.181 30.622 -0.776 0.25
1.09 30.768 -0.781 0.31
1.004 31.08 -0.791 0.0
0.534 18.667 -0.393 0.0
0.475 18.673 -0.393 0.0
0.494 25.305 -0.606 0.22
0.456 25.377 -0.608 0.23
0.211 18.686 -0.394 0.17
0.152 18.656 -0.393 0.45
0.094 18.625 -0.392 0.46
0.035 18.607 -0.391 0.59
-0.023 18.609 -0.391 0.62
-0.082 18.609 -0.391 0.61
-0.111 18.615 -0.391 0.6
-0.17 18.614 -0.391 0.49
-0.228 18.594 -0.391 0.62
-0.229 14.497 -0.26 0.24
-0.274 14.449 -0.258 0.36
-0.318 14.402 -0.257 0.43
-0.362 14.355 -0.255 0.36
-0.384 14.326 -0.254 0.4
-0.429 14.305 -0.254 0.45
-0.475 14.337 -0.255 0.36
-0.518 14.288 -0.253 0.45
-0.562 14.256 -0.252 0.41
-0.604 14.192 -0.25 0.38
-0.649 14.21 -0.251 0.45
-0.666 14.074 -0.247 0.36
-0.712 14.111 -0.248 0.49
-0.758 14.147 -0.249 0.36
-0.81 14.286 -0.254 0.31
-0.855 14.276 -0.253 0.43
-0.899 14.261 -0.253 0.5
-0.944 14.262 -0.253 0.29
-0.986 14.225 -0.252 0.48
-1.009 14.222 -0.252 0.39
-1.049 14.155 -0.25 0.41
-1.1 14.241 -0.253 0.43
-1.145 14.237 -0.253 0.38
-1.195 14.299 -0.255 0.36
-1.243 14.333 -0.256 0.5
-1.286 14.312 -0.256 0.36
-1.311 14.337 -0.256 0.36
-1.354 14.303 -0.255 0.64
-1.402 14.337 -0.257 0.32
-1.443 14.287 -0.255 0.52
-1.49 14.304 -0.256 0.41
-1.534 14.289 -0.256 0.46
-1.575 14.249 -0.254 0.41
-1.627 14.514 -0.263 0.43
-1.915 16.648 -0.332 0.29
-1.961 16.593 -0.33 0.43
-2.007 16.531 -0.329 0.4
-2.061 16.54 -0.329 0.39
-2.122 16.607 -0.331 0.4
-2.171 16.574 -0.331 0.33
-2.219 16.54 -0.33 0.48
-2.248 16.562 -0.331 0.25
-2.292 16.492 -0.329 0.53
-2.353 16.552 -0.331 0.32
-2.41 16.58 -0.332 0.4
-2.463 16.58 -0.332 0.46
-2.533 16.687 -0.336 0.29
-2.556 16.489 -0.33 0.5
-2.588 16.523 -0.331 0.38
-2.641 16.52 -0.331 0.38
-2.697 16.538 -0.332 0.44
-2.745 16.509 -0.331 0.43
-2.799 16.514 -0.332 0.35
-2.858 16.547 -0.333 0.48
-2.927 16.632 -0.336 0.29
-2.973 16.59 -0.335 0.46
-2.993 16.55 -0.334 0.38
-3.05 16.568 -0.335 0.42
-3.114 16.623 -0.337 0.3
-3.171 16.638 -0.338 0.45
-3.238 16.703 -0.34 0.42
-3.298 16.734 -0.342 0.45
-3.509 17.52 -0.368 0.29
-3.378 16.722 -0.342 0.29
-3.423 16.674 -0.34 0.4
-3.462 16.603 -0.338 0.39
-3.532 16.676 -0.341 0.21
-4.055 18.868 -0.413 0.68
-3.605 16.507 -0.336 0.21
-3.621 16.331 -0.331 0.5
-3.65 16.341 -0.332 0.34
-3.513 15.493 -0.304 0.25
-3.548 15.422 -0.302 0.47
-3.597 15.412 -0.302 0.4
-3.657 15.452 -0.304 0.63
-3.915 16.317 -0.333 0.19
-4.006 16.472 -0.338 0.28
-4.296 17.43 -0.37 0.49
-4.224 17.019 -0.357 0.16
-4.28 17.018 -0.357 0.3
-4.241 16.638 -0.345 0.4
-4.286 16.597 -0.344 0.18
-4.33 16.555 -0.343 0.59
-4.395 16.588 -0.345 0.29
-4.427 16.5 -0.342 0.41
-4.458 16.511 -0.343 0.33
-4.536 16.595 -0.346 0.59
-4.678 16.904 -0.357 0.36
-4.733 16.897 -0.357 0.25
-4.746 16.74 -0.353 0.28
-4.788 16.688 -0.351 0.59
-4.838 16.666 -0.351 0.35
-4.932 16.892 -0.359 0.33
-4.955 16.775 -0.355 0.34
-5.019 16.796 -0.357 0.24
-5.046 16.696 -0.354 0.56
-5.139 16.814 -0.358 0.42
-4.471 14.451 -0.28 0.15
-5.342 17.092 -0.369 0.64
-5.346 16.917 -0.363 0.27
-4.494 14.13 -0.27 0.33
-4.627 14.393 -0.28 0.18
-4.595 14.139 -0.271 0.61
-4.657 14.178 -0.273 0.34
-4.776 14.389 -0.281 0.23
-5.733 17.108 -0.373 0.29
-5.721 16.895 -0.367 0.46
-4.943 14.512 -0.286 0.38
-5.81 16.896 -0.368 0.26
-6.621 19.072 -0.442 0.52
-6.69 19.077 -0.443 0.33
-5.098 14.373 -0.284 0.21
-5.165 14.418 -0.286 0.36
-5.048 13.952 -0.271 0.59
-5.134 14.05 -0.274 0.27
-5.494 14.968 -0.306 0.3
-5.532 14.926 -0.305 0.0
-3.707 9.883 -0.133 0.0
-3.717 9.815 -0.132 0.0
-3.716 9.717 -0.129 0.0
-3.708 9.606 -0.125 0.0
-3.717 9.539 -0.123 0.0
-3.718 9.498 -0.122 0.0
-3.721 9.419 -0.12 0.0
-3.703 9.286 -0.116 0.0
-3.708 9.213 -0.114 0.0
-3.711 9.137 -0.111 0.0
-3.699 9.025 -0.108 0.0
-3.693 8.93 -0.105 0.0
-3.68 8.86 -0.103 0.0
-3.677 8.774 -0.1 0.0
-3.682 8.707 -0.098 0.0
-3.68 8.628 -0.096 0.0
-3.68 8.552 -0.094 0.0
-3.692 8.507 -0.092 0.0
-3.702 8.457 -0.091 0.0
-3.723 8.432 -0.091 0.0
-3.741 8.438 -0.091 0.0
-3.773 8.437 -0.091 0.0
-3.803 8.432 -0.092 0.0
-3.844 8.453 -0.093 0.0
-3.875 8.452 -0.093 0.0
-3.907 8.45 -0.094 0.0
-3.944 8.462 -0.094 0.0
-3.96 8.461 -0.095 0.07
-3.989 8.454 -0.095 0.0
-4.017 8.445 -0.095 0.0
-4.053 8.45 -0.096 0.0
-4.091 8.463 -0.096 0.0
-4.116 8.446 -0.096 0.0
-4.143 8.435 -0.096 0.08
-4.17 8.455 -0.097 0.13
-4.207 8.464 -0.098 0.16
-4.234 8.452 -0.098 0.09
-4.269 8.455 -0.099 0.13
-4.302 8.454 -0.099 0.1
-4.338 8.458 -0.1 0.16
-4.376 8.468 -0.101 0.0
-4.388 8.426 -0.1 0.0
-4.403 8.422 -0.1 0.0
-4.44 8.43 -0.101 0.0
-4.478 8.437 -0.101 0.0
-4.507 8.428 -0.102 0.0
-4.541 8.428 -0.102 0.0
-4.593 8.459 -0.104 0.0
-4.604 8.417 -0.103 0.0
-4.644 8.427 -0.104 0.0
-4.665 8.434 -0.104 0.0
-4.712 8.457 -0.106 0.0
-4.744 8.451 -0.106 0.0
-4.765 8.428 -0.106 0.0
-4.797 8.421 -0.106 0.0
-4.831 8.42 -0.106 0.0
-4.868 8.422 -0.107 0.0
-4.886 8.423 -0.107 0.0
-4.925 8.43 -0.108 0.0
-4.958 8.425 -0.109 0.0
-4.996 8.43 -0.109 0.0
-5.048 8.457 -0.111 0.0
-5.085 8.459 -0.112 0.0
-5.112 8.443 -0.112 0.0
-5.12 8.426 -0.111 0.0
-5.172 8.453 -0.113 0.0
-5.191 8.424 -0.112 0.0
-5.222 8.415 -0.113 0.0
-5.259 8.415 -0.113 0.0
-5.296 8.416 -0.114 0.0
-5.328 8.408 -0.114 0.0
-5.364 8.406 -0.115 0.0
-5.387 8.413 -0.115 0.0
-5.421 8.408 -0.116 0.0
-5.447 8.39 -0.116 0.0
-5.48 8.383 -0.116 0.0
-5.513 8.376 -0.117 0.0
-5.547 8.37 -0.117 0.0
-5.587 8.375 -0.118 0.07
-5.618 8.392 -0.119 0.14
-5.657 8.393 -0.12 0.16
-5.683 8.375 -0.12 0.1
-5.733 8.392 -0.121 0.14
-5.781 8.405 -0.122 0.0
-5.805 8.384 -0.122 0.0
-5.854 8.398 -0.123 0.0
-5.878 8.377 -0.123 0.0
-5.902 8.382 -0.124 0.07
-5.946 8.39 -0.125 0.14
-5.984 8.387 -0.125 0.2
-6.023 8.386 -0.126 0.23
-6.062 8.385 -0.127 0.21
-6.099 8.381 -0.127 0.29
-6.13 8.368 -0.128 0.1
-6.165 8.387 -0.129 0.2
-14.585 19.644 -0.579 0.3
-14.682 19.646 -0.581 0.32
-14.772 19.636 -0.582 0.51
-14.879 19.65 -0.585 0.32
-14.969 19.64 -0.586 0.49
-15.05 19.683 -0.589 0.32
-15.138 19.669 -0.59 0.63
-15.276 19.721 -0.594 0.47
-15.493 19.872 -0.602 0.2
-15.587 19.864 -0.604 0.32
-15.711 19.894 -0.607 0.2
-15.814 19.894 -0.609 0.16
-15.961 19.951 -0.613 0.2
-15.921 19.837 -0.61 0.2
-15.986 19.79 -0.61 0.16
-16.058 19.752 -0.61 0.38
-16.164 19.755 -0.613 0.3
-16.258 19.743 -0.614 0.57
-16.312 19.683 -0.614 0.52
-16.68 19.999 -0.629 0.18
-16.722 19.986 -0.63 0.36
-16.831 19.989 -0.632 0.27
-16.933 19.981 -0.634 0.21
-17.054 19.997 -0.637 0.26
-17.076 19.896 -0.635 0.2
-17.154 19.86 -0.636 0.18
-17.227 19.818 -0.636 0.21
-12.666 14.468 -0.411 0.52
-12.677 14.435 -0.411 0.29
-12.686 14.354 -0.409 0.38
-12.709 14.289 -0.408 0.44
-12.683 14.17 -0.404 0.35
-12.741 14.145 -0.405 0.41
-12.78 14.099 -0.405 0.45
-12.805 14.038 -0.404 0.35
-12.819 14.009 -0.403 0.48
-12.867 13.973 -0.404 0.36
-12.986 14.013 -0.407 0.49
-13.14 14.091 -0.412 0.44
-15.531 16.557 -0.522 0.34
-15.48 16.399 -0.517 0.23
-15.427 16.24 -0.513 0.37
-14.662 15.384 -0.476 0.29
-14.69 15.318 -0.475 0.24
-14.798 15.334 -0.478 0.62
-15.517 15.979 -0.509 0.26
-15.674 16.04 -0.513 0.2
-15.624 15.888 -0.509 0.48
-15.817 15.984 -0.515 0.34
-15.908 15.976 -0.517 0.25
-15.844 15.861 -0.513 0.38
-15.953 15.871 -0.516 0.28
-15.841 15.66 -0.509 0.32
-16.101 15.818 -0.518 0.44
-16.272 15.886 -0.523 0.3
-16.283 15.797 -0.522 0.35
-16.369 15.781 -0.523 0.24
-16.35 15.713 -0.521 0.38
-16.378 15.641 -0.52 0.37
-16.414 15.577 -0.52 0.23
-18.635 17.579 -0.616 0.29
-18.645 17.478 -0.614 0.36
-18.628 17.352 -0.61 0.3
-18.65 17.264 -0.609 0.34
-18.64 17.2 -0.607 0.38
-18.672 17.121 -0.606 0.3
-18.68 17.021 -0.604 0.38
-18.692 16.924 -0.603 0.36
-18.665 16.793 -0.599 0.3
-18.689 16.709 -0.598 0.39
-18.751 16.658 -0.598 0.35
-18.701 16.509 -0.594 0.36
-18.577 16.348 -0.588 0.19
-18.669 16.325 -0.589 0.47
-18.695 16.244 -0.588 0.29
-18.702 16.147 -0.586 0.27
-18.745 16.082 -0.586 0.43
-18.768 15.999 -0.585 0.32
-18.865 15.981 -0.587 0.32
-18.771 15.85 -0.582 0.35
-18.691 15.682 -0.577 0.25
-18.656 15.552 -0.573 0.56
-17.456 14.457 -0.521 0.25
-18.778 15.455 -0.574 0.27
-18.71 15.301 -0.569 0.37
-18.757 15.241 -0.569 0.36
-18.483 14.97 -0.557 0.38
-18.544 14.923 -0.557 0.24
-18.294 14.627 -0.545 0.36
-18.312 14.547 -0.544 0.32
-18.251 14.405 -0.54 0.36
-18.363 14.401 -0.543 0.36
-18.451 14.376 -0.544 0.37
-18.509 14.328 -0.545 0.34
-18.447 14.234 -0.541 0.34
-18.543 14.215 -0.543 0.39
-18.638 14.196 -0.546 0.3
-18.719 14.165 -0.547 0.38
-18.722 14.075 -0.545 0.34
-18.787 14.031 -0.546 0.29
-18.921 14.039 -0.55 0.22
-19.178 14.183 -0.559 0.58
-19.331 14.203 -0.563 0.25
-21.168 15.454 -0.635 0.24
-21.222 15.391 -0.635 0.26
-28.229 20.348 -0.909 0.34
-28.408 20.342 -0.914 0.32
-28.549 20.308 -0.917 0.29
-21.491 15.228 -0.639 0.0
-29.962 21.103 -0.969 0.09
-21.233 14.746 -0.623 0.29
-21.305 14.698 -0.624 0.5
-21.557 14.772 -0.632 0.26
-21.406 14.569 -0.624 0.29
-21.426 14.485 -0.623 0.46
-21.56 14.526 -0.628 0.29
-21.541 14.415 -0.625 0.25
-21.238 14.116 -0.612 0.39
-21.254 14.03 -0.611 0.34
-21.389 14.023 -0.614 0.29
-21.474 13.983 -0.616 0.39
-21.431 13.859 -0.612 0.41
-21.558 13.893 -0.617 0.3
-21.732 13.909 -0.621 0.38
-21.9 13.92 -0.626 0.28
-22.05 13.918 -0.63 0.31
-22.038 13.814 -0.628 0.42
-22.212 13.826 -0.633 0.3
-22.347 13.813 -0.636 0.37
-22.467 13.79 -0.639 0.31
-22.531 13.781 -0.641 0.35
-22.661 13.763 -0.644 0.3
-22.732 13.708 -0.645 0.34
-22.939 13.735 -0.651 0.31
-22.944 13.641 -0.65 0.35
-23.097 13.634 -0.654 0.44
-23.23 13.614 -0.657 0.3
-23.344 13.632 -0.661 0.34
-23.49 13.619 -0.665 0.31
-23.63 13.601 -0.668 0.37
-23.791 13.594 -0.673 0.3
-23.943 13.581 -0.677 0.37
-24.147 13.597 -0.683 0.32
-24.287 13.576 -0.686 0.38
-24.48 13.634 -0.692 0.34
-24.519 13.555 -0.692 0.31
-24.654 13.529 -0.696 0.32
-24.821 13.519 -0.7 0.33
-24.93 13.477 -0.703 0.3
-25.11 13.473 -0.708 0.43
-25.291 13.468 -0.713 0.23
-25.383 13.466 -0.715 0.42
-25.623 13.49 -0.722 0.29
-25.804 13.482 -0.727 0.18
-25.828 13.392 -0.727 0.54
-26.149 13.455 -0.737 0.0
-60.978 31.172 -1.988 0.0
-60.609 30.743 -1.971 0.0
-28.856 14.508 -0.829 0.0
-60.624 30.393 -1.966 0.0
-60.519 30.102 -1.959 0.0
-60.221 29.718 -1.945 0.0
-60.436 29.588 -1.949 0.06
-60.413 29.343 -1.945 0.0
-59.981 28.9 -1.927 0.0
-29.349 13.956 -0.836 0.29
-29.617 13.97 -0.844 0.26
-30.082 14.074 -0.859 0.0
-59.889 27.819 -1.909 0.0
-59.856 27.575 -1.905 0.0
-60.826 27.791 -1.936 0.0
-61.696 27.955 -1.964 0.0
-62.259 28.093 -1.982 0.0
-62.487 27.96 -1.987 0.0
-65.88 29.231 -2.102 0.0
-66.043 29.056 -2.105 0.0
-65.883 28.738 -2.096 0.0
-65.552 28.349 -2.082 0.0
-66.53 28.525 -2.113 0.0
-51.921 22.158 -1.602 0.0
-66.975 28.343 -2.123 0.0
-67.038 28.121 -2.122 0.0
-67.584 28.101 -2.138 0.0
-68.954 28.418 -2.183 0.0
-69.026 28.194 -2.182 0.0
-69.463 28.118 -2.194 0.0
-70.638 28.336 -2.232 0.0
-36.381 13.856 -1.042 0.0
-36.543 13.786 -1.046 0.0
-44.015 15.204 -1.286 0.0
-44.044 15.059 -1.285 0.0
-50.977 16.899 -1.515 0.0
-51.03 16.738 -1.515 0.0
-64.651 20.653 -1.968 0.0
-58.28 18.413 -1.752 0.0
-58.288 18.214 -1.75 0.13
-53.974 16.493 -1.602 0.19
-58.316 17.722 -1.746 0.08
-58.356 17.534 -1.746 0.14
-58.378 17.341 -1.745 0.22
-58.396 17.146 -1.744 0.11
-58.425 16.956 -1.743 0.0
-76.175 21.468 -2.329 0.0
-77.044 21.191 -2.353 0.0
-64.952 17.423 -1.948 0.0
-71.42 17.367 -2.148 0.04
-71.396 17.124 -2.146 0.08
-71.364 16.88 -2.143 0.08
-71.311 16.749 -2.14 0.09
-71.302 16.511 -2.138 0.14
-71.294 16.273 -2.136 0.23
-71.301 16.039 -2.135 0.14
-64.317 13.724 -1.901 0.16
-48.275 9.978 -1.373 0.75
-48.595 9.726 -1.382 0.0
-48.373 9.523 -1.374 0.0
-38.296 7.409 -1.044 0.0
-38.292 7.346 -1.044 0.0
-38.315 7.226 -1.044 0.0
-38.373 7.112 -1.045 0.0
-66.511 12.13 -1.96 0.0
-66.482 11.909 -1.957 0.0
-66.468 11.691 -1.956 0.0
-66.484 11.479 -1.955 0.0
-71.005 9.975 -2.091 0.1
-70.948 9.74 -2.088 0.0
-70.787 9.491 -2.082 0.0
-71.173 9.316 -2.093 0.0
-78.389 -14.714 -2.348 0.0
-77.234 -19.975 -2.349 0.0
-75.736 -19.842 -2.302 0.0
-69.125 -18.461 -2.086 0.0
-69.129 -18.695 -2.088 0.0
-69.993 -19.165 -2.118 0.0
-68.624 -19.022 -2.075 0.0
-67.423 -18.918 -2.037 0.0
-65.607 -18.632 -1.979 0.0
-65.072 -18.701 -1.963 0.0
-63.921 -18.588 -1.926 0.0
-62.796 -18.369 -1.89 0.0
-61.766 -18.279 -1.857 0.0
-60.733 -18.181 -1.825 0.0
-59.732 -18.087 -1.793 0.0
-58.741 -17.988 -1.762 0.0
-57.811 -17.903 -1.733 0.0
-56.898 -17.817 -1.704 0.0
-56.036 -17.644 -1.676 0.0
-55.169 -17.562 -1.649 0.0
-54.328 -17.483 -1.622 0.0
-53.514 -17.407 -1.597 0.0
-52.716 -17.331 -1.572 0.0
-51.973 -17.268 -1.549 0.0
-50.794 -17.055 -1.511 0.0
-50.459 -17.119 -1.501 0.0
-49.875 -17.008 -1.482 0.0
-49.2 -16.951 -1.461 0.0
-48.508 -16.884 -1.44 0.0
-47.811 -16.81 -1.418 0.0
-47.221 -16.77 -1.4 0.0
-46.576 -16.706 -1.379 0.0
-45.982 -16.657 -1.361 0.0
-45.379 -16.519 -1.341 0.0
-44.812 -16.473 -1.324 0.16
-41.448 -15.386 -1.211 0.17
-41.349 -15.498 -1.209 0.0
-41.369 -15.654 -1.211 0.0
-42.594 -16.269 -1.255 0.0
-42.089 -16.228 -1.239 0.0
-41.57 -16.103 -1.222 0.0
-41.051 -16.052 -1.206 0.0
-40.566 -16.009 -1.191 0.0
-40.09 -15.967 -1.177 0.0
-39.674 -15.946 -1.164 0.12
-39.162 -15.884 -1.148 0.09
-38.759 -15.863 -1.136 0.16
-38.311 -15.821 -1.122 0.21
-37.899 -15.72 -1.109 0.11
-37.497 -15.692 -1.097 0.15
-37.073 -15.652 -1.084 0.16
-36.393 -15.5 -1.062 0.1
-35.962 -15.451 -1.048 0.17
-35.706 -15.474 -1.041 0.12
-35.635 -15.576 -1.04 0.17
-35.428 -15.552 -1.034 0.29
-35.155 -15.565 -1.026 0.19
-34.871 -15.57 -1.018 0.18
-34.601 -15.58 -1.01 0.18
-34.343 -15.594 -1.003 0.21
-34.075 -15.602 -0.995 0.19
-33.812 -15.611 -0.988 0.21
-33.541 -15.614 -0.98 0.2
-33.323 -15.576 -0.973 0.21
-33.077 -15.588 -0.966 0.21
-32.838 -15.602 -0.959 0.21
-32.607 -15.618 -0.953 0.18
-32.343 -15.617 -0.945 0.35
-31.738 -15.449 -0.925 0.22
-31.297 -15.356 -0.911 0.23
-31.095 -15.318 -0.905 0.32
-30.892 -15.339 -0.9 0.22
-30.767 -15.397 -0.897 0.26
-30.767 -15.518 -0.899 0.5
-30.763 -15.637 -0.9 0.22
-30.073 -15.406 -0.877 0.25
-29.765 -15.367 -0.868 0.28
-29.652 -15.368 -0.865 0.34
-29.617 -15.468 -0.865 0.28
-29.569 -15.561 -0.865 0.38
-29.479 -15.633 -0.864 0.39
-29.267 -15.639 -0.858 0.23
-29.003 -15.615 -0.85 0.18
-28.455 -15.436 -0.832 0.36
-28.376 -15.451 -0.83 0.32
-28.212 -15.477 -0.826 0.34
-28.156 -15.561 -0.825 0.3
-28.067 -15.627 -0.824 0.31
-27.887 -15.642 -0.819 0.28
-27.705 -15.655 -0.814 0.27
-27.515 -15.662 -0.809 0.26
-27.323 -15.667 -0.804 0.24
-26.969 -15.521 -0.792 0.31
-26.819 -15.546 -0.788 0.2
-26.31 -15.363 -0.771 0.32
-26.143 -15.375 -0.766 0.33
-26.02 -15.414 -0.764 0.3
-25.929 -15.47 -0.762 0.4
-25.724 -15.458 -0.756 0.28
-25.645 -15.465 -0.754 0.34
-25.579 -15.535 -0.754 0.33
-25.208 -15.419 -0.741 0.37
-25.047 -15.429 -0.737 0.31
-24.93 -15.465 -0.735 0.3
-24.702 -15.431 -0.728 0.27
-24.501 -15.413 -0.722 0.35
-24.394 -15.399 -0.719 0.36
-24.144 -15.349 -0.711 0.29
-23.983 -15.352 -0.707 0.34
-23.921 -15.419 -0.707 0.32
-23.905 -15.515 -0.708 0.42
-23.899 -15.618 -0.709 0.41
-23.601 -15.53 -0.7 0.27
-23.387 -15.494 -0.694 0.36
-23.326 -15.507 -0.692 0.32
-23.131 -15.482 -0.687 0.33
-22.979 -15.486 -0.683 0.39
-22.843 -15.499 -0.679 0.3
-22.707 -15.511 -0.676 0.33
-22.483 -15.462 -0.669 0.29
-22.326 -15.457 -0.665 0.45
-22.29 -15.485 -0.664 0.29
-22.056 -15.425 -0.657 0.41
-21.994 -15.485 -0.657 0.22
-21.738 -15.408 -0.648 0.48
-21.649 -15.447 -0.647 0.3
-21.456 -15.411 -0.641 0.36
-21.27 -15.379 -0.636 0.35
-21.207 -15.384 -0.634 0.27
-21.058 -15.378 -0.63 0.37
