# .PCD v.7 - Point Cloud Data file format
VERSION .7
FIELDS x y z intensity
SIZE 4 4 4 4
TYPE F F F F
COUNT 1 1 1 1
WIDTH 1856
HEIGHT 1
VIEWPOINT 0 0 0 1 0 0 0
POINTS 1856
DATA ascii
-33.415 -9.764 -2.193 0.0
-32.831 -9.706 -2.153 0.06
-32.296 -9.658 -2.117 0.08
-31.879 -9.589 -2.088 0.14
-31.885 -9.7 -2.091 0.1
-31.61 -9.725 -2.073 0.17
-31.351 -9.753 -2.057 0.16
-31.162 -9.802 -2.045 0.45
-31.137 -9.902 -2.046 0.23
-30.87 -9.924 -2.029 0.16
-30.702 -9.977 -2.019 0.45
-30.497 -9.963 -2.005 0.25
-30.405 -10.039 -2.001 0.26
-30.32 -10.117 -1.997 0.27
-30.033 -10.126 -1.978 0.27
-29.859 -10.172 -1.968 0.21
-29.759 -10.243 -1.963 0.42
-29.657 -10.312 -1.958 0.23
-29.482 -10.303 -1.947 0.2
-29.264 -10.33 -1.933 0.16
-29.111 -10.379 -1.924 0.14
-29.104 -10.48 -1.926 0.28
-29.049 -10.563 -1.925 0.27
-28.982 -10.642 -1.922 0.25
-28.714 -10.647 -1.905 0.18
-28.712 -10.697 -1.906 0.46
-28.714 -10.801 -1.909 0.24
-28.437 -10.799 -1.891 0.21
-28.506 -10.928 -1.898 0.16
-28.54 -11.044 -1.903 0.19
-27.115 -10.592 -1.801 0.17
-28.407 -11.198 -1.899 0.31
-27.553 -10.912 -1.837 0.2
-26.401 -10.553 -1.754 0.16
-27.409 -11.055 -1.831 0.15
-27.123 -11.039 -1.813 0.24
-27.253 -11.192 -1.825 0.09
-26.583 -11.015 -1.778 0.0
-27.003 -11.288 -1.812 0.15
-26.62 -11.227 -1.786 0.0
-26.986 -11.431 -1.814 0.0
-29.056 -12.413 -1.972 0.0
-26.366 -11.364 -1.773 0.0
-26.407 -11.481 -1.779 0.0
-28.709 -12.586 -1.955 0.0
-28.642 -12.664 -1.953 0.07
-28.582 -12.745 -1.951 0.14
-28.469 -12.749 -1.944 0.21
-28.27 -12.767 -1.932 0.26
-28.081 -12.788 -1.921 0.28
-27.932 -12.826 -1.913 0.29
-27.767 -12.856 -1.903 0.29
-27.607 -12.888 -1.894 0.33
-27.449 -12.919 -1.885 0.29
-27.353 -12.926 -1.879 0.33
-27.215 -12.966 -1.872 0.28
-27.039 -12.987 -1.862 0.29
-26.899 -13.024 -1.854 0.32
-26.766 -13.064 -1.847 0.2
-26.661 -13.116 -1.842 0.48
-26.489 -13.135 -1.832 0.25
-26.375 -13.131 -1.825 0.2
-26.318 -13.206 -1.824 0.0
-26.41 -13.356 -1.834 0.0
-26.533 -13.523 -1.847 0.0
-25.342 -13.017 -1.758 0.0
-26.286 -13.606 -1.834 0.0
-25.031 -13.057 -1.74 0.0
-25.029 -13.156 -1.743 0.0
-24.773 -13.072 -1.725 0.06
-26.035 -13.841 -1.827 0.08
-24.314 -13.026 -1.696 0.08
-25.854 -13.954 -1.819 0.08
-25.768 -14.012 -1.816 0.08
-25.682 -14.07 -1.813 0.08
-25.601 -14.13 -1.81 0.09
-25.549 -14.154 -1.807 0.09
-25.473 -14.217 -1.805 0.14
-25.407 -14.285 -1.803 0.23
-25.333 -14.348 -1.801 0.25
-25.243 -14.402 -1.797 0.25
-25.157 -14.458 -1.794 0.24
-25.067 -14.511 -1.791 0.24
-24.988 -14.571 -1.788 0.24
-24.926 -14.587 -1.785 0.24
-24.851 -14.648 -1.783 0.24
-24.775 -14.709 -1.78 0.11
-24.698 -14.768 -1.778 0.15
-24.611 -14.821 -1.774 0.22
-24.535 -14.881 -1.772 0.25
-24.432 -14.923 -1.768 0.1
-24.39 -14.95 -1.766 0.16
-24.314 -15.009 -1.764 0.12
-24.231 -15.063 -1.761 0.15
-24.136 -15.11 -1.757 0.12
-24.085 -15.183 -1.757 0.2
-23.993 -15.231 -1.753 0.19
-23.908 -15.283 -1.75 0.18
-23.805 -15.27 -1.744 0.15
-23.694 -15.304 -1.739 0.43
-23.675 -15.398 -1.741 0.23
-23.558 -15.427 -1.735 0.24
-23.468 -15.474 -1.732 0.25
-23.335 -15.491 -1.725 0.31
-23.205 -15.51 -1.718 0.22
-23.112 -15.501 -1.713 0.39
-23.025 -15.548 -1.709 0.33
-22.902 -15.57 -1.703 0.25
-22.771 -15.585 -1.696 0.34
-22.608 -15.579 -1.687 0.18
-22.484 -15.597 -1.681 0.38
-22.349 -15.609 -1.673 0.19
-22.228 -15.576 -1.665 0.34
-22.086 -15.581 -1.658 0.23
-21.935 -15.577 -1.649 0.19
-21.817 -15.597 -1.643 0.39
-21.681 -15.603 -1.636 0.23
-21.531 -15.599 -1.627 0.22
-21.4 -15.606 -1.62 0.36
-21.266 -15.611 -1.613 0.2
-21.157 -15.583 -1.606 0.24
-21.049 -15.605 -1.601 0.4
-20.906 -15.601 -1.593 0.25
-20.769 -15.601 -1.585 0.21
-20.646 -15.611 -1.579 0.27
-20.51 -15.609 -1.571 0.21
-20.391 -15.62 -1.565 0.26
-20.244 -15.559 -1.555 0.26
-20.044 -15.505 -1.541 0.27
-19.921 -15.51 -1.535 0.29
-19.797 -15.514 -1.528 0.3
-19.679 -15.522 -1.522 0.27
-19.57 -15.536 -1.517 0.24
-19.431 -15.526 -1.509 0.18
-19.449 -15.59 -1.513 0.46
-19.356 -15.616 -1.509 0.23
-19.247 -15.628 -1.504 0.28
-19.132 -15.635 -1.498 0.3
-19.012 -15.637 -1.492 0.29
-18.912 -15.655 -1.487 0.28
-18.837 -15.692 -1.485 0.3
-18.731 -15.654 -1.477 0.31
-18.653 -15.688 -1.475 0.35
-18.57 -15.719 -1.472 0.31
-18.426 -15.697 -1.463 0.34
-18.31 -15.698 -1.457 0.29
-18.227 -15.726 -1.454 0.36
-17.894 -15.538 -1.428 0.27
-17.859 -15.606 -1.43 0.31
-17.887 -15.68 -1.434 0.29
-17.763 -15.67 -1.428 0.32
-17.646 -15.666 -1.421 0.3
-17.551 -15.68 -1.417 0.31
-17.445 -15.685 -1.412 0.31
-17.347 -15.695 -1.407 0.29
-10.13 -9.239 -0.741 0.2
-10.159 -9.293 -0.745 0.42
-10.103 -9.301 -0.743 0.34
-10.185 -9.436 -0.753 0.58
-16.834 -15.67 -1.38 0.16
-9.923 -9.31 -0.734 0.18
-9.972 -9.415 -0.741 0.33
-9.877 -9.385 -0.735 0.59
-16.491 -15.694 -1.364 0.24
-9.936 -9.589 -0.748 0.59
-9.804 -9.582 -0.741 0.38
-9.758 -9.597 -0.74 0.43
-9.705 -9.605 -0.737 0.36
-9.677 -9.608 -0.736 0.47
-9.655 -9.647 -0.737 0.38
-9.626 -9.678 -0.737 0.55
-9.608 -9.721 -0.738 0.39
-9.564 -9.737 -0.737 0.67
-9.564 -9.799 -0.74 0.33
-9.477 -9.771 -0.734 0.33
-9.492 -9.848 -0.739 0.2
-9.437 -9.822 -0.735 0.52
-9.454 -9.902 -0.74 0.41
-9.529 -10.043 -0.75 0.26
-9.489 -10.064 -0.75 0.38
-9.459 -10.095 -0.75 0.38
-9.42 -10.117 -0.749 0.43
-9.409 -10.169 -0.751 0.31
-9.497 -10.296 -0.762 0.58
-14.403 -15.693 -1.263 0.18
-14.197 -15.567 -1.247 0.29
-14.214 -15.684 -1.254 0.27
-14.155 -15.719 -1.253 0.35
-14.058 -15.709 -1.248 0.26
-13.988 -15.731 -1.246 0.37
-13.929 -15.714 -1.243 0.35
-13.845 -15.719 -1.239 0.39
-13.766 -15.728 -1.236 0.39
-13.645 -15.69 -1.229 0.25
-13.591 -15.727 -1.228 0.44
-13.506 -15.729 -1.224 0.3
-13.433 -15.744 -1.222 0.38
-13.366 -15.715 -1.217 0.23
-13.284 -15.719 -1.214 0.35
-13.188 -15.705 -1.209 0.25
-13.121 -15.725 -1.207 0.43
-12.996 -15.676 -1.199 0.22
-12.368 -15.015 -1.136 0.24
-12.309 -15.04 -1.135 0.26
-12.25 -15.065 -1.134 0.49
-12.244 -15.105 -1.136 0.5
-12.213 -15.164 -1.138 0.27
-12.586 -15.727 -1.184 0.23
-12.511 -15.733 -1.181 0.36
-12.427 -15.729 -1.177 0.34
-12.354 -15.738 -1.174 0.32
-12.273 -15.738 -1.171 0.32
-12.227 -15.728 -1.169 0.33
-12.139 -15.718 -1.164 0.25
-12.054 -15.71 -1.16 0.42
-12.001 -15.743 -1.16 0.31
-11.917 -15.735 -1.156 0.21
-11.841 -15.737 -1.153 0.34
-11.766 -15.741 -1.15 0.32
-11.713 -15.721 -1.147 0.32
-11.647 -15.735 -1.145 0.37
-11.578 -15.746 -1.143 0.38
-11.496 -15.737 -1.139 0.21
-11.422 -15.739 -1.136 0.43
-11.342 -15.733 -1.132 0.23
-11.267 -15.733 -1.129 0.36
-11.219 -15.718 -1.127 0.36
-11.153 -15.73 -1.125 0.36
-11.085 -15.739 -1.122 0.34
-11.011 -15.738 -1.119 0.36
-10.941 -15.743 -1.117 0.34
-10.872 -15.75 -1.115 0.39
-10.797 -15.748 -1.112 0.3
-10.725 -15.748 -1.109 0.42
-10.683 -15.739 -1.107 0.37
-10.617 -15.749 -1.105 0.34
-10.547 -15.751 -1.102 0.34
-10.476 -15.753 -1.099 0.25
-10.402 -15.749 -1.096 0.34
-10.339 -15.76 -1.095 0.4
-10.278 -15.775 -1.093 0.36
-10.228 -15.753 -1.09 0.3
-10.144 -15.732 -1.086 0.3
-10.079 -15.74 -1.084 0.31
-10.025 -15.763 -1.083 0.38
-9.957 -15.766 -1.081 0.34
-9.885 -15.761 -1.078 0.36
-9.816 -15.762 -1.075 0.37
-9.77 -15.742 -1.073 0.29
-9.706 -15.75 -1.071 0.28
-9.651 -15.771 -1.07 0.45
-9.579 -15.765 -1.067 0.28
-9.508 -15.759 -1.064 0.33
-9.444 -15.765 -1.062 0.39
-9.377 -15.766 -1.06 0.32
-9.344 -15.767 -1.059 0.37
-9.269 -15.753 -1.055 0.3
-9.214 -15.772 -1.055 0.32
-9.146 -15.769 -1.052 0.34
-9.075 -15.762 -1.049 0.37
-9.006 -15.756 -1.047 0.29
-8.948 -15.768 -1.045 0.36
-8.91 -15.76 -1.043 0.23
-8.845 -15.76 -1.041 0.34
-8.783 -15.767 -1.04 0.41
-8.717 -15.764 -1.037 0.23
-8.658 -15.774 -1.036 0.5
-8.595 -15.777 -1.034 0.25
-8.526 -15.767 -1.031 0.29
-8.494 -15.768 -1.03 0.4
-8.427 -15.761 -1.028 0.31
-8.361 -15.758 -1.025 0.35
-4.647 -8.849 -0.486 0.16
-4.625 -8.874 -0.486 0.54
-4.622 -8.937 -0.49 0.26
-4.605 -8.972 -0.492 0.33
-4.572 -8.978 -0.491 0.25
-4.523 -8.918 -0.486 0.55
-4.479 -8.9 -0.483 0.17
-4.517 -9.046 -0.494 0.33
-4.46 -9.003 -0.489 0.34
-4.446 -9.045 -0.491 0.27
-4.406 -9.036 -0.49 0.39
-4.368 -9.03 -0.488 0.41
-4.403 -9.137 -0.496 0.41
-4.403 -9.21 -0.5 0.25
-4.378 -9.233 -0.501 0.4
-4.379 -9.31 -0.506 0.14
-7.388 -15.795 -0.998 0.37
-7.321 -15.78 -0.995 0.42
-7.271 -15.801 -0.995 0.39
-7.233 -15.784 -0.992 0.38
-7.174 -15.786 -0.991 0.27
-7.065 -15.678 -0.981 0.57
-7.063 -15.805 -0.989 0.19
-4.032 -9.126 -0.484 0.18
-3.985 -9.099 -0.481 0.33
-3.953 -9.102 -0.481 0.45
-3.939 -9.11 -0.481 0.34
-3.904 -9.108 -0.48 0.36
-3.867 -9.1 -0.478 0.43
-3.881 -9.211 -0.486 0.39
-3.876 -9.282 -0.49 0.22
-6.56 -15.801 -0.975 0.27
-6.504 -15.805 -0.974 0.43
-6.446 -15.805 -0.972 0.36
-6.414 -15.798 -0.971 0.35
-6.358 -15.803 -0.97 0.36
-6.302 -15.807 -0.969 0.42
-6.244 -15.806 -0.967 0.36
-6.186 -15.803 -0.966 0.45
-6.129 -15.804 -0.964 0.42
-6.066 -15.79 -0.962 0.35
-6.039 -15.792 -0.961 0.33
-5.983 -15.794 -0.96 0.34
-5.928 -15.799 -0.959 0.36
-5.873 -15.805 -0.958 0.43
-5.815 -15.801 -0.956 0.38
-5.759 -15.8 -0.955 0.38
-5.704 -15.803 -0.954 0.36
-5.676 -15.805 -0.953 0.27
-5.618 -15.798 -0.952 0.37
-5.567 -15.812 -0.951 0.45
-5.511 -15.81 -0.95 0.41
-5.452 -15.803 -0.948 0.35
-5.4 -15.813 -0.948 0.36
-5.345 -15.812 -0.946 0.32
-5.315 -15.808 -0.945 0.41
-5.26 -15.807 -0.944 0.38
-5.205 -15.807 -0.943 0.37
-5.149 -15.806 -0.942 0.36
-5.084 -15.773 -0.938 0.38
-5.008 -15.709 -0.932 0.31
-4.956 -15.715 -0.932 0.34
-4.926 -15.705 -0.93 0.34
-4.874 -15.711 -0.93 0.37
-4.82 -15.711 -0.929 0.38
-4.765 -15.709 -0.927 0.37
-4.713 -15.716 -0.927 0.4
-4.658 -15.71 -0.925 0.36
-4.605 -15.715 -0.925 0.39
-4.578 -15.715 -0.924 0.36
-4.524 -15.71 -0.923 0.48
-4.478 -15.737 -0.924 0.4
-4.452 -15.834 -0.93 0.32
-4.397 -15.831 -0.928 0.35
-4.348 -15.844 -0.928 0.42
-4.291 -15.835 -0.927 0.35
-4.239 -15.837 -0.926 0.34
-4.212 -15.837 -0.925 0.35
-4.157 -15.829 -0.924 0.33
-4.105 -15.835 -0.923 0.31
-4.051 -15.83 -0.922 0.37
-4.0 -15.837 -0.922 0.41
-3.947 -15.838 -0.921 0.33
-3.895 -15.842 -0.92 0.45
-3.866 -15.831 -0.919 0.34
-3.814 -15.833 -0.918 0.34
-3.762 -15.838 -0.918 0.41
-3.707 -15.828 -0.916 0.28
-3.654 -15.824 -0.915 0.35
-3.603 -15.828 -0.915 0.34
-3.552 -15.837 -0.915 0.39
-3.524 -15.825 -0.913 0.36
-3.472 -15.828 -0.913 0.39
-3.419 -15.821 -0.912 0.44
-3.367 -15.824 -0.911 0.33
-3.319 -15.841 -0.911 0.4
-3.265 -15.831 -0.91 0.27
-3.213 -15.83 -0.909 0.36
-3.187 -15.833 -0.909 0.4
-3.135 -15.827 -0.908 0.31
-3.083 -15.827 -0.907 0.36
-3.03 -15.821 -0.906 0.32
-2.98 -15.829 -0.906 0.36
-2.929 -15.83 -0.906 0.34
-2.88 -15.845 -0.906 0.27
-2.829 -15.848 -0.906 0.47
-2.8 -15.829 -0.904 0.36
-2.751 -15.842 -0.904 0.3
-2.7 -15.84 -0.903 0.34
-2.65 -15.847 -0.903 0.36
-2.598 -15.847 -0.903 0.34
-2.548 -15.853 -0.903 0.4
-2.496 -15.847 -0.902 0.39
-2.471 -15.847 -0.901 0.36
-2.42 -15.847 -0.901 0.34
-2.37 -15.855 -0.901 0.36
-2.318 -15.848 -0.9 0.34
-2.267 -15.844 -0.899 0.39
-2.217 -15.853 -0.899 0.36
-2.165 -15.844 -0.898 0.38
-2.14 -15.845 -0.898 0.32
-2.089 -15.844 -0.897 0.34
-2.037 -15.836 -0.896 0.38
-1.99 -15.859 -0.898 0.41
-1.938 -15.851 -0.897 0.27
-1.887 -15.845 -0.896 0.37
-1.838 -15.855 -0.896 0.34
-1.812 -15.852 -0.896 0.4
-1.76 -15.84 -0.894 0.34
-1.712 -15.855 -0.895 0.32
-1.663 -15.87 -0.896 0.46
-1.611 -15.857 -0.895 0.33
-1.561 -15.856 -0.894 0.32
-1.511 -15.865 -0.894 0.36
-1.486 -15.862 -0.894 0.4
-1.435 -15.86 -0.894 0.46
-1.385 -15.861 -0.893 0.31
-1.335 -15.861 -0.893 0.32
-1.284 -15.857 -0.892 0.37
-1.235 -15.867 -0.893 0.42
-1.185 -15.865 -0.892 0.37
-1.16 -15.871 -0.893 0.37
-1.11 -15.87 -0.892 0.45
-1.059 -15.862 -0.892 0.32
-1.009 -15.865 -0.892 0.43
-0.96 -15.876 -0.892 0.27
-0.91 -15.871 -0.892 0.51
-0.86 -15.878 -0.892 0.32
-0.835 -15.869 -0.891 0.48
-0.785 -15.87 -0.891 0.36
-0.736 -15.886 -0.892 0.35
-0.685 -15.872 -0.891 0.52
-0.635 -15.871 -0.891 0.38
-0.585 -15.864 -0.89 0.36
-0.535 -15.878 -0.891 0.29
-0.485 -15.876 -0.891 0.38
-0.46 -15.871 -0.89 0.38
-0.411 -15.882 -0.891 0.39
-0.36 -15.873 -0.89 0.4
-0.31 -15.872 -0.89 0.41
-0.261 -15.871 -0.89 0.36
-0.211 -15.872 -0.89 0.38
-0.161 -15.868 -0.89 0.37
-0.136 -15.865 -0.889 0.39
-0.086 -15.869 -0.89 0.4
-0.036 -15.877 -0.89 0.29
0.014 -15.887 -0.891 0.53
0.064 -15.869 -0.89 0.33
0.113 -15.877 -0.89 0.33
0.163 -15.872 -0.89 0.36
0.188 -15.874 -0.89 0.35
0.238 -15.875 -0.89 0.39
0.288 -15.877 -0.89 0.37
0.338 -15.874 -0.89 0.35
0.388 -15.882 -0.891 0.36
0.438 -15.879 -0.891 0.26
0.488 -15.884 -0.891 0.55
0.513 -15.877 -0.891 0.34
0.563 -15.893 -0.892 0.34
0.613 -15.883 -0.892 0.31
0.663 -15.887 -0.892 0.25
0.713 -15.881 -0.892 0.33
0.762 -15.873 -0.891 0.39
0.812 -15.87 -0.891 0.34
0.838 -15.879 -0.892 0.36
0.888 -15.878 -0.892 0.39
0.937 -15.874 -0.892 0.3
0.991 -15.936 -0.896 0.43
1.038 -15.881 -0.893 0.38
1.088 -15.888 -0.894 0.3
1.138 -15.878 -0.893 0.43
1.163 -15.881 -0.893 0.32
1.214 -15.889 -0.894 0.38
1.264 -15.881 -0.894 0.43
1.315 -15.891 -0.895 0.38
1.365 -15.891 -0.895 0.39
1.415 -15.89 -0.895 0.32
1.465 -15.89 -0.896 0.42
1.49 -15.889 -0.896 0.36
1.541 -15.89 -0.896 0.38
1.591 -15.89 -0.897 0.48
1.641 -15.886 -0.897 0.36
1.691 -15.877 -0.896 0.35
1.742 -15.882 -0.897 0.24
1.793 -15.89 -0.898 0.38
1.844 -15.896 -0.899 0.38
1.869 -15.891 -0.899 0.41
1.919 -15.887 -0.899 0.35
1.971 -15.897 -0.9 0.38
2.021 -15.893 -0.9 0.31
2.074 -15.904 -0.901 0.43
2.123 -15.89 -0.901 0.39
2.174 -15.897 -0.902 0.37
2.2 -15.899 -0.902 0.36
2.251 -15.898 -0.903 0.39
2.302 -15.901 -0.903 0.37
2.352 -15.894 -0.903 0.35
2.403 -15.892 -0.904 0.27
2.446 -15.837 -0.9 0.54
2.506 -15.896 -0.905 0.33
2.533 -15.908 -0.906 0.35
2.585 -15.91 -0.907 0.38
2.637 -15.916 -0.908 0.32
2.717 -16.088 -0.92 0.44
2.738 -15.907 -0.908 0.37
2.79 -15.91 -0.909 0.37
2.841 -15.907 -0.91 0.37
2.867 -15.908 -0.91 0.38
2.919 -15.907 -0.911 0.38
2.971 -15.908 -0.911 0.43
3.024 -15.918 -0.913 0.34
3.074 -15.908 -0.913 0.34
3.127 -15.914 -0.914 0.31
3.179 -15.912 -0.914 0.43
3.207 -15.923 -0.915 0.34
3.26 -15.926 -0.916 0.29
3.311 -15.924 -0.917 0.46
3.361 -15.911 -0.917 0.29
3.415 -15.918 -0.918 0.38
3.465 -15.907 -0.918 0.33
3.516 -15.904 -0.919 0.24
3.574 -15.926 -0.921 0.45
3.599 -15.922 -0.921 0.37
3.652 -15.923 -0.922 0.3
3.704 -15.921 -0.923 0.3
3.757 -15.921 -0.923 0.3
3.809 -15.919 -0.924 0.39
3.866 -15.934 -0.926 0.34
3.916 -15.922 -0.926 0.36
3.945 -15.933 -0.927 0.36
3.999 -15.938 -0.928 0.32
4.052 -15.937 -0.929 0.45
4.105 -15.936 -0.93 0.36
4.158 -15.934 -0.931 0.34
4.207 -15.915 -0.931 0.35
4.239 -15.936 -0.932 0.37
4.294 -15.942 -0.934 0.23
4.347 -15.938 -0.934 0.41
4.4 -15.935 -0.935 0.43
4.454 -15.935 -0.936 0.35
4.507 -15.932 -0.937 0.38
4.562 -15.935 -0.938 0.43
4.618 -15.942 -0.94 0.29
4.646 -15.946 -0.941 0.41
4.7 -15.943 -0.941 0.41
4.755 -15.946 -0.943 0.35
4.812 -15.953 -0.944 0.34
4.865 -15.948 -0.945 0.38
4.924 -15.961 -0.947 0.38
4.972 -15.938 -0.947 0.35
5.004 -15.955 -0.948 0.46
5.059 -15.954 -0.949 0.34
5.111 -15.942 -0.95 0.39
5.168 -15.949 -0.951 0.33
5.221 -15.942 -0.952 0.37
5.279 -15.948 -0.954 0.38
5.333 -15.945 -0.955 0.36
5.367 -15.963 -0.957 0.32
5.419 -15.952 -0.957 0.46
5.479 -15.963 -0.959 0.42
5.539 -15.974 -0.961 0.34
5.589 -15.956 -0.961 0.27
5.645 -15.956 -0.962 0.37
5.701 -15.955 -0.964 0.36
5.734 -15.968 -0.965 0.33
5.795 -15.98 -0.967 0.33
5.849 -15.971 -0.968 0.4
5.908 -15.977 -0.97 0.35
5.966 -15.979 -0.971 0.38
6.021 -15.973 -0.972 0.38
6.077 -15.969 -0.973 0.39
6.135 -15.973 -0.975 0.47
6.165 -15.976 -0.976 0.34
6.223 -15.977 -0.978 0.36
6.28 -15.974 -0.979 0.38
6.341 -15.982 -0.981 0.33
6.397 -15.977 -0.982 0.3
6.457 -15.981 -0.984 0.38
6.517 -15.984 -0.986 0.38
6.55 -15.993 -0.987 0.43
6.608 -15.992 -0.988 0.35
6.668 -15.994 -0.99 0.38
6.722 -15.982 -0.991 0.4
6.781 -15.983 -0.992 0.43
6.842 -15.987 -0.994 0.35
6.9 -15.982 -0.996 0.36
6.936 -15.997 -0.997 0.37
6.994 -15.993 -0.999 0.39
7.054 -15.993 -1.001 0.35
7.117 -16.0 -1.003 0.41
7.173 -15.99 -1.004 0.36
7.236 -15.997 -1.006 0.34
7.291 -15.985 -1.007 0.32
7.334 -16.011 -1.01 0.27
7.393 -16.008 -1.011 0.55
7.453 -16.005 -1.013 0.35
7.515 -16.007 -1.015 0.27
7.575 -16.005 -1.016 0.42
7.638 -16.006 -1.018 0.32
7.703 -16.014 -1.021 0.29
7.732 -16.009 -1.021 0.23
7.799 -16.019 -1.024 0.29
7.862 -16.021 -1.026 0.35
7.925 -16.022 -1.028 0.41
7.99 -16.027 -1.03 0.3
8.049 -16.018 -1.031 0.35
8.104 -16.003 -1.032 0.35
8.146 -16.023 -1.035 0.35
8.218 -16.04 -1.038 0.31
8.275 -16.028 -1.039 0.39
8.335 -16.019 -1.04 0.35
8.399 -16.02 -1.042 0.35
8.462 -16.018 -1.044 0.34
8.534 -16.032 -1.047 0.35
8.567 -16.033 -1.049 0.35
8.63 -16.03 -1.05 0.38
8.7 -16.038 -1.053 0.32
8.762 -16.033 -1.055 0.34
8.828 -16.034 -1.057 0.33
8.896 -16.037 -1.06 0.39
8.958 -16.03 -1.061 0.27
9.003 -16.053 -1.064 0.4
9.07 -16.054 -1.067 0.36
9.136 -16.051 -1.069 0.3
9.196 -16.04 -1.07 0.3
9.274 -16.059 -1.074 0.34
9.338 -16.053 -1.076 0.37
9.402 -16.047 -1.078 0.36
9.446 -16.065 -1.08 0.37
9.517 -16.07 -1.083 0.38
9.578 -16.057 -1.084 0.36
9.646 -16.056 -1.087 0.38
9.713 -16.055 -1.089 0.36
9.786 -16.06 -1.092 0.37
9.853 -16.056 -1.094 0.39
9.931 -16.071 -1.098 0.36
9.928 -16.01 -1.094 0.3
9.97 -15.965 -1.093 0.39
10.034 -15.955 -1.095 0.36
10.105 -15.958 -1.097 0.32
10.179 -15.963 -1.1 0.34
10.252 -15.966 -1.103 0.3
10.313 -15.951 -1.105 0.45
10.357 -15.964 -1.107 0.34
10.435 -15.975 -1.111 0.3
10.504 -15.971 -1.113 0.24
10.647 -16.078 -1.125 0.35
10.732 -16.097 -1.129 0.36
10.782 -16.062 -1.129 0.35
10.875 -16.091 -1.134 0.19
10.903 -16.079 -1.134 0.54
10.971 -16.069 -1.137 0.35
11.051 -16.079 -1.14 0.4
11.122 -16.074 -1.143 0.3
11.183 -16.053 -1.144 0.29
11.257 -16.052 -1.147 0.4
11.32 -16.035 -1.148 0.31
11.365 -16.045 -1.151 0.39
11.443 -16.048 -1.154 0.32
11.519 -16.048 -1.157 0.37
11.592 -16.042 -1.16 0.31
11.672 -16.048 -1.163 0.37
11.744 -16.04 -1.166 0.32
11.832 -16.055 -1.17 0.4
11.881 -16.068 -1.173 0.29
11.959 -16.067 -1.176 0.28
12.021 -16.046 -1.177 0.23
12.114 -16.064 -1.182 0.32
12.187 -16.056 -1.185 0.31
12.265 -16.054 -1.188 0.32
12.341 -16.049 -1.191 0.32
12.399 -16.072 -1.194 0.25
12.477 -16.069 -1.198 0.41
12.555 -16.065 -1.201 0.34
12.636 -16.064 -1.204 0.34
12.714 -16.059 -1.207 0.3
12.801 -16.066 -1.211 0.37
12.88 -16.061 -1.214 0.34
12.929 -16.071 -1.217 0.33
13.022 -16.083 -1.222 0.33
13.099 -16.074 -1.225 0.34
13.179 -16.069 -1.228 0.29
13.275 -16.082 -1.233 0.39
13.338 -16.056 -1.234 0.29
13.434 -16.069 -1.239 0.36
13.493 -16.088 -1.243 0.34
13.578 -16.087 -1.246 0.3
13.658 -16.079 -1.249 0.32
13.753 -16.088 -1.254 0.37
13.837 -16.084 -1.258 0.31
13.926 -16.085 -1.262 0.29
14.004 -16.073 -1.265 0.35
14.065 -16.092 -1.268 0.29
14.141 -16.076 -1.271 0.39
14.223 -16.067 -1.274 0.34
14.285 -16.036 -1.275 0.3
14.349 -16.006 -1.277 0.33
14.4 -15.962 -1.277 0.32
14.445 -15.911 -1.276 0.38
14.52 -15.894 -1.279 0.36
14.535 -15.859 -1.278 0.34
14.594 -15.824 -1.279 0.32
14.657 -15.792 -1.28 0.35
14.715 -15.755 -1.281 0.29
14.779 -15.725 -1.283 0.3
14.842 -15.693 -1.284 0.35
14.906 -15.662 -1.286 0.3
14.943 -15.651 -1.287 0.27
14.98 -15.591 -1.286 0.17
15.04 -15.556 -1.287 0.44
15.09 -15.51 -1.287 0.25
15.136 -15.46 -1.286 0.16
15.211 -15.439 -1.289 0.42
15.26 -15.391 -1.289 0.24
15.296 -15.38 -1.29 0.19
15.356 -15.343 -1.291 0.39
15.404 -15.295 -1.291 0.23
15.465 -15.259 -1.293 0.2
15.527 -15.224 -1.294 0.38
15.576 -15.177 -1.294 0.22
15.622 -15.126 -1.294 0.12
14.143 -13.648 -1.15 0.46
15.725 -15.083 -1.297 0.28
14.279 -13.607 -1.155 0.16
14.358 -13.596 -1.158 0.17
15.747 -14.822 -1.286 0.53
15.89 -14.862 -1.295 0.23
15.973 -14.846 -1.298 0.3
15.985 -14.81 -1.297 0.24
15.996 -14.728 -1.294 0.16
14.895 -13.625 -1.187 0.26
16.054 -14.596 -1.291 0.18
16.107 -14.552 -1.291 0.3
16.153 -14.501 -1.291 0.2
16.188 -14.441 -1.29 0.18
16.193 -14.4 -1.289 0.12
16.256 -14.365 -1.29 0.18
16.322 -14.332 -1.292 0.29
16.362 -14.277 -1.292 0.2
16.412 -14.229 -1.292 0.19
16.165 -13.926 -1.266 0.27
16.514 -14.138 -1.294 0.2
16.444 -14.033 -1.285 0.18
16.444 -13.943 -1.281 0.12
16.255 -13.695 -1.26 0.36
16.388 -13.719 -1.268 0.42
16.498 -13.724 -1.274 0.25
16.501 -13.639 -1.271 0.32
16.644 -13.669 -1.28 0.29
16.585 -13.534 -1.271 0.36
16.814 -13.677 -1.289 0.29
16.895 -13.655 -1.293 0.4
16.946 -13.608 -1.293 0.34
17.052 -13.606 -1.299 0.39
17.201 -13.637 -1.308 0.36
17.291 -13.62 -1.312 0.35
17.382 -13.603 -1.317 0.35
17.46 -13.62 -1.321 0.38
17.531 -13.588 -1.324 0.37
17.572 -13.531 -1.324 0.39
17.643 -13.498 -1.326 0.37
15.519 -11.792 -1.139 0.37
17.755 -13.407 -1.329 0.2
17.856 -13.396 -1.334 0.41
17.877 -13.368 -1.334 0.24
17.92 -13.313 -1.334 0.2
17.967 -13.26 -1.334 0.38
17.997 -13.195 -1.333 0.2
18.035 -13.136 -1.333 0.34
18.094 -13.092 -1.335 0.19
18.135 -13.035 -1.335 0.34
18.159 -13.009 -1.335 0.16
18.206 -12.957 -1.335 0.15
18.25 -12.902 -1.336 0.17
18.299 -12.85 -1.336 0.29
18.365 -12.811 -1.338 0.2
17.15 -11.881 -1.233 0.1
17.204 -11.838 -1.235 0.14
17.403 -11.936 -1.25 0.25
17.483 -11.91 -1.253 0.26
17.417 -11.785 -1.245 0.27
17.498 -11.76 -1.248 0.31
17.49 -11.675 -1.245 0.32
17.608 -11.674 -1.251 0.41
17.478 -11.509 -1.238 0.18
16.583 -10.88 -1.163 0.26
16.527 -10.769 -1.155 0.45
16.504 -10.68 -1.15 0.36
16.45 -10.572 -1.143 0.3
16.446 -10.497 -1.14 0.37
16.461 -10.433 -1.139 0.45
16.48 -10.373 -1.138 0.38
16.508 -10.355 -1.139 0.43
16.571 -10.322 -1.141 0.39
16.641 -10.293 -1.144 0.36
16.674 -10.242 -1.144 0.28
16.725 -10.201 -1.146 0.32
16.832 -10.194 -1.152 0.45
16.922 -10.176 -1.156 0.25
18.493 -11.044 -1.28 0.36
18.541 -11.033 -1.282 0.29
18.658 -11.024 -1.289 0.29
18.672 -10.953 -1.287 0.4
18.818 -10.96 -1.296 0.34
18.913 -10.936 -1.301 0.27
18.946 -10.875 -1.301 0.37
18.921 -10.821 -1.298 0.29
18.924 -10.744 -1.295 0.36
18.926 -10.667 -1.293 0.34
18.97 -10.613 -1.293 0.3
19.119 -10.618 -1.303 0.33
19.134 -10.548 -1.301 0.36
19.169 -10.489 -1.301 0.31
19.246 -10.452 -1.305 0.32
19.318 -10.453 -1.309 0.32
19.388 -10.412 -1.312 0.38
19.385 -10.332 -1.309 0.27
19.444 -10.285 -1.311 0.42
19.529 -10.252 -1.315 0.3
19.569 -10.194 -1.316 0.35
19.631 -10.148 -1.318 0.29
19.689 -10.139 -1.322 0.34
19.696 -10.065 -1.32 0.43
19.761 -10.02 -1.322 0.32
19.835 -9.979 -1.326 0.38
19.802 -9.885 -1.321 0.3
19.882 -9.847 -1.324 0.29
19.868 -9.762 -1.321 0.37
19.942 -9.76 -1.325 0.35
19.996 -9.708 -1.327 0.33
20.048 -9.656 -1.329 0.35
20.103 -9.605 -1.331 0.34
20.153 -9.551 -1.332 0.33
20.331 -9.558 -1.344 0.33
20.347 -9.487 -1.342 0.35
20.376 -9.462 -1.344 0.32
20.406 -9.398 -1.344 0.36
20.495 -9.361 -1.348 0.32
20.588 -9.325 -1.353 0.39
20.653 -9.277 -1.356 0.34
20.704 -9.222 -1.357 0.34
20.801 -9.187 -1.362 0.35
20.899 -9.152 -1.368 0.36
20.95 -9.135 -1.37 0.31
20.993 -9.076 -1.371 0.39
21.049 -9.021 -1.374 0.33
21.081 -8.957 -1.374 0.36
21.228 -8.941 -1.383 0.35
21.273 -8.881 -1.384 0.34
21.47 -8.885 -1.397 0.32
21.595 -8.897 -1.405 0.32
21.73 -8.873 -1.413 0.36
21.826 -8.832 -1.418 0.37
21.942 -8.799 -1.424 0.25
21.955 -8.724 -1.423 0.46
21.546 -8.483 -1.391 0.16
21.638 -8.441 -1.396 0.35
21.816 -8.471 -1.408 0.2
22.05 -8.482 -1.423 0.34
22.294 -8.496 -1.439 0.19
22.526 -8.504 -1.454 0.24
22.749 -8.507 -1.469 0.2
23.005 -8.521 -1.486 0.22
23.244 -8.526 -1.501 0.2
23.473 -8.569 -1.517 0.26
23.509 -8.498 -1.518 0.33
23.597 -8.447 -1.522 0.23
23.682 -8.393 -1.527 0.0
23.814 -8.356 -1.534 0.0
22.055 -7.659 -1.404 0.13
22.31 -7.669 -1.421 0.17
22.616 -7.735 -1.442 0.18
22.895 -7.751 -1.461 0.17
23.139 -7.753 -1.477 0.16
23.398 -7.758 -1.494 0.16
23.6 -7.743 -1.507 0.09
23.666 -7.683 -1.51 0.15
23.806 -7.646 -1.518 0.09
23.957 -7.653 -1.528 0.0
24.026 -7.592 -1.532 0.13
23.968 -7.491 -1.526 0.3
24.087 -7.445 -1.532 0.11
24.087 -7.362 -1.531 0.16
24.026 -7.261 -1.525 0.12
23.999 -7.17 -1.521 0.15
24.251 -7.205 -1.539 0.21
24.194 -7.105 -1.533 0.18
24.254 -7.04 -1.535 0.28
24.311 -6.974 -1.538 0.0
24.296 -6.887 -1.535 0.0
22.016 -6.163 -1.371 0.05
22.295 -6.166 -1.389 0.08
22.699 -6.24 -1.418 0.14
23.046 -6.258 -1.441 0.09
23.293 -6.247 -1.457 0.09
23.621 -6.256 -1.479 0.14
23.744 -6.209 -1.486 0.09
23.768 -6.135 -1.487 0.09
23.938 -6.099 -1.497 0.0
23.957 -6.024 -1.497 0.0
23.906 -5.971 -1.493 0.08
24.029 -5.922 -1.501 0.08
24.1 -5.859 -1.504 0.09
23.74 -5.692 -1.478 0.14
23.56 -5.571 -1.464 0.29
23.659 -5.516 -1.469 0.2
23.738 -5.456 -1.474 0.35
23.885 -5.45 -1.483 0.2
24.116 -5.423 -1.499 0.35
24.351 -5.396 -1.514 0.17
24.526 -5.354 -1.525 0.35
24.65 -5.3 -1.533 0.19
24.742 -5.239 -1.538 0.33
24.765 -5.163 -1.538 0.0
23.305 -4.742 -1.434 0.07
23.961 -4.798 -1.479 0.0
24.485 -4.824 -1.515 0.13
24.43 -4.733 -1.51 0.23
24.972 -4.757 -1.547 0.26
24.965 -4.675 -1.545 0.11
25.104 -4.66 -1.555 0.15
25.169 -4.59 -1.558 0.1
25.203 -4.515 -1.56 0.15
25.229 -4.438 -1.56 0.17
25.239 -4.358 -1.56 0.17
25.274 -4.282 -1.562 0.32
25.289 -4.203 -1.562 0.19
25.292 -4.122 -1.561 0.32
25.262 -4.076 -1.558 0.27
25.254 -3.994 -1.557 0.27
25.141 -3.895 -1.548 0.11
25.141 -3.814 -1.547 0.15
25.121 -3.73 -1.545 0.27
25.082 -3.644 -1.542 0.0
25.107 -3.567 -1.543 0.0
23.022 -3.232 -1.397 0.1
24.103 -3.307 -1.472 0.22
24.462 -3.279 -1.496 0.11
24.587 -3.217 -1.504 0.14
24.721 -3.156 -1.513 0.23
24.68 -3.072 -1.509 0.21
24.653 -2.99 -1.507 0.17
24.458 -2.927 -1.493 0.41
24.406 -2.843 -1.488 0.23
24.282 -2.751 -1.479 0.14
24.143 -2.658 -1.469 0.43
24.209 -2.589 -1.473 0.25
24.189 -2.51 -1.471 0.2
24.249 -2.439 -1.475 0.26
24.122 -2.388 -1.466 0.18
24.151 -2.314 -1.467 0.18
25.977 -2.326 -1.592 0.38
26.024 -2.248 -1.595 0.3
26.051 -2.168 -1.596 0.3
26.032 -2.084 -1.595 0.17
25.991 -2.04 -1.592 0.16
25.958 -1.955 -1.589 0.16
25.912 -1.87 -1.585 0.1
25.91 -1.788 -1.585 0.0
25.927 -1.707 -1.586 0.0
25.934 -1.626 -1.586 0.0
25.931 -1.544 -1.585 0.0
25.948 -1.504 -1.586 0.0
25.903 -1.42 -1.583 0.0
25.863 -1.336 -1.58 0.07
25.843 -1.254 -1.578 0.08
25.811 -1.171 -1.576 0.09
25.783 -1.088 -1.573 0.09
25.752 -1.006 -1.571 0.15
25.742 -0.965 -1.57 0.16
25.729 -0.883 -1.569 0.16
25.711 -0.802 -1.568 0.16
25.672 -0.72 -1.565 0.16
25.654 -0.639 -1.563 0.16
25.634 -0.558 -1.562 0.16
25.588 -0.476 -1.559 0.1
25.545 -0.435 -1.556 0.15
25.504 -0.354 -1.553 0.09
25.509 -0.274 -1.553 0.0
25.52 -0.194 -1.554 0.0
25.55 -0.114 -1.556 0.0
25.57 -0.034 -1.557 0.0
24.042 0.062 -1.57 0.16
24.043 0.138 -1.57 0.1
24.033 0.213 -1.57 0.15
24.019 0.251 -1.569 0.23
23.998 0.326 -1.567 0.24
23.971 0.401 -1.565 0.25
23.935 0.475 -1.563 0.11
23.9 0.55 -1.56 0.15
23.866 0.624 -1.558 0.12
23.82 0.697 -1.555 0.17
23.789 0.734 -1.552 0.3
23.747 0.807 -1.55 0.2
23.718 0.881 -1.548 0.17
23.699 0.955 -1.546 0.32
23.692 1.029 -1.546 0.2
23.703 1.104 -1.547 0.18
23.679 1.178 -1.546 0.13
23.666 1.214 -1.545 0.18
23.656 1.288 -1.544 0.31
23.638 1.362 -1.543 0.21
23.611 1.434 -1.542 0.18
23.589 1.507 -1.54 0.21
23.55 1.579 -1.538 0.19
23.527 1.652 -1.537 0.22
23.517 1.688 -1.536 0.18
23.483 1.76 -1.534 0.35
23.456 1.832 -1.532 0.19
23.452 1.906 -1.532 0.38
23.408 1.976 -1.53 0.19
23.396 2.049 -1.529 0.36
23.359 2.12 -1.527 0.19
23.356 2.157 -1.527 0.38
23.325 2.228 -1.525 0.19
23.32 2.301 -1.525 0.36
23.301 2.373 -1.525 0.19
23.293 2.447 -1.525 0.36
23.276 2.519 -1.524 0.19
23.252 2.59 -1.523 0.34
23.234 2.662 -1.522 0.19
23.231 2.699 -1.522 0.34
23.221 2.771 -1.522 0.19
23.196 2.842 -1.521 0.33
23.183 2.915 -1.52 0.19
23.154 2.985 -1.519 0.32
23.123 3.055 -1.517 0.19
23.103 3.126 -1.517 0.35
23.051 3.156 -1.513 0.18
23.029 3.227 -1.512 0.37
22.989 3.295 -1.51 0.18
22.985 3.368 -1.51 0.36
22.948 3.436 -1.509 0.2
22.918 3.505 -1.507 0.24
22.863 3.57 -1.504 0.2
22.84 3.603 -1.502 0.17
22.817 3.673 -1.502 0.34
22.764 3.738 -1.499 0.36
22.799 3.817 -1.502 0.21
22.761 3.885 -1.5 0.35
22.784 3.962 -1.503 0.21
22.823 4.043 -1.507 0.17
22.871 4.089 -1.511 0.16
22.902 4.168 -1.514 0.1
22.953 4.252 -1.519 0.14
22.981 4.332 -1.522 0.09
23.0 4.411 -1.524 0.08
23.004 4.487 -1.526 0.08
23.017 4.564 -1.528 0.08
23.037 4.606 -1.53 0.13
23.04 4.682 -1.531 0.1
23.049 4.759 -1.533 0.15
23.046 4.834 -1.534 0.23
23.054 4.911 -1.536 0.24
23.071 4.991 -1.538 0.26
23.106 5.075 -1.542 0.26
23.129 5.156 -1.545 0.26
23.189 5.208 -1.55 0.11
23.241 5.296 -1.555 0.15
23.272 5.38 -1.559 0.09
23.319 5.468 -1.564 0.0
23.382 5.561 -1.57 0.0
23.436 5.651 -1.575 0.0
23.513 5.748 -1.582 0.0
23.583 5.805 -1.588 0.0
23.619 5.893 -1.592 0.0
23.624 5.973 -1.594 0.0
23.628 6.053 -1.596 0.0
23.616 6.129 -1.597 0.0
23.58 6.199 -1.595 0.0
23.556 6.272 -1.595 0.07
23.62 6.328 -1.601 0.08
23.68 6.425 -1.607 0.14
23.727 6.517 -1.612 0.23
23.766 6.609 -1.616 0.24
23.836 6.709 -1.623 0.25
23.872 6.8 -1.628 0.25
23.906 6.891 -1.632 0.11
23.976 6.952 -1.638 0.15
24.004 7.042 -1.642 0.11
24.041 7.135 -1.647 0.16
24.066 7.225 -1.65 0.12
24.085 7.313 -1.653 0.16
24.106 7.402 -1.657 0.11
24.136 7.495 -1.661 0.16
24.16 7.544 -1.664 0.12
24.186 7.635 -1.668 0.16
24.198 7.723 -1.67 0.12
24.224 7.815 -1.674 0.16
24.264 7.913 -1.679 0.27
24.288 8.005 -1.683 0.27
24.314 8.098 -1.687 0.19
24.353 8.154 -1.691 0.0
23.647 7.999 -1.638 0.0
23.588 8.062 -1.636 0.0
24.367 8.415 -1.698 0.13
24.482 8.541 -1.709 0.18
24.487 8.629 -1.712 0.15
24.489 8.717 -1.714 0.32
24.528 8.817 -1.719 0.11
24.548 8.868 -1.722 0.16
24.55 8.956 -1.724 0.28
24.579 9.055 -1.729 0.11
21.338 8.009 -1.478 0.35
21.247 8.052 -1.473 0.0
21.078 8.063 -1.462 0.0
21.039 8.086 -1.46 0.0
21.01 8.151 -1.459 0.0
21.107 8.265 -1.469 0.0
20.734 8.194 -1.441 0.0
19.584 8.06 -1.359 0.0
19.398 8.054 -1.346 0.0
19.246 8.062 -1.336 0.14
19.175 8.103 -1.333 0.11
18.872 8.045 -1.31 0.14
18.558 7.979 -1.287 0.1
18.538 8.005 -1.287 0.0
18.511 8.062 -1.286 0.0
18.357 8.064 -1.276 0.0
18.301 8.108 -1.274 0.0
18.217 8.208 -1.271 0.34
18.235 8.285 -1.274 0.0
18.109 8.262 -1.265 0.0
18.065 8.311 -1.264 0.0
17.996 8.417 -1.263 0.14
18.001 8.626 -1.269 0.94
17.933 8.629 -1.265 0.99
17.929 8.696 -1.267 0.99
17.941 8.772 -1.27 0.99
17.948 8.845 -1.273 0.99
17.943 8.913 -1.275 0.99
17.92 8.972 -1.275 0.99
18.116 9.142 -1.294 0.74
18.002 9.155 -1.287 0.0
18.02 9.2 -1.289 0.0
17.991 9.256 -1.289 0.0
18.284 9.553 -1.319 0.0
21.957 11.567 -1.627 0.11
21.93 11.64 -1.628 0.25
21.883 11.704 -1.627 0.24
21.864 11.738 -1.627 0.26
21.81 11.797 -1.626 0.1
21.762 11.86 -1.625 0.0
15.172 8.321 -1.074 0.07
15.02 8.299 -1.063 0.08
14.882 8.284 -1.054 0.09
14.754 8.273 -1.045 0.09
14.631 8.235 -1.036 0.08
14.63 8.294 -1.038 0.14
14.654 8.369 -1.042 0.33
14.401 8.284 -1.023 0.11
14.213 8.235 -1.009 0.17
14.141 8.253 -1.005 0.12
14.034 8.249 -0.998 0.16
13.95 8.23 -0.992 0.12
13.861 8.236 -0.987 0.16
13.767 8.238 -0.981 0.12
13.674 8.241 -0.975 0.16
13.596 8.252 -0.97 0.12
13.498 8.251 -0.964 0.16
13.391 8.243 -0.957 0.12
13.285 8.206 -0.949 0.18
13.257 8.247 -0.949 0.17
13.179 8.255 -0.944 0.29
13.089 8.256 -0.939 0.2
13.005 8.261 -0.934 0.18
12.931 8.27 -0.93 0.27
12.861 8.283 -0.926 0.18
12.8 8.272 -0.921 0.17
12.723 8.279 -0.917 0.32
12.646 8.285 -0.912 0.21
12.556 8.283 -0.907 0.18
12.499 8.301 -0.904 0.21
12.411 8.299 -0.899 0.18
12.362 8.323 -0.897 0.22
12.28 8.295 -0.89 0.18
12.229 8.317 -0.888 0.21
12.145 8.315 -0.883 0.18
12.106 8.345 -0.882 0.0
12.026 8.345 -0.877 0.0
11.968 8.361 -0.874 0.0
11.937 8.395 -0.874 0.0
11.925 8.443 -0.875 0.0
11.899 8.452 -0.874 0.0
11.871 8.488 -0.874 0.0
11.846 8.527 -0.874 0.0
11.822 8.566 -0.874 0.0
11.781 8.593 -0.873 0.11
11.757 8.632 -0.873 0.16
11.709 8.654 -0.871 0.21
11.706 8.68 -0.872 0.0
11.658 8.702 -0.87 0.0
11.632 8.739 -0.871 0.0
11.6 8.772 -0.87 0.0
11.576 8.811 -0.87 0.0
11.556 8.853 -0.871 0.0
11.548 8.876 -0.872 0.0
11.522 8.914 -0.872 0.0
11.5 8.955 -0.873 0.0
11.495 9.01 -0.875 0.0
11.478 9.054 -0.876 0.0
11.473 9.109 -0.878 0.0
11.466 9.162 -0.88 0.0
11.471 9.226 -0.883 0.0
11.517 9.293 -0.889 0.0
11.511 9.348 -0.891 0.11
11.318 9.25 -0.876 0.1
11.641 9.576 -0.909 0.08
11.746 9.725 -0.922 0.13
16.503 13.853 -1.386 0.29
16.416 13.823 -1.38 0.35
16.272 13.79 -1.37 0.31
16.194 13.811 -1.367 0.4
16.146 13.858 -1.366 0.46
16.196 13.99 -1.376 0.29
16.009 13.916 -1.362 0.39
15.876 13.888 -1.353 0.34
15.714 13.79 -1.339 0.38
15.652 13.823 -1.337 0.35
15.569 13.836 -1.333 0.46
15.565 13.921 -1.337 0.34
15.48 13.932 -1.333 0.37
15.421 13.968 -1.332 0.38
15.361 14.001 -1.33 0.32
15.25 13.987 -1.323 0.46
15.25 14.032 -1.326 0.31
15.113 13.994 -1.316 0.4
15.103 14.073 -1.32 0.44
15.075 14.135 -1.321 0.36
15.056 14.207 -1.324 0.37
15.072 14.312 -1.33 0.47
15.054 14.385 -1.333 0.43
15.122 14.496 -1.342 0.34
15.011 14.48 -1.335 0.25
15.949 15.484 -1.437 0.37
16.282 15.908 -1.476 0.34
16.677 16.397 -1.522 0.27
16.602 16.427 -1.52 0.27
16.58 16.509 -1.523 0.23
16.615 16.595 -1.529 0.2
16.592 16.677 -1.532 0.22
16.473 16.661 -1.525 0.26
15.127 15.394 -1.389 0.2
15.087 15.45 -1.39 0.23
15.093 15.553 -1.396 0.18
15.143 15.704 -1.406 0.21
15.188 15.8 -1.414 0.32
13.315 13.934 -1.219 0.21
13.335 14.044 -1.226 0.26
13.249 14.041 -1.221 0.58
13.145 14.018 -1.215 0.28
13.259 14.23 -1.232 0.24
12.918 13.951 -1.2 0.23
12.813 13.88 -1.191 0.64
12.782 13.935 -1.192 0.36
12.736 13.972 -1.192 0.16
12.498 13.798 -1.17 0.51
12.395 13.858 -1.169 0.52
12.386 13.936 -1.172 0.35
12.254 13.831 -1.16 0.5
12.185 13.84 -1.157 0.27
11.995 13.711 -1.141 0.58
11.986 13.788 -1.145 0.38
11.953 13.837 -1.146 0.34
11.87 13.828 -1.141 0.34
11.799 13.833 -1.138 0.37
11.741 13.853 -1.137 0.44
11.65 13.79 -1.129 0.45
11.598 13.815 -1.128 0.29
11.488 13.772 -1.12 0.48
11.471 13.84 -1.123 0.44
11.404 13.847 -1.12 0.37
11.363 13.886 -1.121 0.53
11.317 13.918 -1.12 0.31
11.233 13.86 -1.113 0.27
11.091 13.772 -1.102 0.57
11.095 13.866 -1.107 0.27
10.957 13.782 -1.096 0.55
10.951 13.864 -1.1 0.33
10.878 13.86 -1.097 0.45
10.823 13.88 -1.096 0.38
10.778 13.913 -1.095 0.44
10.76 13.934 -1.096 0.4
10.713 13.963 -1.095 0.39
10.618 13.93 -1.089 0.43
10.585 13.978 -1.091 0.43
10.385 13.804 -1.071 0.48
10.371 13.875 -1.075 0.39
10.322 13.901 -1.074 0.35
10.266 13.87 -1.07 0.36
10.146 13.798 -1.061 0.45
10.118 13.851 -1.062 0.36
10.102 13.921 -1.066 0.35
10.058 13.953 -1.066 0.5
9.926 13.861 -1.055 0.35
9.932 13.962 -1.061 0.39
9.86 13.906 -1.055 0.45
9.793 13.904 -1.052 0.45
9.897 14.146 -1.071 0.23
9.855 14.182 -1.071 0.48
9.806 14.206 -1.071 0.45
9.825 14.329 -1.079 0.29
9.774 14.352 -1.078 0.48
9.793 14.428 -1.083 0.43
9.8 14.537 -1.09 0.46
9.917 14.811 -1.112 0.0
5.669 8.622 -0.559 0.0
5.521 8.542 -0.548 0.0
5.502 8.571 -0.549 0.0
4.975 8.555 -0.528 0.0
4.936 8.55 -0.526 0.0
4.898 8.544 -0.524 0.0
4.883 8.582 -0.526 0.0
4.749 8.564 -0.52 0.0
4.716 8.566 -0.519 0.0
4.081 8.554 -0.497 0.0
4.046 8.548 -0.495 0.0
4.02 8.563 -0.495 0.0
3.984 8.555 -0.494 0.0
3.952 8.557 -0.493 0.0
3.994 8.722 -0.505 0.0
4.055 8.931 -0.521 0.0
4.039 9.526 -0.561 0.0
4.024 9.576 -0.564 0.0
4.058 9.83 -0.582 0.16
4.027 9.842 -0.582 0.28
3.989 9.838 -0.581 0.0
3.98 9.859 -0.582 0.0
3.344 8.584 -0.477 0.0
3.27 8.593 -0.476 0.0
3.23 8.653 -0.479 0.0
3.227 8.728 -0.484 0.0
3.211 8.77 -0.487 0.0
3.203 8.835 -0.491 0.0
3.193 8.894 -0.495 0.0
3.191 8.977 -0.5 0.0
3.19 9.022 -0.503 0.0
3.178 9.077 -0.507 0.0
3.182 9.183 -0.515 0.0
3.187 9.293 -0.522 0.0
3.192 9.403 -0.53 0.0
5.167 15.431 -0.998 0.05
3.247 9.822 -0.561 0.29
5.265 16.148 -1.05 0.21
5.203 16.131 -1.047 0.21
5.147 16.13 -1.046 0.14
4.91 15.552 -1.0 0.3
4.852 15.537 -0.998 0.67
4.798 15.535 -0.997 0.66
4.772 15.539 -0.996 0.67
4.72 15.544 -0.996 0.64
4.667 15.544 -0.994 0.67
4.658 15.692 -1.005 0.72
4.583 15.62 -0.998 0.26
4.532 15.629 -0.998 0.39
4.489 15.664 -0.999 0.41
4.439 15.676 -0.999 0.36
4.409 15.664 -0.998 0.37
4.356 15.662 -0.996 0.37
4.305 15.67 -0.996 0.36
4.252 15.67 -0.995 0.38
4.203 15.684 -0.995 0.36
4.151 15.685 -0.994 0.37
4.099 15.69 -0.994 0.37
4.073 15.691 -0.993 0.38
4.022 15.696 -0.992 0.38
3.969 15.695 -0.991 0.38
3.919 15.704 -0.991 0.37
3.868 15.708 -0.991 0.38
3.815 15.705 -0.989 0.38
3.764 15.711 -0.989 0.38
3.738 15.711 -0.989 0.37
3.687 15.718 -0.988 0.32
3.641 15.744 -0.989 0.29
3.59 15.749 -0.989 0.76
3.533 15.725 -0.986 0.82
3.479 15.717 -0.985 0.83
3.43 15.728 -0.985 0.84
3.376 15.719 -0.983 0.69
3.36 15.763 -0.986 0.2
3.309 15.766 -0.986 0.42
3.258 15.77 -0.985 0.46
3.207 15.771 -0.984 0.46
3.155 15.769 -0.984 0.47
3.104 15.773 -0.983 0.47
3.054 15.783 -0.983 0.49
3.028 15.778 -0.982 0.47
2.978 15.785 -0.982 0.48
2.927 15.788 -0.982 0.48
2.876 15.788 -0.981 0.48
2.826 15.795 -0.981 0.5
2.775 15.798 -0.98 0.5
2.725 15.802 -0.98 0.51
2.699 15.799 -0.98 0.51
2.648 15.801 -0.979 0.51
2.598 15.809 -0.979 0.52
2.546 15.804 -0.978 0.52
2.495 15.8 -0.977 0.61
2.446 15.812 -0.977 0.38
2.393 15.799 -0.976 0.45
2.342 15.793 -0.975 0.28
2.309 15.741 -0.971 0.5
2.256 15.725 -0.969 0.7
2.206 15.73 -0.969 0.7
2.157 15.737 -0.969 0.7
2.106 15.734 -0.968 0.71
2.056 15.734 -0.968 0.74
2.015 15.808 -0.973 0.72
2.037 16.185 -1.001 0.27
1.937 15.786 -0.97 0.26
2.225 18.66 -1.183 0.59
1.913 16.457 -1.019 0.25
1.885 16.679 -1.035 0.35
1.843 16.776 -1.042 0.2
1.801 16.881 -1.05 0.22
1.785 16.989 -1.057 0.25
1.739 17.07 -1.063 0.16
1.694 17.165 -1.07 0.0
1.788 18.741 -1.186 0.09
1.731 18.764 -1.187 0.23
1.612 18.767 -1.187 0.46
1.552 18.76 -1.186 0.18
1.893 23.405 -1.529 0.14
1.459 18.711 -1.182 0.38
1.4 18.704 -1.181 0.28
1.338 18.672 -1.178 0.51
1.277 18.641 -1.175 0.57
0.95 14.449 -0.865 0.34
0.903 14.422 -0.863 0.37
0.877 14.371 -0.859 0.64
0.834 14.398 -0.861 0.28
0.78 14.235 -0.849 0.56
0.737 14.279 -0.852 0.27
0.691 14.266 -0.851 0.48
0.647 14.286 -0.852 0.36
0.603 14.311 -0.854 0.65
0.56 14.351 -0.857 0.29
0.692 18.697 -1.177 0.45
0.491 14.308 -0.853 0.35
0.445 14.279 -0.851 0.51
0.401 14.301 -0.853 0.45
0.355 14.282 -0.851 0.46
0.311 14.301 -0.853 0.54
0.266 14.34 -0.855 0.36
0.244 14.32 -0.854 0.59
0.199 14.327 -0.854 0.38
0.154 14.355 -0.856 0.35
0.108 14.29 -0.851 0.42
0.063 14.26 -0.849 0.48
0.019 14.31 -0.853 0.37
-0.026 14.318 -0.854 0.42
-0.049 14.318 -0.854 0.55
-0.094 14.39 -0.859 0.35
-0.139 14.314 -0.853 0.44
-0.186 14.435 -0.862 0.43
-0.237 14.783 -0.888 0.27
-0.285 14.846 -0.893 0.56
-0.327 14.674 -0.88 0.29
-0.369 14.515 -0.868 0.38
-0.392 14.53 -0.87 0.16
-0.437 14.491 -0.867 0.44
-0.482 14.492 -0.867 0.45
-0.528 14.496 -0.867 0.55
-0.572 14.448 -0.864 0.3
-0.615 14.387 -0.86 0.65
-0.661 14.415 -0.862 0.37
-0.684 14.412 -0.862 0.3
-0.73 14.423 -0.863 0.3
-0.823 15.285 -0.926 0.61
-0.868 14.448 -0.865 0.36
-0.913 14.451 -0.865 0.4
-0.959 14.456 -0.866 0.3
-0.983 14.464 -0.867 0.4
-1.028 14.453 -0.866 0.44
-1.073 14.456 -0.867 0.36
-1.119 14.45 -0.866 0.38
-1.165 14.459 -0.867 0.33
-1.211 14.455 -0.867 0.36
-1.257 14.459 -0.868 0.31
-1.303 14.467 -0.869 0.34
-1.327 14.479 -0.87 0.44
-1.373 14.475 -0.87 0.31
-1.458 14.865 -0.899 0.25
-1.5 14.823 -0.896 0.16
-1.503 14.408 -0.866 0.45
-1.652 15.352 -0.936 0.31
-1.6 14.455 -0.87 0.64
-1.634 14.552 -0.878 0.3
-1.679 14.535 -0.877 0.34
-1.724 14.529 -0.877 0.43
-1.77 14.522 -0.876 0.4
-1.816 14.522 -0.877 0.81
-1.862 14.522 -0.877 0.66
-1.905 14.497 -0.876 0.73
-1.952 14.497 -0.876 0.38
-1.976 14.503 -0.877 0.45
-2.02 14.489 -0.876 0.42
-2.068 14.499 -0.878 0.48
-2.121 14.545 -0.882 0.43
-2.237 15.004 -0.916 0.18
-2.256 14.814 -0.903 0.33
-2.274 14.621 -0.889 0.2
-2.263 14.405 -0.873 0.23
-2.598 16.185 -1.006 0.63
-2.647 16.167 -1.006 0.32
-2.705 16.198 -1.009 0.45
-2.773 16.292 -1.016 0.54
-2.866 16.523 -1.034 0.25
-2.931 16.588 -1.04 0.26
-2.985 16.735 -1.051 0.45
-3.063 16.869 -1.062 0.37
-3.143 17.004 -1.073 0.27
-3.575 18.987 -1.222 0.21
-2.764 14.463 -0.884 0.54
-2.85 14.664 -0.899 0.3
-2.877 14.559 -0.892 0.45
-2.894 14.407 -0.881 0.34
-2.899 14.315 -0.875 0.23
-2.951 14.339 -0.877 0.52
-2.975 14.234 -0.87 0.23
-3.031 14.275 -0.874 0.69
-3.097 14.151 -0.866 0.57
-3.745 16.831 -1.069 0.0
-2.157 9.673 -0.529 0.16
-2.169 9.586 -0.523 0.19
-2.174 9.472 -0.515 0.0
-2.158 9.269 -0.5 0.0
-2.177 9.224 -0.497 0.08
-2.201 9.194 -0.495 0.14
-2.231 9.192 -0.495 0.16
-2.249 9.203 -0.496 0.17
-2.277 9.192 -0.496 0.23
-2.31 9.202 -0.497 0.1
-2.449 9.623 -0.53 0.14
-2.495 9.673 -0.535 0.14
-2.474 9.473 -0.52 0.0
-2.525 9.544 -0.526 0.13
-2.467 9.27 -0.505 0.09
-2.464 9.143 -0.496 0.14
-2.452 8.989 -0.485 0.12
-2.842 10.152 -0.575 0.6
-2.505 8.853 -0.476 0.0
-2.513 8.778 -0.471 0.0
-2.466 8.513 -0.451 0.0
-2.481 8.515 -0.452 0.0
-2.5 8.482 -0.45 0.1
-2.528 8.48 -0.45 0.0
-2.559 8.486 -0.451 0.0
-2.584 8.472 -0.451 0.0
-2.613 8.471 -0.452 0.11
-2.641 8.467 -0.452 0.09
-2.657 8.472 -0.453 0.14
-2.688 8.477 -0.454 0.27
-2.722 8.491 -0.455 0.29
-2.747 8.477 -0.455 0.26
-2.782 8.495 -0.457 0.2
-2.811 8.494 -0.458 0.14
-2.859 8.547 -0.462 0.17
-2.91 8.61 -0.468 0.21
-2.929 8.62 -0.469 0.19
-2.985 8.694 -0.476 0.3
-2.998 8.643 -0.472 0.16
-3.06 8.733 -0.48 0.39
-3.087 8.722 -0.48 0.24
-3.109 8.699 -0.479 0.26
-3.239 8.97 -0.501 0.26
-3.301 9.096 -0.511 0.26
-3.346 9.131 -0.515 0.29
-3.408 9.208 -0.522 0.28
-3.457 9.251 -0.526 0.37
-3.207 8.506 -0.468 0.0
-3.227 8.479 -0.467 0.0
-3.255 8.473 -0.467 0.13
-3.29 8.483 -0.469 0.23
-3.302 8.476 -0.469 0.26
-3.331 8.471 -0.469 0.11
-3.365 8.479 -0.471 0.11
-3.69 9.206 -0.529 0.28
-3.717 9.191 -0.529 0.27
-3.76 9.212 -0.532 0.25
-3.807 9.245 -0.535 0.34
-3.822 9.241 -0.535 0.32
-3.86 9.249 -0.537 0.34
-3.906 9.277 -0.54 0.34
-3.936 9.267 -0.54 0.25
-3.977 9.283 -0.543 0.32
-4.015 9.291 -0.544 0.39
-4.045 9.28 -0.544 0.36
-4.075 9.309 -0.547 0.26
-4.12 9.33 -0.55 0.58
-4.1 9.208 -0.541 0.27
-4.102 9.135 -0.536 0.27
-4.103 9.062 -0.531 0.22
-4.103 8.986 -0.526 0.4
-4.087 8.879 -0.519 0.3
-3.929 8.469 -0.486 0.21
-3.939 8.455 -0.486 0.21
-3.97 8.452 -0.486 0.11
-3.999 8.445 -0.487 0.08
-4.03 8.441 -0.488 0.0
-4.084 8.486 -0.492 0.0
-4.099 8.45 -0.49 0.0
-4.139 8.464 -0.493 0.0
-4.149 8.45 -0.492 0.0
-4.196 8.478 -0.495 0.0
-4.222 8.463 -0.495 0.0
-4.243 8.439 -0.494 0.0
-4.281 8.449 -0.496 0.12
-4.308 8.435 -0.496 0.21
-4.34 8.432 -0.497 0.09
-4.397 8.477 -0.502 0.14
-5.196 9.893 -0.622 0.38
-5.278 9.974 -0.63 0.0
-8.892 16.639 -1.189 0.0
-8.965 16.649 -1.192 0.0
-5.324 9.836 -0.623 0.0
-5.309 9.735 -0.616 0.0
-5.254 9.599 -0.605 0.06
-4.971 9.018 -0.557 0.23
-9.221 16.559 -1.195 0.19
-9.285 16.551 -1.197 0.24
-9.426 16.68 -1.21 0.0
-5.104 8.989 -0.56 0.0
-5.124 8.959 -0.559 0.0
-4.978 8.675 -0.535 0.0
-5.09 8.804 -0.548 0.0
-5.108 8.773 -0.546 0.0
-5.097 8.691 -0.541 0.0
-4.972 8.358 -0.515 0.23
-4.944 8.253 -0.507 0.17
-5.109 8.466 -0.527 0.09
-10.564 17.391 -1.298 0.11
-5.182 8.496 -0.532 0.22
-5.197 8.461 -0.53 0.38
-5.225 8.447 -0.53 0.4
-5.249 8.427 -0.53 0.15
-10.444 16.602 -1.244 0.27
-10.445 16.488 -1.237 0.54
-10.436 16.418 -1.232 0.23
-10.448 16.323 -1.227 0.55
-10.481 16.262 -1.224 0.22
-10.447 16.098 -1.213 0.52
-10.49 16.054 -1.212 0.32
-10.487 15.939 -1.204 0.41
-10.575 15.964 -1.21 0.58
-10.527 15.838 -1.2 0.21
-10.554 15.77 -1.197 0.1
-10.595 15.725 -1.196 0.19
-10.608 15.637 -1.191 0.19
-10.667 15.619 -1.192 0.1
-10.623 15.451 -1.18 0.15
-10.637 15.368 -1.176 0.23
-10.648 15.281 -1.171 0.18
-10.641 15.22 -1.167 0.18
-10.628 15.1 -1.159 0.29
-10.601 14.962 -1.15 0.11
-10.57 14.82 -1.14 0.15
-10.589 14.748 -1.136 0.46
-10.582 14.642 -1.13 0.41
-10.572 14.531 -1.123 0.45
-10.597 14.518 -1.123 0.29
-10.582 14.403 -1.116 0.5
-10.62 14.36 -1.115 0.25
-10.66 14.318 -1.114 0.45
-10.733 14.323 -1.117 0.46
-10.842 14.374 -1.125 0.41
-10.875 14.324 -1.124 0.3
-11.018 14.418 -1.136 0.54
-11.134 14.522 -1.147 0.21
-11.097 14.38 -1.137 0.24
-11.18 14.394 -1.142 0.36
-11.355 14.523 -1.157 0.32
-11.432 14.528 -1.161 0.37
-11.596 14.641 -1.175 0.49
-11.63 14.542 -1.171 0.6
-11.591 14.402 -1.161 0.21
-11.616 14.34 -1.158 0.24
-11.652 14.293 -1.157 0.36
-11.687 14.244 -1.156 0.55
-11.755 14.235 -1.159 0.22
-11.78 14.175 -1.157 0.57
-11.851 14.215 -1.162 0.39
-11.929 14.217 -1.166 0.36
-11.981 14.188 -1.167 0.5
-12.104 14.242 -1.176 0.34
-12.211 14.276 -1.183 0.42
-12.242 14.223 -1.181 0.45
-12.358 14.266 -1.189 0.39
-12.468 14.302 -1.197 0.18
-12.497 14.29 -1.197 0.64
-12.754 14.491 -1.221 0.22
-12.665 14.299 -1.206 0.42
-12.755 14.31 -1.211 0.27
-12.782 14.25 -1.209 0.36
-12.851 14.237 -1.212 0.41
-12.936 14.24 -1.216 0.38
-12.988 14.252 -1.219 0.42
-13.098 14.282 -1.227 0.3
-13.164 14.264 -1.229 0.5
-13.346 14.37 -1.244 0.23
-13.371 14.306 -1.242 0.53
-13.432 14.282 -1.243 0.32
-13.559 14.326 -1.252 0.29
-13.574 14.252 -1.249 0.28
-13.636 14.272 -1.253 0.63
-13.729 14.28 -1.258 0.2
-13.834 14.298 -1.265 0.31
-13.922 14.299 -1.269 0.43
-13.995 14.283 -1.272 0.35
-14.079 14.279 -1.276 0.47
-14.308 14.42 -1.295 0.39
-14.401 14.468 -1.303 0.21
-14.342 14.319 -1.292 0.39
-14.52 14.405 -1.306 0.4
-14.501 14.297 -1.299 0.41
-14.781 14.481 -1.323 0.22
-14.692 14.304 -1.31 0.29
-14.769 14.288 -1.313 0.45
-14.83 14.302 -1.317 0.3
-15.353 14.621 -1.361 0.58
-15.489 14.658 -1.37 0.16
-17.771 16.706 -1.596 0.31
-17.815 16.642 -1.595 0.21
-17.833 16.555 -1.592 0.41
-16.03 14.792 -1.406 0.2
-15.568 14.321 -1.357 0.18
-15.572 14.235 -1.353 0.45
-15.626 14.194 -1.354 0.36
-15.675 14.149 -1.355 0.34
-15.661 14.047 -1.349 0.38
-16.344 14.567 -1.412 0.38
-16.437 14.556 -1.416 0.35
-16.317 14.405 -1.403 0.21
-16.301 14.3 -1.396 0.41
-16.519 14.399 -1.413 0.18
-16.41 14.214 -1.398 0.52
-16.787 14.448 -1.431 0.2
-16.777 14.348 -1.425 0.2
-16.674 14.17 -1.411 0.49
-16.741 14.137 -1.413 0.18
-17.362 14.613 -1.471 0.58
-17.247 14.424 -1.455 0.14
-16.956 14.091 -1.423 0.32
-17.296 14.281 -1.451 0.3
-17.497 14.355 -1.466 0.37
-17.523 14.285 -1.465 0.22
-17.419 14.109 -1.45 0.43
-17.808 14.377 -1.485 0.21
-17.887 14.348 -1.488 0.35
-18.129 14.448 -1.507 0.34
-18.022 14.272 -1.493 0.35
-17.835 14.033 -1.471 0.2
-18.001 14.072 -1.482 0.43
-18.148 14.095 -1.492 0.36
-18.128 14.033 -1.488 0.18
-19.73 15.172 -1.633 0.39
-20.003 15.282 -1.654 0.15
-20.181 15.318 -1.666 0.19
-20.209 15.239 -1.664 0.12
-19.964 14.957 -1.637 0.25
-19.816 14.749 -1.619 0.27
-19.855 14.682 -1.618 0.38
-19.94 14.696 -1.624 0.18
-19.834 14.522 -1.61 0.45
-19.936 14.501 -1.615 0.45
-20.187 14.586 -1.634 0.31
-20.179 14.484 -1.629 0.24
-20.038 14.288 -1.612 0.25
-19.957 14.136 -1.601 0.31
-19.903 14.051 -1.594 0.26
-19.917 13.968 -1.591 0.39
-20.446 14.242 -1.635 0.32
-19.995 13.836 -1.59 0.25
-20.134 13.838 -1.599 0.29
-20.182 13.778 -1.599 0.37
-20.349 13.799 -1.61 0.34
-20.453 13.822 -1.618 0.29
-20.578 13.812 -1.625 0.4
-20.578 13.719 -1.621 0.32
-20.706 13.71 -1.629 0.36
-20.872 13.726 -1.639 0.28
-20.972 13.698 -1.644 0.38
-21.167 13.73 -1.658 0.28
-21.196 13.701 -1.658 0.29
-21.24 13.636 -1.659 0.39
-21.327 13.597 -1.662 0.3
-21.52 13.624 -1.676 0.35
-21.626 13.597 -1.681 0.39
-21.776 13.596 -1.69 0.31
-21.854 13.549 -1.693 0.18
-21.971 13.526 -1.7 0.41
-22.106 13.562 -1.71 0.33
-22.289 13.577 -1.722 0.3
-22.405 13.551 -1.728 0.23
-22.48 13.5 -1.731 0.52
-22.734 13.556 -1.749 0.23
-22.77 13.48 -1.749 0.22
-22.852 13.432 -1.752 0.35
-22.964 13.449 -1.76 0.26
-22.982 13.363 -1.758 0.18
-23.61 13.628 -1.808 0.58
-23.627 13.539 -1.805 0.16
-23.662 13.461 -1.805 0.36
-23.896 13.494 -1.821 0.16
-24.049 13.482 -1.83 0.46
-24.131 13.478 -1.835 0.18
-24.144 13.386 -1.833 0.25
-24.24 13.339 -1.838 0.26
-24.438 13.348 -1.851 0.51
-24.779 13.434 -1.876 0.23
-27.487 14.787 -2.099 0.19
-27.541 14.704 -2.099 0.39
-27.546 14.596 -2.096 0.23
-27.55 14.543 -2.094 0.34
-27.776 14.55 -2.109 0.27
-27.506 14.299 -2.083 0.34
-27.923 14.405 -2.114 0.25
-27.67 14.164 -2.089 0.31
-27.949 14.196 -2.109 0.26
-28.02 14.122 -2.111 0.4
-27.948 14.031 -2.103 0.28
-27.999 13.946 -2.104 0.29
-27.959 13.817 -2.097 0.34
-28.006 13.731 -2.097 0.26
-27.962 13.601 -2.09 0.3
-27.942 13.483 -2.085 0.33
-27.999 13.402 -2.086 0.29
-28.043 13.369 -2.088 0.28
-27.997 13.239 -2.081 0.3
-28.152 13.204 -2.09 0.25
-28.284 13.158 -2.097 0.3
-28.524 13.161 -2.114 0.27
-28.692 13.129 -2.124 0.24
-28.797 13.067 -2.129 0.34
-29.101 13.15 -2.152 0.25
-29.201 13.085 -2.157 0.3
-29.442 13.082 -2.173 0.26
-29.697 13.083 -2.19 0.26
-29.818 13.025 -2.197 0.27
-30.097 13.034 -2.216 0.27
-30.31 13.013 -2.229 0.29
-30.474 12.97 -2.239 0.2
-30.639 12.984 -2.251 0.41
-30.857 12.961 -2.265 0.2
-30.962 12.891 -2.27 0.14
-31.059 12.817 -2.275 0.08
-31.132 12.733 -2.277 0.08
-31.239 12.662 -2.283 0.0
-31.286 12.567 -2.283 0.0
-31.335 12.53 -2.286 0.0
-31.384 12.435 -2.286 0.0
-31.445 12.345 -2.288 0.0
-31.534 12.266 -2.292 0.0
-31.637 12.191 -2.297 0.0
-31.696 12.1 -2.299 0.0
-31.758 12.009 -2.301 0.0
-31.809 11.971 -2.303 0.0
-31.885 11.886 -2.306 0.0
-31.954 11.797 -2.309 0.0
-32.014 11.705 -2.311 0.0
-32.079 11.615 -2.313 0.0
-32.147 11.525 -2.315 0.0
-32.213 11.435 -2.318 0.0
-32.285 11.404 -2.322 0.0
