# .PCD v.7 - Point Cloud Data file format
VERSION .7
FIELDS x y z intensity
SIZE 4 4 4 4
TYPE F F F F
COUNT 1 1 1 1
WIDTH 1869
HEIGHT 1
VIEWPOINT 0 0 0 1 0 0 0
POINTS 1869
DATA ascii
15.241 -7.365 -1.462 0.25
15.38 -7.403 -1.476 0.26
15.504 -7.402 -1.487 0.2
15.649 -7.411 -1.501 0.41
15.763 -7.404 -1.51 0.24
15.892 -7.404 -1.522 0.19
16.017 -7.401 -1.533 0.39
16.105 -7.38 -1.54 0.19
16.201 -7.362 -1.548 0.38
16.202 -7.332 -1.547 0.21
16.214 -7.276 -1.545 0.18
16.3 -7.253 -1.552 0.39
16.507 -7.283 -1.572 0.24
16.583 -7.254 -1.578 0.25
16.644 -7.219 -1.582 0.18
16.683 -7.173 -1.583 0.46
16.637 -7.123 -1.577 0.24
16.538 -7.019 -1.565 0.29
16.636 -6.999 -1.573 0.27
16.648 -6.943 -1.572 0.18
16.657 -6.885 -1.57 0.47
16.629 -6.813 -1.565 0.23
16.708 -6.783 -1.571 0.27
16.596 -6.708 -1.558 0.25
16.737 -6.704 -1.571 0.3
16.829 -6.679 -1.578 0.25
16.735 -6.581 -1.566 0.0
16.926 -6.595 -1.584 0.07
15.193 -5.867 -1.399 0.23
15.315 -5.859 -1.41 0.2
15.479 -5.894 -1.427 0.18
15.686 -5.916 -1.446 0.34
15.844 -5.919 -1.461 0.19
16.005 -5.921 -1.476 0.36
16.171 -5.925 -1.491 0.2
16.29 -5.91 -1.502 0.34
16.307 -5.858 -1.502 0.19
16.328 -5.837 -1.503 0.34
16.697 -5.909 -1.539 0.16
16.745 -5.867 -1.543 0.35
16.867 -5.85 -1.553 0.22
16.756 -5.753 -1.54 0.34
16.775 -5.701 -1.54 0.2
16.871 -5.674 -1.548 0.26
16.881 -5.648 -1.548 0.18
16.752 -5.546 -1.533 0.34
16.593 -5.436 -1.515 0.19
16.69 -5.41 -1.523 0.34
16.742 -5.369 -1.527 0.14
16.573 -5.258 -1.508 0.39
16.69 -5.237 -1.518 0.24
16.767 -5.232 -1.525 0.26
16.888 -5.211 -1.536 0.26
17.034 -5.198 -1.549 0.24
17.062 -5.147 -1.55 0.2
17.118 -5.106 -1.554 0.36
17.202 -5.072 -1.561 0.38
17.249 -5.027 -1.565 0.29
17.297 -5.011 -1.569 0.32
17.395 -4.98 -1.577 0.23
17.424 -4.93 -1.578 0.33
17.512 -4.895 -1.586 0.32
17.504 -4.834 -1.583 0.0
16.108 -4.396 -1.44 0.04
16.231 -4.374 -1.451 0.15
16.505 -4.42 -1.478 0.17
16.802 -4.443 -1.507 0.39
17.072 -4.456 -1.533 0.21
17.142 -4.417 -1.539 0.24
17.323 -4.405 -1.556 0.18
17.596 -4.416 -1.582 0.25
17.621 -4.363 -1.583 0.24
17.591 -4.297 -1.578 0.26
17.624 -4.276 -1.581 0.39
17.647 -4.223 -1.582 0.19
17.662 -4.168 -1.582 0.38
17.699 -4.118 -1.585 0.22
17.743 -4.069 -1.588 0.18
17.722 -4.006 -1.584 0.42
17.772 -3.958 -1.588 0.24
17.834 -3.943 -1.594 0.27
17.831 -3.883 -1.592 0.28
17.843 -3.827 -1.592 0.28
17.81 -3.762 -1.588 0.21
17.843 -3.71 -1.59 0.44
17.818 -3.647 -1.586 0.25
17.915 -3.608 -1.595 0.2
17.882 -3.543 -1.59 0.39
17.815 -3.501 -1.583 0.22
17.851 -3.449 -1.586 0.19
17.76 -3.374 -1.575 0.39
17.759 -3.316 -1.574 0.22
17.716 -3.251 -1.569 0.0
17.732 -3.196 -1.57 0.0
16.288 -2.885 -1.425 0.12
16.677 -2.926 -1.463 0.3
17.157 -2.954 -1.51 0.19
17.264 -2.917 -1.52 0.36
17.601 -2.916 -1.552 0.23
17.687 -2.873 -1.56 0.29
17.705 -2.819 -1.561 0.29
17.699 -2.761 -1.559 0.33
17.693 -2.732 -1.558 0.27
17.67 -2.672 -1.555 0.29
17.714 -2.621 -1.559 0.32
17.724 -2.566 -1.559 0.35
17.655 -2.5 -1.551 0.24
17.395 -2.407 -1.525 0.34
17.29 -2.338 -1.513 0.32
17.185 -2.296 -1.503 0.3
17.115 -2.232 -1.495 0.34
17.159 -2.183 -1.499 0.29
17.194 -2.133 -1.502 0.41
17.127 -2.07 -1.494 0.3
17.043 -2.006 -1.485 0.27
17.079 -1.955 -1.488 0.25
17.205 -1.915 -1.5 0.22
17.778 -1.95 -1.556 0.39
18.376 -1.956 -1.615 0.25
18.463 -1.906 -1.623 0.28
18.422 -1.844 -1.618 0.26
18.354 -1.779 -1.611 0.21
18.304 -1.716 -1.606 0.41
18.296 -1.657 -1.604 0.25
18.294 -1.628 -1.604 0.2
18.271 -1.568 -1.601 0.39
18.264 -1.51 -1.6 0.21
18.239 -1.45 -1.597 0.25
18.244 -1.393 -1.597 0.21
18.252 -1.336 -1.597 0.22
18.268 -1.279 -1.599 0.2
18.28 -1.251 -1.6 0.22
18.298 -1.195 -1.601 0.18
18.291 -1.137 -1.6 0.31
18.297 -1.079 -1.6 0.2
18.298 -1.022 -1.6 0.18
18.267 -0.963 -1.597 0.33
18.28 -0.906 -1.598 0.19
18.242 -0.875 -1.594 0.35
18.239 -0.818 -1.593 0.2
18.201 -0.759 -1.589 0.38
18.188 -0.701 -1.588 0.23
18.194 -0.644 -1.588 0.19
18.184 -0.586 -1.587 0.39
18.17 -0.529 -1.585 0.25
18.133 -0.499 -1.582 0.27
18.13 -0.442 -1.581 0.19
18.124 -0.385 -1.58 0.42
18.103 -0.328 -1.578 0.24
18.088 -0.271 -1.577 0.2
18.067 -0.214 -1.574 0.41
18.057 -0.157 -1.574 0.24
18.038 -0.128 -1.572 0.26
18.03 -0.072 -1.571 0.19
18.022 -0.015 -1.57 0.39
17.056 0.012 -1.58 0.31
17.056 0.066 -1.58 0.3
17.07 0.119 -1.581 0.29
17.081 0.173 -1.583 0.29
17.089 0.227 -1.584 0.26
17.104 0.281 -1.585 0.27
17.115 0.308 -1.586 0.24
17.11 0.361 -1.586 0.17
17.109 0.415 -1.586 0.44
17.098 0.469 -1.585 0.25
17.096 0.522 -1.585 0.26
17.087 0.576 -1.584 0.26
17.073 0.629 -1.583 0.27
17.063 0.682 -1.582 0.27
17.058 0.709 -1.582 0.27
17.039 0.762 -1.58 0.27
17.025 0.815 -1.579 0.28
17.003 0.867 -1.577 0.29
16.988 0.92 -1.575 0.27
16.969 0.973 -1.574 0.31
16.94 1.025 -1.571 0.28
16.93 1.051 -1.57 0.3
16.907 1.103 -1.568 0.3
16.902 1.156 -1.568 0.32
16.898 1.209 -1.568 0.29
16.888 1.261 -1.567 0.32
16.882 1.314 -1.567 0.31
16.864 1.366 -1.566 0.3
16.87 1.393 -1.567 0.31
16.859 1.446 -1.566 0.3
16.855 1.499 -1.566 0.3
16.83 1.55 -1.564 0.32
16.831 1.603 -1.564 0.32
16.818 1.655 -1.564 0.32
16.803 1.707 -1.563 0.3
16.774 1.758 -1.56 0.27
16.779 1.785 -1.561 0.34
16.761 1.836 -1.56 0.32
16.734 1.886 -1.557 0.29
16.741 1.94 -1.559 0.34
16.71 1.99 -1.556 0.3
16.693 2.041 -1.555 0.3
16.685 2.094 -1.555 0.34
16.666 2.118 -1.553 0.29
16.647 2.169 -1.552 0.31
16.629 2.219 -1.551 0.31
16.616 2.271 -1.55 0.31
16.598 2.322 -1.549 0.31
16.591 2.374 -1.549 0.32
16.572 2.424 -1.548 0.32
16.566 2.45 -1.548 0.31
16.566 2.503 -1.548 0.32
16.54 2.552 -1.547 0.32
16.534 2.605 -1.547 0.32
16.518 2.655 -1.546 0.3
16.52 2.709 -1.547 0.3
16.503 2.759 -1.546 0.3
16.505 2.786 -1.547 0.36
16.482 2.836 -1.545 0.3
16.481 2.889 -1.546 0.3
16.474 2.941 -1.546 0.34
16.459 2.992 -1.546 0.32
16.441 3.042 -1.545 0.32
16.437 3.095 -1.546 0.29
16.427 3.119 -1.545 0.34
16.411 3.17 -1.544 0.32
16.389 3.219 -1.543 0.32
16.369 3.269 -1.542 0.31
16.349 3.318 -1.541 0.32
16.325 3.367 -1.54 0.3
16.307 3.416 -1.539 0.33
16.288 3.466 -1.538 0.29
16.275 3.49 -1.537 0.31
16.256 3.539 -1.536 0.3
16.235 3.588 -1.535 0.32
16.208 3.636 -1.534 0.33
16.187 3.684 -1.532 0.33
16.156 3.731 -1.53 0.32
16.138 3.78 -1.53 0.31
16.125 3.804 -1.529 0.31
16.105 3.853 -1.528 0.32
16.089 3.902 -1.528 0.2
16.053 3.947 -1.525 0.45
16.039 3.997 -1.525 0.34
16.084 4.062 -1.531 0.27
16.062 4.11 -1.53 0.41
16.07 4.139 -1.532 0.49
16.104 4.202 -1.537 0.29
16.108 4.257 -1.539 0.29
16.121 4.314 -1.542 0.27
16.138 4.373 -1.545 0.26
16.165 4.435 -1.549 0.26
16.168 4.49 -1.551 0.19
16.19 4.524 -1.554 0.39
16.177 4.575 -1.554 0.23
16.186 4.633 -1.557 0.2
16.179 4.686 -1.558 0.38
16.172 4.739 -1.559 0.23
16.166 4.792 -1.56 0.18
16.172 4.849 -1.562 0.42
16.157 4.9 -1.562 0.24
16.149 4.925 -1.562 0.26
16.133 4.976 -1.562 0.27
16.137 5.033 -1.564 0.26
16.132 5.087 -1.565 0.27
16.133 5.143 -1.567 0.29
16.13 5.198 -1.569 0.29
16.118 5.25 -1.569 0.29
16.117 5.277 -1.57 0.29
16.132 5.339 -1.573 0.31
16.133 5.395 -1.575 0.31
16.125 5.449 -1.576 0.31
16.119 5.503 -1.578 0.31
16.122 5.561 -1.58 0.29
16.12 5.617 -1.581 0.27
16.132 5.649 -1.584 0.28
16.144 5.711 -1.587 0.27
16.161 5.774 -1.591 0.26
16.16 5.831 -1.593 0.19
16.16 5.888 -1.595 0.41
16.162 5.946 -1.597 0.2
16.16 6.003 -1.599 0.38
16.175 6.038 -1.602 0.19
16.169 6.094 -1.603 0.34
16.174 6.153 -1.606 0.18
16.153 6.204 -1.606 0.36
16.135 6.255 -1.606 0.18
16.128 6.311 -1.607 0.36
16.11 6.362 -1.608 0.19
16.097 6.386 -1.607 0.38
16.067 6.433 -1.606 0.23
16.052 6.485 -1.607 0.16
16.065 6.549 -1.611 0.42
16.072 6.611 -1.614 0.25
16.073 6.671 -1.616 0.26
16.06 6.724 -1.617 0.27
16.062 6.785 -1.62 0.25
16.085 6.824 -1.623 0.27
16.069 6.877 -1.624 0.29
16.078 6.94 -1.628 0.3
16.078 7.0 -1.63 0.29
16.076 7.06 -1.632 0.3
16.072 7.118 -1.634 0.28
16.077 7.181 -1.638 0.32
16.071 7.208 -1.638 0.28
16.083 7.274 -1.642 0.31
16.071 7.33 -1.643 0.28
16.066 7.388 -1.645 0.29
16.058 7.446 -1.647 0.29
16.06 7.509 -1.65 0.29
16.049 7.565 -1.652 0.32
16.039 7.591 -1.652 0.29
16.033 7.65 -1.654 0.3
16.009 7.7 -1.654 0.3
16.001 7.758 -1.656 0.29
15.982 7.811 -1.656 0.3
15.968 7.866 -1.658 0.29
15.95 7.92 -1.659 0.29
15.945 7.949 -1.659 0.29
15.925 8.001 -1.66 0.29
15.909 8.056 -1.661 0.3
15.908 8.118 -1.664 0.3
15.897 8.176 -1.666 0.31
15.894 8.237 -1.668 0.31
15.873 8.29 -1.669 0.32
15.882 8.326 -1.671 0.31
15.862 8.38 -1.672 0.3
15.853 8.439 -1.674 0.3
15.834 8.492 -1.675 0.29
15.823 8.55 -1.677 0.32
15.819 8.612 -1.68 0.3
15.802 8.668 -1.681 0.28
15.815 8.707 -1.684 0.31
15.799 8.763 -1.686 0.3
15.784 8.82 -1.687 0.27
15.76 8.871 -1.687 0.34
15.749 8.93 -1.689 0.25
15.717 8.978 -1.689 0.35
15.73 9.051 -1.694 0.31
15.714 9.107 -1.695 0.29
15.693 9.128 -1.695 0.25
15.683 9.188 -1.697 0.34
15.656 9.239 -1.697 0.32
15.628 9.289 -1.697 0.29
15.604 9.341 -1.698 0.32
15.604 9.407 -1.701 0.31
15.601 9.473 -1.705 0.31
15.607 9.51 -1.707 0.3
15.611 9.579 -1.711 0.3
15.609 9.646 -1.715 0.27
15.682 9.759 -1.728 0.21
15.711 9.845 -1.735 0.36
15.666 9.886 -1.733 0.34
15.595 9.91 -1.728 0.36
15.515 9.893 -1.72 0.37
15.489 9.945 -1.721 0.35
15.438 9.981 -1.719 0.45
15.35 9.993 -1.711 0.53
15.263 10.005 -1.705 0.34
15.172 10.014 -1.697 0.37
15.095 10.031 -1.692 0.32
12.663 8.449 -1.389 0.31
12.562 8.438 -1.379 0.24
12.286 8.31 -1.348 0.14
12.194 8.304 -1.34 0.15
11.995 8.224 -1.318 0.34
11.953 8.251 -1.316 0.19
11.881 8.257 -1.31 0.27
11.828 8.247 -1.305 0.25
11.759 8.254 -1.299 0.33
11.686 8.258 -1.293 0.17
11.619 8.266 -1.288 0.28
11.551 8.272 -1.283 0.18
11.459 8.261 -1.274 0.25
11.38 8.259 -1.267 0.2
11.302 8.257 -1.261 0.23
11.238 8.237 -1.254 0.2
11.174 8.244 -1.249 0.23
11.103 8.246 -1.243 0.2
11.023 8.24 -1.236 0.23
10.96 8.248 -1.231 0.21
10.886 8.246 -1.225 0.14
10.829 8.256 -1.221 0.45
10.77 8.238 -1.215 0.18
10.708 8.244 -1.21 0.37
10.62 8.23 -1.202 0.0
10.557 8.234 -1.197 0.0
10.482 8.229 -1.191 0.0
10.427 8.239 -1.187 0.12
10.368 8.246 -1.182 0.28
10.325 8.239 -1.179 0.18
10.268 8.246 -1.174 0.38
10.204 8.247 -1.169 0.23
10.153 8.259 -1.166 0.17
10.085 8.257 -1.16 0.39
10.018 8.255 -1.155 0.23
9.961 8.261 -1.15 0.18
9.91 8.245 -1.145 0.39
9.85 8.248 -1.141 0.24
9.788 8.248 -1.136 0.18
9.741 8.261 -1.133 0.41
9.675 8.258 -1.127 0.23
9.62 8.263 -1.123 0.19
9.56 8.264 -1.119 0.4
9.517 8.253 -1.115 0.19
9.462 8.258 -1.111 0.36
9.513 8.354 -1.121 0.24
9.5 8.396 -1.123 0.12
9.493 8.443 -1.126 0.34
9.475 8.481 -1.127 0.28
9.453 8.514 -1.128 0.36
9.441 8.531 -1.128 0.4
9.34 8.493 -1.117 0.23
9.024 8.259 -1.077 0.17
8.998 8.287 -1.077 0.43
8.944 8.29 -1.073 0.25
8.895 8.296 -1.069 0.2
8.869 8.324 -1.069 0.14
8.812 8.323 -1.065 0.54
8.792 8.33 -1.064 0.14
8.775 8.367 -1.065 0.17
8.741 8.387 -1.064 0.6
8.76 8.458 -1.071 0.12
8.781 8.531 -1.078 0.09
8.738 8.544 -1.075 0.14
8.712 8.599 -1.077 0.3
8.709 8.65 -1.081 0.17
8.673 8.723 -1.084 0.17
8.641 8.745 -1.083 0.12
8.623 8.783 -1.084 0.24
8.63 8.845 -1.09 0.31
8.637 8.88 -1.093 0.33
8.634 8.933 -1.097 0.33
8.621 8.976 -1.099 0.33
8.614 9.024 -1.102 0.32
8.595 9.061 -1.103 0.32
8.587 9.11 -1.106 0.34
8.588 9.169 -1.111 0.34
8.6 9.239 -1.117 0.32
8.626 9.296 -1.123 0.29
8.644 9.375 -1.131 0.42
8.678 9.47 -1.141 0.27
8.746 9.605 -1.156 0.17
8.759 9.679 -1.162 0.18
8.789 9.773 -1.172 0.14
8.781 9.796 -1.173 0.26
12.005 13.462 -1.682 0.21
11.981 13.521 -1.685 0.35
11.939 13.56 -1.686 0.32
11.895 13.596 -1.685 0.3
11.863 13.645 -1.687 0.31
11.81 13.67 -1.685 0.27
11.764 13.704 -1.685 0.27
11.749 13.73 -1.686 0.36
11.709 13.77 -1.686 0.32
11.66 13.801 -1.686 0.32
11.613 13.833 -1.685 0.35
11.569 13.869 -1.685 0.32
11.522 13.901 -1.684 0.27
11.472 13.929 -1.683 0.32
11.466 13.967 -1.686 0.27
11.45 14.037 -1.69 0.44
11.395 14.059 -1.689 0.28
11.355 14.101 -1.689 0.3
11.307 14.132 -1.689 0.32
11.275 14.183 -1.691 0.34
11.238 14.228 -1.692 0.26
11.217 14.247 -1.692 0.42
11.211 14.332 -1.699 0.3
11.159 14.358 -1.698 0.29
10.846 14.047 -1.652 0.14
10.696 13.944 -1.634 0.54
10.616 13.93 -1.628 0.31
10.51 13.881 -1.617 0.5
10.456 13.901 -1.615 0.32
10.398 13.868 -1.609 0.39
10.298 13.826 -1.599 0.51
10.282 13.895 -1.604 0.23
10.204 13.881 -1.598 0.49
10.112 13.847 -1.589 0.37
10.081 13.896 -1.592 0.45
10.11 14.028 -1.605 0.39
10.09 14.047 -1.605 0.32
10.048 14.082 -1.605 0.42
10.012 14.124 -1.607 0.4
9.907 14.07 -1.596 0.41
9.853 14.088 -1.594 0.23
9.701 13.964 -1.574 0.54
9.691 14.043 -1.581 0.38
9.583 13.98 -1.569 0.28
9.56 13.993 -1.569 0.54
9.53 14.045 -1.571 0.36
9.564 14.19 -1.586 0.39
9.51 14.207 -1.584 0.45
9.413 14.157 -1.574 0.28
9.246 14.003 -1.551 0.31
9.186 14.007 -1.548 0.46
9.177 14.041 -1.551 0.16
8.966 13.813 -1.519 0.48
8.964 13.906 -1.527 0.42
8.909 13.916 -1.524 0.33
8.862 13.939 -1.524 0.46
8.845 14.009 -1.529 0.32
8.736 13.934 -1.516 0.46
8.714 13.947 -1.516 0.44
8.733 14.076 -1.529 0.39
8.67 14.073 -1.525 0.37
8.739 14.285 -1.548 0.34
8.533 14.047 -1.515 0.34
8.396 13.921 -1.497 0.23
8.282 13.83 -1.482 0.59
8.296 13.902 -1.49 0.41
8.269 13.957 -1.493 0.38
8.192 13.927 -1.486 0.3
8.133 13.927 -1.483 0.53
8.085 13.945 -1.482 0.3
8.085 14.046 -1.491 0.66
8.195 14.341 -1.524 0.2
7.843 13.827 -1.459 0.32
7.815 13.827 -1.458 0.5
7.8 13.904 -1.464 0.29
7.738 13.895 -1.46 0.64
7.726 13.977 -1.467 0.26
7.665 13.97 -1.463 0.44
7.595 13.947 -1.457 0.35
7.516 13.906 -1.45 0.49
7.495 13.918 -1.45 0.3
7.484 14.002 -1.457 0.51
7.44 14.026 -1.457 0.43
7.415 14.086 -1.461 0.28
7.378 14.123 -1.463 0.64
7.468 14.404 -1.493 0.38
7.552 14.678 -1.523 0.27
7.541 14.713 -1.525 0.31
7.48 14.709 -1.522 0.65
7.657 15.172 -1.574 0.28
7.257 14.496 -1.492 0.29
7.138 14.371 -1.475 0.38
7.042 14.29 -1.463 0.66
7.014 14.348 -1.467 0.26
7.021 14.475 -1.479 0.25
6.942 14.371 -1.466 0.5
6.891 14.381 -1.464 0.45
6.842 14.395 -1.463 0.46
6.771 14.361 -1.457 0.34
6.716 14.36 -1.454 0.3
6.662 14.363 -1.452 0.32
6.613 14.375 -1.451 0.36
6.58 14.364 -1.449 0.35
6.529 14.372 -1.447 0.29
6.478 14.38 -1.446 0.33
6.421 14.373 -1.443 0.29
6.365 14.369 -1.44 0.4
6.313 14.373 -1.438 0.27
6.257 14.369 -1.436 0.39
6.208 14.379 -1.434 0.36
6.182 14.382 -1.434 0.32
6.125 14.372 -1.43 0.3
6.067 14.362 -1.427 0.29
6.013 14.36 -1.425 0.31
5.962 14.364 -1.423 0.31
5.917 14.383 -1.423 0.34
5.876 14.413 -1.424 0.33
5.876 14.477 -1.431 0.29
5.839 14.518 -1.433 0.21
5.793 14.534 -1.433 0.0
3.338 8.48 -0.751 0.07
3.347 8.662 -0.769 0.0
2.997 8.381 -0.729 0.0
2.971 8.39 -0.729 0.0
2.939 8.383 -0.727 0.0
2.912 8.392 -0.727 0.0
2.889 8.408 -0.728 0.0
2.858 8.406 -0.727 0.0
2.827 8.4 -0.725 0.0
2.795 8.394 -0.723 0.0
2.784 8.404 -0.724 0.0
2.755 8.405 -0.723 0.0
2.73 8.419 -0.724 0.0
2.699 8.413 -0.722 0.0
2.513 8.42 -0.717 0.0
2.476 8.394 -0.713 0.0
2.451 8.405 -0.714 0.0
2.268 8.415 -0.71 0.0
1.625 8.405 -0.693 0.14
1.591 8.373 -0.689 0.09
1.567 8.386 -0.69 0.0
1.538 8.381 -0.689 0.0
1.512 8.386 -0.689 0.0
1.485 8.384 -0.689 0.0
1.6 9.192 -0.774 0.0
1.615 9.361 -0.791 0.0
1.594 9.411 -0.796 0.0
1.589 9.563 -0.812 0.13
1.596 9.794 -0.836 0.0
1.562 9.775 -0.833 0.0
1.527 9.757 -0.831 0.05
1.5 9.783 -0.833 0.0
2.256 15.424 -1.427 0.0
2.206 15.421 -1.426 0.0
2.158 15.43 -1.426 0.0
2.026 15.551 -1.437 0.0
2.003 15.564 -1.438 0.07
1.952 15.556 -1.436 0.16
1.903 15.564 -1.436 0.3
1.855 15.576 -1.437 0.2
1.804 15.566 -1.435 0.19
1.757 15.583 -1.437 0.21
1.707 15.587 -1.436 0.18
1.683 15.589 -1.436 0.34
1.634 15.591 -1.436 0.18
1.584 15.586 -1.435 0.37
1.536 15.606 -1.437 0.21
1.486 15.603 -1.436 0.25
0.765 8.433 -0.684 0.2
0.737 8.419 -0.682 0.23
0.71 8.415 -0.681 0.0
0.694 8.393 -0.679 0.0
0.643 8.411 -0.68 0.0
0.617 8.417 -0.681 0.0
0.591 8.425 -0.681 0.0
0.527 8.461 -0.685 0.0
0.505 8.548 -0.694 0.0
0.498 8.883 -0.728 0.0
0.469 8.862 -0.726 0.04
0.702 15.684 -1.438 0.8
0.653 15.694 -1.439 0.89
0.628 15.697 -1.439 0.89
0.579 15.713 -1.441 0.88
0.53 15.715 -1.441 0.88
0.481 15.724 -1.442 0.88
0.432 15.734 -1.443 0.88
0.383 15.741 -1.443 0.88
0.333 15.748 -1.444 0.88
0.309 15.752 -1.444 0.88
0.258 15.716 -1.44 0.87
0.209 15.71 -1.44 0.87
0.16 15.719 -1.441 0.87
0.11 15.723 -1.441 0.87
0.061 15.726 -1.441 0.87
0.012 15.734 -1.442 0.86
-0.013 15.736 -1.442 0.86
-0.063 15.827 -1.452 0.74
-0.112 15.703 -1.439 0.21
-0.161 15.667 -1.435 0.41
-0.21 15.637 -1.432 0.62
-0.259 15.638 -1.432 0.63
-0.308 15.649 -1.433 0.64
-0.357 15.648 -1.433 0.64
-0.382 15.649 -1.434 0.64
-0.434 15.771 -1.447 0.75
-0.482 15.692 -1.438 0.37
-0.53 15.669 -1.436 0.45
-0.614 16.631 -1.537 0.14
-0.672 16.78 -1.553 0.17
-0.73 16.915 -1.567 0.12
-0.758 16.942 -1.57 0.35
-0.887 18.589 -1.742 0.18
-0.947 18.612 -1.745 0.27
-1.005 18.599 -1.744 0.26
-1.062 18.576 -1.742 0.2
-1.121 18.582 -1.743 0.18
-1.179 18.565 -1.741 0.52
-1.238 18.567 -1.742 0.54
-1.268 18.579 -1.743 0.53
-1.327 18.583 -1.744 0.53
-1.385 18.58 -1.744 0.55
-1.444 18.584 -1.745 0.56
-1.509 18.659 -1.754 0.7
-1.368 16.245 -1.501 0.31
-1.62 18.575 -1.746 0.22
-1.452 16.322 -1.51 0.58
-1.449 15.721 -1.448 0.21
-1.365 14.286 -1.298 0.29
-1.518 15.402 -1.415 0.16
-1.481 14.539 -1.325 0.35
-1.526 14.532 -1.325 0.17
-1.549 14.313 -1.302 0.64
-1.596 14.322 -1.304 0.25
-1.615 14.296 -1.301 0.67
-1.67 14.38 -1.311 0.28
-1.692 14.173 -1.29 0.28
-1.739 14.187 -1.292 0.5
-1.784 14.19 -1.292 0.45
-1.845 14.308 -1.306 0.34
-1.881 14.239 -1.299 0.68
-1.936 14.483 -1.325 0.14
-1.975 14.427 -1.32 0.53
-2.005 14.311 -1.308 0.27
-2.047 14.285 -1.306 0.57
-2.093 14.286 -1.307 0.44
-2.784 18.646 -1.768 0.36
-2.843 18.637 -1.768 0.34
-2.256 14.6 -1.342 0.21
-2.285 14.486 -1.33 0.67
-2.341 14.544 -1.337 0.15
-2.389 14.548 -1.339 0.52
-2.427 14.494 -1.334 0.43
-2.48 14.533 -1.339 0.24
-3.243 18.695 -1.78 0.71
-3.307 18.712 -1.783 0.35
-3.333 18.687 -1.781 0.5
-3.041 16.733 -1.575 0.19
-2.65 14.303 -1.318 0.65
-2.731 14.49 -1.339 0.24
-2.76 14.391 -1.329 0.55
-2.877 14.758 -1.369 0.38
-3.706 18.73 -1.793 0.2
-2.926 14.64 -1.358 0.57
-2.98 14.67 -1.362 0.28
-3.042 14.737 -1.37 0.24
-3.179 15.165 -1.417 0.53
-3.195 15.003 -1.401 0.24
-3.174 14.678 -1.367 0.23
-3.176 14.464 -1.345 0.23
-3.173 14.344 -1.333 0.3
-3.222 14.348 -1.335 0.59
-3.263 14.32 -1.333 0.21
-3.316 14.347 -1.337 0.16
-3.372 14.385 -1.342 0.52
-3.393 14.272 -1.331 0.37
-3.456 14.334 -1.339 0.32
-3.497 14.306 -1.337 0.4
-3.527 14.333 -1.34 0.32
-3.585 14.376 -1.346 0.24
-3.636 14.388 -1.349 0.39
-3.68 14.369 -1.348 0.52
-3.717 14.328 -1.345 0.38
-3.763 14.32 -1.345 0.3
-3.812 14.324 -1.347 0.35
-3.843 14.349 -1.35 0.24
-3.884 14.323 -1.349 0.43
-3.929 14.311 -1.349 0.43
-3.984 14.333 -1.352 0.27
-4.03 14.324 -1.353 0.57
-4.093 14.375 -1.36 0.17
-4.147 14.392 -1.363 0.26
-4.173 14.399 -1.365 0.43
-4.216 14.378 -1.364 0.41
-4.262 14.367 -1.364 0.41
-4.305 14.348 -1.363 0.36
-4.35 14.334 -1.363 0.39
-4.396 14.324 -1.364 0.37
-4.444 14.32 -1.365 0.38
-4.487 14.298 -1.364 0.4
-4.515 14.308 -1.366 0.35
-4.562 14.3 -1.366 0.34
-4.62 14.329 -1.371 0.15
-4.656 14.286 -1.368 0.56
-4.707 14.288 -1.37 0.38
-5.542 16.66 -1.632 0.35
-5.607 16.682 -1.637 0.28
-5.635 16.677 -1.637 0.52
-5.691 16.673 -1.639 0.23
-5.755 16.689 -1.642 0.38
-5.814 16.689 -1.644 0.41
-5.043 14.32 -1.384 0.24
-5.084 14.293 -1.383 0.29
-5.099 14.193 -1.374 0.66
-5.362 14.783 -1.441 0.2
-5.163 14.161 -1.373 0.5
-5.229 14.203 -1.379 0.23
-5.225 14.054 -1.365 0.62
-5.297 14.114 -1.373 0.36
-5.337 14.086 -1.372 0.41
-5.403 14.125 -1.378 0.33
-5.424 14.048 -1.372 0.53
-5.455 14.062 -1.374 0.39
-5.484 14.006 -1.37 0.65
-5.59 14.146 -1.387 0.44
-5.62 14.092 -1.383 0.29
-5.694 14.15 -1.392 0.27
-5.731 14.113 -1.39 0.68
-5.805 14.169 -1.398 0.29
-5.796 14.082 -1.389 0.54
-5.855 14.099 -1.393 0.35
-5.893 14.066 -1.392 0.39
-5.917 14.0 -1.386 0.69
-5.972 14.006 -1.389 0.28
-6.022 14.002 -1.391 0.54
-6.068 13.989 -1.391 0.36
-6.09 13.919 -1.386 0.58
-6.167 14.035 -1.4 0.32
-6.257 14.121 -1.412 0.36
-6.242 13.967 -1.397 0.46
-6.289 13.954 -1.397 0.63
-6.466 14.23 -1.431 0.13
-6.424 14.019 -1.409 0.27
-6.477 14.017 -1.411 0.66
-6.658 14.352 -1.451 0.0
-4.545 9.697 -0.918 0.05
-4.552 9.632 -0.912 0.14
-4.558 9.567 -0.906 0.16
-4.586 9.549 -0.906 0.36
-4.619 9.54 -0.906 0.34
-4.653 9.535 -0.907 0.3
-4.679 9.511 -0.906 0.4
-4.789 9.698 -0.929 0.0
-4.528 9.093 -0.86 0.07
-4.535 9.036 -0.855 0.0
-4.552 8.999 -0.852 0.12
-4.581 8.986 -0.853 0.12
-4.617 8.988 -0.854 0.16
-4.649 8.98 -0.855 0.28
-4.672 8.99 -0.857 0.15
-4.804 9.175 -0.881 0.33
-4.802 9.1 -0.874 0.32
-4.807 9.041 -0.869 0.27
-4.818 8.993 -0.865 0.4
-4.815 8.919 -0.858 0.25
-4.809 8.841 -0.85 0.19
-4.767 8.699 -0.835 0.37
-4.781 8.691 -0.835 0.13
-4.781 8.627 -0.829 0.34
-4.766 8.536 -0.82 0.12
-4.78 8.498 -0.817 0.13
-4.797 8.404 -0.81 0.37
-4.816 8.377 -0.808 0.31
-4.826 8.362 -0.808 0.77
-4.852 8.347 -0.808 0.46
-4.893 8.358 -0.811 0.31
-4.92 8.344 -0.811 0.55
-4.96 8.351 -0.814 0.3
-4.986 8.335 -0.814 0.54
-5.031 8.352 -0.817 0.3
-5.041 8.339 -0.817 0.52
-5.086 8.353 -0.821 0.28
-5.108 8.331 -0.82 0.51
-5.155 8.348 -0.824 0.28
-5.181 8.332 -0.824 0.5
-5.23 8.351 -0.828 0.29
-5.252 8.328 -0.827 0.49
-5.297 8.342 -0.831 0.3
-5.309 8.332 -0.831 0.52
-5.36 8.354 -0.836 0.3
-5.385 8.335 -0.836 0.54
-5.429 8.347 -0.839 0.3
-5.458 8.333 -0.839 0.52
-5.504 8.347 -0.843 0.31
-5.525 8.322 -0.842 0.55
-5.555 8.338 -0.846 0.32
-5.584 8.325 -0.846 0.54
-5.631 8.339 -0.85 0.3
-5.661 8.326 -0.851 0.54
-5.709 8.341 -0.855 0.31
-5.734 8.322 -0.855 0.52
-5.783 8.336 -0.859 0.31
-5.805 8.312 -0.858 0.55
-5.838 8.332 -0.862 0.32
-5.866 8.315 -0.862 0.52
-5.918 8.334 -0.867 0.29
-5.942 8.312 -0.866 0.49
-5.987 8.319 -0.87 0.35
-6.02 8.31 -0.871 0.43
-6.059 8.309 -0.873 0.41
-6.08 8.311 -0.875 0.39
-6.118 8.308 -0.877 0.44
-6.153 8.301 -0.878 0.36
-6.193 8.301 -0.881 0.4
-6.228 8.293 -0.882 0.41
-6.269 8.294 -0.885 0.37
-6.303 8.283 -0.886 0.37
-6.329 8.291 -0.888 0.33
-6.372 8.293 -0.891 0.35
-6.416 8.297 -0.894 0.36
-6.442 8.277 -0.894 0.32
-6.484 8.277 -0.897 0.28
-6.526 8.277 -0.9 0.22
-6.56 8.267 -0.901 0.36
-6.604 8.268 -0.904 0.14
-6.7 8.308 -0.914 0.65
-6.706 8.262 -0.91 0.5
-6.758 8.274 -0.915 0.18
-6.797 8.268 -0.917 0.29
-6.843 8.271 -0.92 0.29
-6.953 8.324 -0.932 0.59
-6.936 8.251 -0.925 0.12
-6.987 8.259 -0.929 0.15
-7.017 8.242 -0.93 0.1
-7.084 8.268 -0.936 0.13
-7.117 8.253 -0.937 0.13
-7.157 8.248 -0.94 0.16
-7.196 8.24 -0.942 0.1
-7.232 8.256 -0.945 0.14
-7.275 8.252 -0.948 0.31
-7.31 8.24 -0.95 0.11
-7.373 8.259 -0.955 0.16
-7.399 8.235 -0.955 0.11
-7.451 8.242 -0.959 0.18
-7.505 8.249 -0.964 0.28
-7.542 8.264 -0.968 0.15
-7.645 8.272 -0.975 0.67
-7.686 8.264 -0.978 0.35
-7.726 8.254 -0.98 0.31
-7.786 8.266 -0.985 0.37
-7.837 8.269 -0.989 0.34
-7.874 8.282 -0.992 0.38
-7.926 8.284 -0.996 0.41
-7.971 8.279 -0.999 0.34
-8.018 8.276 -1.002 0.45
-8.074 8.282 -1.007 0.35
-8.108 8.265 -1.008 0.45
-8.175 8.281 -1.014 0.36
-8.216 8.27 -1.017 0.46
-8.257 8.286 -1.021 0.38
-8.299 8.275 -1.023 0.45
-8.348 8.273 -1.027 0.41
-8.393 8.265 -1.029 0.42
-8.45 8.269 -1.034 0.42
-8.506 8.272 -1.038 0.41
-8.55 8.263 -1.041 0.41
-8.597 8.283 -1.046 0.37
-8.646 8.278 -1.049 0.45
-8.693 8.27 -1.052 0.51
-8.766 8.288 -1.059 0.26
-8.841 8.307 -1.066 0.29
-14.766 13.81 -1.91 0.5
-14.926 13.872 -1.927 0.36
-15.014 13.867 -1.933 0.34
-15.101 13.902 -1.942 0.36
-15.132 13.844 -1.94 0.38
-15.179 13.799 -1.941 0.31
-15.229 13.758 -1.942 0.46
-15.417 13.841 -1.962 0.35
-15.554 13.876 -1.975 0.39
-15.686 13.905 -1.988 0.34
-15.748 13.916 -1.993 0.39
-15.857 13.924 -2.002 0.45
-15.983 13.946 -2.014 0.41
-16.084 13.945 -2.022 0.18
-16.12 13.888 -2.021 0.48
-16.123 13.803 -2.015 0.43
-16.227 13.803 -2.023 0.32
-16.312 13.832 -2.032 0.43
-16.38 13.801 -2.035 0.34
-16.47 13.789 -2.042 0.41
-16.58 13.794 -2.051 0.22
-16.613 13.733 -2.049 0.59
-16.696 13.713 -2.055 0.43
-16.848 13.75 -2.07 0.31
-16.913 13.715 -2.072 0.49
-16.967 13.714 -2.077 0.33
-17.043 13.687 -2.081 0.35
-17.104 13.648 -2.084 0.34
-17.156 13.602 -2.085 0.32
-17.227 13.57 -2.089 0.41
-17.299 13.539 -2.093 0.32
-17.354 13.495 -2.094 0.29
-17.369 13.463 -2.093 0.27
-17.402 13.401 -2.092 0.21
-17.453 13.353 -2.093 0.44
-17.514 13.313 -2.096 0.25
-17.566 13.265 -2.097 0.27
-17.639 13.234 -2.101 0.24
-17.69 13.185 -2.103 0.27
-17.712 13.115 -2.1 0.3
-17.761 13.109 -2.104 0.19
-17.822 13.067 -2.106 0.41
-17.876 13.021 -2.108 0.25
-17.939 12.981 -2.111 0.26
-17.994 12.935 -2.113 0.18
-18.074 12.906 -2.118 0.45
-18.127 12.858 -2.119 0.25
-18.173 12.848 -2.123 0.24
-18.225 12.799 -2.124 0.18
-18.289 12.759 -2.127 0.43
-18.341 12.709 -2.129 0.23
-18.404 12.667 -2.132 0.18
-18.465 12.624 -2.134 0.41
-18.519 12.576 -2.136 0.25
-18.552 12.556 -2.138 0.19
-18.614 12.513 -2.141 0.41
-18.668 12.465 -2.143 0.23
-18.729 12.42 -2.145 0.18
-18.791 12.377 -2.148 0.4
-18.845 12.327 -2.15 0.23
-18.877 12.264 -2.149 0.26
-18.965 12.237 -2.156 0.2
-18.993 12.212 -2.157 0.41
-19.041 12.159 -2.158 0.22
-19.081 12.1 -2.158 0.18
-19.138 12.052 -2.16 0.43
-19.202 12.009 -2.164 0.25
-19.279 11.972 -2.168 0.21
-19.333 11.922 -2.17 0.38
-19.352 11.892 -2.17 0.2
-19.398 11.836 -2.172 0.35
-19.44 11.778 -2.172 0.18
-19.482 11.72 -2.173 0.36
-19.513 11.656 -2.172 0.18
-19.574 11.609 -2.175 0.36
-19.619 11.552 -2.176 0.18
-19.646 11.527 -2.177 0.35
-19.695 11.473 -2.179 0.18
-19.723 11.406 -2.178 0.27
-19.764 11.347 -2.178 0.2
-19.82 11.297 -2.181 0.22
-19.862 11.238 -2.182 0.2
-19.908 11.182 -2.183 0.22
-19.967 11.133 -2.186 0.18
-19.999 11.109 -2.188 0.34
-20.04 11.05 -2.188 0.18
-20.091 10.996 -2.19 0.36
-20.143 10.942 -2.192 0.19
-20.187 10.884 -2.194 0.34
-20.239 10.83 -2.196 0.17
-20.308 10.785 -2.2 0.37
-20.365 10.775 -2.205 0.18
-20.424 10.724 -2.207 0.36
-20.452 10.657 -2.207 0.18
-20.496 10.598 -2.208 0.35
-20.549 10.543 -2.21 0.18
-20.596 10.486 -2.212 0.36
-20.645 10.429 -2.214 0.19
-20.682 10.408 -2.216 0.37
-20.715 10.343 -2.216 0.19
-20.753 10.28 -2.217 0.38
-20.812 10.228 -2.22 0.19
-20.853 10.167 -2.221 0.38
-20.902 10.11 -2.223 0.25
-20.957 10.056 -2.226 0.25
-20.931 9.962 -2.219 0.14
-20.494 9.714 -2.167 0.45
-20.802 9.781 -2.199 0.18
-20.841 9.719 -2.2 0.34
-20.917 9.675 -2.205 0.26
-21.113 9.685 -2.224 0.36
-21.26 9.672 -2.238 0.27
-21.384 9.648 -2.248 0.36
-21.461 9.642 -2.255 0.39
-21.536 9.595 -2.261 0.24
-21.574 9.53 -2.261 0.46
-21.527 9.429 -2.253 0.24
-21.509 9.341 -2.247 0.16
-21.46 9.239 -2.238 0.43
-21.412 9.139 -2.23 0.25
-21.386 9.088 -2.225 0.17
-21.385 9.008 -2.222 0.43
-21.371 8.923 -2.217 0.25
-21.383 8.849 -2.215 0.24
-21.37 8.765 -2.211 0.18
-21.384 8.693 -2.209 0.45
-21.386 8.615 -2.206 0.25
-21.389 8.538 -2.203 0.27
-21.382 8.497 -2.201 0.24
-21.368 8.413 -2.197 0.17
-21.374 8.338 -2.194 0.42
-21.368 8.259 -2.191 0.24
-21.381 8.187 -2.189 0.24
-21.375 8.107 -2.186 0.18
-21.382 8.033 -2.184 0.42
-21.365 7.988 -2.18 0.24
-21.36 7.91 -2.177 0.19
-21.37 7.838 -2.175 0.42
-21.364 7.76 -2.172 0.25
-21.358 7.682 -2.169 0.17
-21.382 7.614 -2.169 0.43
-21.388 7.541 -2.167 0.25
-21.396 7.468 -2.165 0.17
-21.415 7.437 -2.166 0.43
-21.431 7.367 -2.165 0.25
-21.456 7.3 -2.165 0.2
-21.475 7.232 -2.165 0.42
-21.471 7.155 -2.162 0.23
-21.496 7.089 -2.162 0.19
-21.508 7.018 -2.161 0.39
-21.497 6.977 -2.159 0.2
-21.499 6.903 -2.157 0.38
-21.496 6.828 -2.154 0.19
-21.484 6.749 -2.15 0.38
-21.489 6.677 -2.148 0.2
-21.472 6.598 -2.144 0.24
-21.448 6.553 -2.141 0.21
-21.463 6.484 -2.14 0.22
-21.478 6.415 -2.139 0.18
-21.471 6.34 -2.136 0.13
-21.464 6.264 -2.134 0.17
-21.47 6.193 -2.132 0.12
-21.444 6.112 -2.127 0.18
-21.461 6.045 -2.127 0.12
-21.449 6.005 -2.125 0.16
-21.464 5.936 -2.124 0.12
-21.473 5.866 -2.123 0.17
-21.476 5.795 -2.121 0.12
-21.467 5.72 -2.119 0.16
-21.466 5.647 -2.117 0.27
-21.466 5.575 -2.115 0.27
-21.448 5.535 -2.112 0.26
-21.431 5.458 -2.108 0.24
-21.43 5.387 -2.106 0.27
-21.409 5.31 -2.102 0.16
-21.398 5.236 -2.099 0.36
-21.409 5.167 -2.098 0.18
-21.404 5.095 -2.096 0.36
-21.387 5.02 -2.093 0.18
-21.373 4.981 -2.09 0.36
-21.363 4.908 -2.088 0.19
-21.363 4.837 -2.086 0.23
-21.351 4.764 -2.083 0.2
-21.358 4.695 -2.082 0.22
-21.353 4.624 -2.08 0.18
-21.358 4.555 -2.079 0.21
-21.35 4.518 -2.077 0.18
-21.352 4.448 -2.076 0.3
-21.349 4.378 -2.074 0.2
-21.35 4.308 -2.073 0.16
-21.325 4.233 -2.069 0.31
-21.305 4.16 -2.065 0.2
-21.269 4.083 -2.06 0.18
-21.256 4.046 -2.058 0.21
-21.227 3.972 -2.054 0.2
-21.162 3.891 -2.046 0.2
-21.144 3.819 -2.042 0.27
-21.143 3.75 -2.041 0.35
-21.142 3.681 -2.04 0.4
-21.197 3.622 -2.044 0.42
-21.189 3.552 -2.042 0.29
-21.133 3.509 -2.036 0.27
-21.146 3.443 -2.036 0.28
-21.171 3.379 -2.037 0.28
-21.193 3.314 -2.039 0.29
-21.223 3.25 -2.041 0.27
-21.261 3.188 -2.044 0.29
-21.282 3.123 -2.045 0.27
-21.319 3.094 -2.048 0.25
-21.344 3.029 -2.05 0.18
-21.363 2.964 -2.051 0.44
-21.382 2.898 -2.052 0.25
-21.391 2.831 -2.052 0.19
-21.428 2.767 -2.055 0.41
-21.432 2.699 -2.054 0.24
-21.465 2.635 -2.057 0.19
-21.475 2.602 -2.058 0.41
-21.494 2.536 -2.059 0.24
-21.506 2.469 -2.059 0.2
-21.524 2.402 -2.06 0.41
-21.531 2.334 -2.06 0.25
-21.544 2.267 -2.061 0.25
-21.549 2.2 -2.061 0.26
-21.561 2.167 -2.061 0.26
-21.587 2.101 -2.064 0.27
-21.598 2.033 -2.064 0.26
-21.618 1.967 -2.065 0.27
-21.632 1.899 -2.066 0.26
-21.65 1.833 -2.068 0.26
-21.663 1.765 -2.068 0.26
-21.68 1.732 -2.07 0.27
-21.687 1.664 -2.07 0.26
-21.7 1.597 -2.071 0.17
-21.735 1.531 -2.074 0.43
-21.738 1.462 -2.074 0.25
-21.762 1.395 -2.076 0.16
-21.784 1.328 -2.078 0.42
-21.786 1.259 -2.077 0.22
-21.828 1.227 -2.082 0.18
-21.824 1.158 -2.081 0.41
-21.833 1.09 -2.081 0.24
-21.836 1.022 -2.081 0.18
-21.861 0.954 -2.084 0.4
-21.858 0.885 -2.083 0.23
-21.873 0.817 -2.084 0.18
-21.89 0.783 -2.086 0.41
-21.892 0.714 -2.086 0.23
-21.883 0.645 -2.085 0.19
-21.901 0.577 -2.086 0.26
-21.849 0.507 -2.081 0.35
-21.959 0.44 -2.092 0.21
-21.973 0.372 -2.093 0.23
-21.985 0.337 -2.095 0.18
-22.014 0.269 -2.098 0.21
-22.029 0.2 -2.099 0.18
-22.049 0.131 -2.101 0.12
-22.063 0.061 -2.103 0.17
-22.067 -0.008 -2.103 0.12
-22.079 -0.077 -2.104 0.16
-22.079 -0.147 -2.104 0.3
-22.076 -0.181 -2.104 0.2
-22.062 -0.251 -2.103 0.18
-22.055 -0.32 -2.102 0.23
-22.044 -0.389 -2.101 0.21
-22.06 -0.459 -2.103 0.17
-22.075 -0.528 -2.104 0.4
-22.093 -0.598 -2.107 0.23
-22.1 -0.633 -2.107 0.18
-22.112 -0.703 -2.109 0.39
-22.107 -0.772 -2.109 0.23
-22.117 -0.842 -2.11 0.18
-22.138 -0.913 -2.112 0.39
-22.139 -0.982 -2.113 0.2
-22.154 -1.053 -2.115 0.37
-22.16 -1.088 -2.115 0.19
-22.174 -1.158 -2.117 0.35
-22.196 -1.229 -2.12 0.19
-22.202 -1.3 -2.121 0.14
-22.653 -1.433 -2.169 0.16
-22.676 -1.506 -2.172 0.12
-22.687 -1.578 -2.173 0.17
-22.694 -1.65 -2.175 0.28
-22.689 -1.686 -2.174 0.2
-22.694 -1.758 -2.175 0.17
-22.7 -1.83 -2.177 0.34
-22.692 -1.901 -2.177 0.18
-22.708 -1.974 -2.179 0.38
-22.759 -2.051 -2.185 0.21
-22.837 -2.13 -2.194 0.26
-22.906 -2.209 -2.202 0.35
-23.051 -2.259 -2.217 0.24
-22.915 -2.319 -2.204 0.23
-21.677 -2.264 -2.075 0.18
-21.092 -2.27 -2.014 0.2
-20.97 -2.324 -2.002 0.28
-20.884 -2.381 -1.994 0.37
-20.862 -2.445 -1.992 0.36
-20.949 -2.488 -2.002 0.43
-21.042 -2.566 -2.012 0.26
-21.002 -2.628 -2.009 0.31
-21.621 -2.774 -2.075 0.15
-21.881 -2.877 -2.103 0.34
-21.86 -2.944 -2.102 0.27
-21.872 -3.016 -2.104 0.25
-21.952 -3.062 -2.113 0.11
-22.084 -3.151 -2.128 0.15
-22.143 -3.23 -2.135 0.12
-22.054 -3.288 -2.127 0.16
-21.639 -3.296 -2.084 0.29
-21.583 -3.357 -2.08 0.0
-20.68 -3.284 -1.985 0.0
-22.326 -3.652 -2.161 0.09
-22.336 -3.725 -2.163 0.14
-22.402 -3.809 -2.172 0.1
-22.441 -3.888 -2.177 0.14
-22.491 -3.969 -2.184 0.23
-22.502 -4.044 -2.186 0.25
-22.509 -4.118 -2.188 0.26
-22.573 -4.167 -2.196 0.25
-22.574 -4.24 -2.197 0.2
-22.576 -4.314 -2.199 0.16
-22.548 -4.382 -2.197 0.13
-22.517 -4.45 -2.195 0.17
-22.401 -4.5 -2.185 0.12
-22.338 -4.56 -2.179 0.16
-22.301 -4.626 -2.177 0.12
-22.262 -4.654 -2.174 0.17
-22.177 -4.709 -2.166 0.21
-22.151 -4.777 -2.165 0.21
-22.052 -4.828 -2.156 0.29
-21.565 -4.793 -2.106 0.19
-21.544 -4.859 -2.105 0.18
-21.133 -4.837 -2.063 0.21
-20.615 -4.753 -2.008 0.0
-21.902 -5.193 -2.149 0.14
-21.858 -5.256 -2.146 0.37
-21.704 -5.291 -2.131 0.22
-21.516 -5.317 -2.113 0.25
-21.391 -5.357 -2.101 0.29
-21.328 -5.377 -2.096 0.16
-21.219 -5.421 -2.086 0.44
-21.069 -5.453 -2.071 0.23
-20.955 -5.494 -2.061 0.27
-20.803 -5.525 -2.046 0.29
-20.62 -5.546 -2.028 0.27
-20.549 -5.596 -2.023 0.3
-20.604 -5.645 -2.03 0.25
-20.565 -5.704 -2.027 0.16
-20.637 -5.794 -2.037 0.51
-21.055 -5.982 -2.084 0.23
-21.112 -6.07 -2.093 0.15
-21.109 -6.141 -2.094 0.43
-21.085 -6.206 -2.094 0.25
-21.039 -6.264 -2.091 0.26
-21.107 -6.321 -2.099 0.26
-20.573 -6.232 -2.043 0.26
-20.555 -6.297 -2.044 0.2
-20.399 -6.32 -2.029 0.22
-20.143 -6.31 -2.003 0.18
-19.873 -6.294 -1.976 0.31
-19.544 -6.258 -1.942 0.2
-19.303 -6.215 -1.916 0.09
-21.242 -6.91 -2.131 0.11
-21.198 -6.969 -2.129 0.27
-21.213 -7.048 -2.133 0.35
-21.168 -7.108 -2.13 0.28
-21.176 -7.184 -2.134 0.36
-21.187 -7.262 -2.137 0.3
-21.144 -7.322 -2.135 0.31
-21.177 -7.37 -2.14 0.35
-21.16 -7.439 -2.141 0.33
-21.074 -7.483 -2.134 0.31
-20.966 -7.52 -2.125 0.32
-20.874 -7.56 -2.117 0.29
-20.919 -7.651 -2.125 0.38
-20.848 -7.7 -2.119 0.28
-20.731 -7.694 -2.108 0.27
-20.631 -7.73 -2.099 0.36
-20.448 -7.735 -2.082 0.21
-20.403 -7.792 -2.079 0.34
-20.264 -7.812 -2.066 0.19
-20.053 -7.803 -2.046 0.38
-19.866 -7.803 -2.027 0.23
-19.672 -7.762 -2.007 0.18
-19.465 -7.752 -1.987 0.39
-19.213 -7.722 -1.961 0.21
-19.004 -7.707 -1.94 0.0
-18.833 -7.707 -1.924 0.12
-20.374 -8.41 -2.1 0.23
-20.178 -8.404 -2.081 0.3
-20.212 -8.493 -2.088 0.36
-20.087 -8.477 -2.075 0.3
-20.036 -8.53 -2.073 0.34
-19.872 -8.535 -2.057 0.33
-19.696 -8.532 -2.04 0.32
-19.505 -8.523 -2.021 0.27
-19.321 -8.515 -2.004 0.29
-19.142 -8.508 -1.986 0.29
-18.966 -8.466 -1.968 0.27
-18.805 -8.466 -1.952 0.29
-18.614 -8.45 -1.933 0.28
-18.468 -8.454 -1.92 0.33
-18.302 -8.448 -1.904 0.34
-18.189 -8.465 -1.894 0.29
-18.207 -8.543 -1.899 0.21
-18.514 -8.722 -1.936 0.31
-18.4 -8.74 -1.926 0.3
-17.947 -8.594 -1.877 0.26
-18.331 -8.848 -1.924 0.38
-18.285 -8.897 -1.922 0.43
-18.205 -8.929 -1.916 0.32
-18.082 -8.94 -1.905 0.36
-18.004 -8.972 -1.899 0.35
-17.94 -8.975 -1.894 0.4
-17.795 -8.972 -1.88 0.39
-17.752 -9.021 -1.878 0.31
-17.673 -9.051 -1.872 0.43
-17.603 -9.085 -1.867 0.4
-17.518 -9.111 -1.861 0.37
-17.401 -9.12 -1.85 0.39
-17.295 -9.099 -1.84 0.39
-17.209 -9.123 -1.833 0.36
-17.115 -9.142 -1.825 0.39
-17.005 -9.153 -1.815 0.35
-16.996 -9.217 -1.818 0.48
-16.89 -9.228 -1.809 0.36
-16.728 -9.208 -1.793 0.37
-16.719 -9.238 -1.793 0.36
-16.61 -9.246 -1.784 0.48
-16.574 -9.294 -1.783 0.3
-16.545 -9.346 -1.783 0.46
-16.486 -9.381 -1.78 0.34
-16.456 -9.433 -1.78 0.41
-16.397 -9.468 -1.776 0.39
-16.302 -9.481 -1.768 0.39
-16.254 -9.488 -1.764 0.4
-16.159 -9.501 -1.756 0.45
-16.004 -9.478 -1.741 0.36
-15.995 -9.54 -1.744 0.48
-15.953 -9.583 -1.742 0.31
-15.884 -9.609 -1.737 0.37
-15.714 -9.575 -1.72 0.31
-15.813 -9.669 -1.734 0.38
-15.67 -9.65 -1.721 0.41
-15.596 -9.672 -1.715 0.31
-15.56 -9.717 -1.715 0.43
-15.533 -9.768 -1.715 0.36
-15.489 -9.809 -1.713 0.37
-15.448 -9.851 -1.712 0.44
-15.417 -9.865 -1.71 0.32
-15.303 -9.86 -1.7 0.34
-15.258 -9.899 -1.698 0.49
-15.24 -9.956 -1.7 0.39
-15.099 -9.932 -1.686 0.39
-15.106 -10.004 -1.691 0.38
-15.073 -10.051 -1.691 0.39
-15.11 -10.11 -1.697 0.41
-15.029 -10.124 -1.691 0.34
-15.0 -10.173 -1.692 0.32
-14.85 -10.14 -1.677 0.35
-14.865 -10.219 -1.683 0.39
-14.773 -10.224 -1.675 0.25
-14.773 -10.293 -1.679 0.37
-14.736 -10.336 -1.678 0.45
-14.835 -10.44 -1.693 0.34
-14.729 -10.435 -1.684 0.38
-14.679 -10.469 -1.682 0.39
-14.608 -10.488 -1.677 0.39
-14.561 -10.523 -1.675 0.36
-14.468 -10.526 -1.667 0.38
-14.396 -10.543 -1.662 0.43
-14.335 -10.533 -1.656 0.34
-14.348 -10.612 -1.662 0.4
-14.241 -10.602 -1.653 0.31
-14.24 -10.671 -1.657 0.46
-14.249 -10.748 -1.663 0.4
-14.185 -10.77 -1.659 0.39
-14.2 -10.852 -1.665 0.36
-14.15 -10.849 -1.661 0.46
-14.17 -10.934 -1.668 0.26
-14.138 -10.981 -1.668 0.38
-14.069 -10.999 -1.664 0.43
-14.036 -11.044 -1.664 0.38
-14.022 -11.104 -1.667 0.43
-13.971 -11.136 -1.665 0.38
-13.924 -11.17 -1.663 0.31
-12.178 -9.805 -1.432 0.23
-12.083 -9.792 -1.423 0.55
-12.011 -9.796 -1.417 0.26
-11.942 -9.802 -1.412 0.48
-11.923 -9.849 -1.414 0.29
-11.883 -9.879 -1.413 0.55
-11.878 -9.938 -1.416 0.37
-11.883 -9.975 -1.419 0.41
-11.867 -10.025 -1.421 0.29
-11.834 -10.061 -1.421 0.55
-11.83 -10.121 -1.425 0.29
-11.796 -10.157 -1.425 0.61
-13.29 -11.511 -1.635 0.29
-13.138 -11.452 -1.619 0.23
-13.189 -11.533 -1.628 0.41
-13.14 -11.564 -1.627 0.32
-12.998 -11.512 -1.612 0.3
-13.044 -11.625 -1.623 0.3
-13.759 -12.338 -1.729 0.26
-13.773 -12.429 -1.736 0.27
-12.74 -11.572 -1.596 0.26
-13.694 -12.475 -1.733 0.28
-13.634 -12.499 -1.73 0.29
-13.602 -12.549 -1.731 0.26
-13.531 -12.562 -1.727 0.25
-13.49 -12.603 -1.727 0.29
-13.447 -12.643 -1.726 0.32
-13.385 -12.664 -1.723 0.29
-13.327 -12.688 -1.72 0.31
-13.293 -12.696 -1.718 0.29
-13.238 -12.724 -1.716 0.31
-13.164 -12.732 -1.711 0.21
-13.115 -12.765 -1.71 0.43
-13.068 -12.799 -1.709 0.28
-13.026 -12.839 -1.709 0.29
-12.974 -12.868 -1.707 0.29
-12.947 -12.882 -1.706 0.29
-12.881 -12.897 -1.702 0.3
-12.828 -12.925 -1.7 0.29
-12.773 -12.951 -1.698 0.29
-12.731 -12.99 -1.698 0.3
-12.675 -13.014 -1.696 0.23
-12.619 -13.038 -1.694 0.32
-12.586 -13.045 -1.692 0.27
-12.526 -13.064 -1.689 0.33
-12.46 -13.078 -1.685 0.43
-12.408 -13.105 -1.683 0.36
-12.341 -13.117 -1.679 0.43
-12.291 -13.147 -1.678 0.3
-12.24 -13.175 -1.677 0.53
-12.195 -13.209 -1.676 0.29
-12.124 -13.174 -1.668 0.49
-12.062 -13.19 -1.665 0.37
-11.981 -13.184 -1.659 0.38
-11.891 -13.168 -1.652 0.34
-11.862 -13.219 -1.654 0.49
-11.82 -13.256 -1.654 0.35
-11.739 -13.249 -1.647 0.52
-11.706 -13.254 -1.645 0.32
-11.609 -13.228 -1.637 0.62
-11.56 -13.255 -1.635 0.28
-11.517 -13.29 -1.635 0.55
-11.435 -13.279 -1.629 0.3
-11.367 -13.285 -1.625 0.45
-11.303 -13.295 -1.621 0.43
-11.282 -13.312 -1.621 0.37
-11.211 -13.313 -1.616 0.57
-11.144 -13.318 -1.612 0.33
-11.093 -13.342 -1.611 0.48
-11.008 -13.325 -1.604 0.48
-10.961 -13.353 -1.603 0.34
-10.873 -13.332 -1.595 0.28
-10.799 -13.284 -1.587 0.49
-10.744 -13.301 -1.584 0.41
-10.718 -13.355 -1.587 0.29
-10.65 -13.356 -1.583 0.53
-10.596 -13.374 -1.581 0.29
-10.527 -13.373 -1.576 0.45
-10.439 -13.348 -1.568 0.41
-10.368 -13.343 -1.563 0.48
-6.967 -9.009 -0.989 0.45
-10.246 -13.316 -1.553 0.21
-10.213 -13.359 -1.555 0.6
-10.113 -13.315 -1.545 0.29
-6.849 -9.09 -0.988 0.43
-6.829 -9.123 -0.989 0.41
-6.793 -9.134 -0.988 0.44
-6.791 -9.163 -0.99 0.43
-6.757 -9.176 -0.989 0.33
-6.724 -9.192 -0.989 0.48
-6.688 -9.204 -0.987 0.45
-6.664 -9.231 -0.988 0.37
-6.656 -9.281 -0.992 0.35
-9.577 -13.423 -1.521 0.5
-6.348 -9.002 -0.95 0.38
-6.32 -9.022 -0.95 0.46
-6.281 -9.027 -0.948 0.7
-6.248 -9.04 -0.947 0.32
-6.289 -9.16 -0.959 0.66
-6.285 -9.215 -0.964 0.25
-6.246 -9.22 -0.962 0.57
-9.023 -13.345 -1.481 0.17
-6.184 -9.223 -0.959 0.64
-8.872 -13.392 -1.476 0.58
-8.848 -13.448 -1.48 0.33
-6.06 -9.353 -0.963 0.61
-9.191 -14.208 -1.566 0.26
-9.15 -14.243 -1.567 0.29
-9.102 -14.267 -1.566 0.32
-9.038 -14.265 -1.562 0.29
-8.991 -14.29 -1.562 0.29
-8.949 -14.322 -1.562 0.25
-8.25 -13.299 -1.433 0.3
-8.318 -13.456 -1.451 0.39
-8.214 -13.382 -1.439 0.37
-8.221 -13.487 -1.448 0.22
-8.158 -13.479 -1.444 0.39
-8.665 -14.416 -1.555 0.27
-8.629 -14.459 -1.557 0.32
-8.579 -14.479 -1.556 0.29
-8.554 -14.489 -1.556 0.33
-8.498 -14.497 -1.554 0.3
-8.454 -14.527 -1.554 0.34
-8.406 -14.548 -1.553 0.3
-8.352 -14.561 -1.552 0.32
-8.306 -14.587 -1.552 0.33
-8.254 -14.603 -1.551 0.34
-8.195 -14.604 -1.548 0.26
-8.169 -14.612 -1.547 0.33
-8.118 -14.629 -1.546 0.34
-8.072 -14.654 -1.546 0.33
-8.017 -14.664 -1.544 0.34
-7.964 -14.675 -1.542 0.33
-7.918 -14.702 -1.543 0.33
-7.863 -14.709 -1.541 0.32
-7.84 -14.721 -1.541 0.34
-7.789 -14.737 -1.54 0.32
-7.737 -14.751 -1.538 0.32
-7.684 -14.763 -1.537 0.32
-7.635 -14.781 -1.536 0.32
-7.587 -14.804 -1.536 0.32
-7.536 -14.818 -1.535 0.32
-7.51 -14.823 -1.534 0.28
-7.469 -14.859 -1.536 0.18
-7.389 -14.815 -1.528 0.54
-7.362 -14.879 -1.532 0.33
-7.315 -14.9 -1.532 0.32
-7.26 -14.907 -1.53 0.34
-7.21 -14.923 -1.53 0.32
-7.187 -14.936 -1.53 0.32
-7.134 -14.946 -1.528 0.32
-7.084 -14.961 -1.528 0.32
-7.035 -14.979 -1.527 0.27
-6.983 -14.991 -1.526 0.35
-6.936 -15.013 -1.526 0.32
-6.884 -15.025 -1.525 0.32
-6.827 -15.025 -1.522 0.32
-6.796 -15.019 -1.52 0.33
-6.75 -15.043 -1.521 0.37
-6.687 -15.029 -1.517 0.3
-6.639 -15.048 -1.517 0.32
-6.583 -15.049 -1.514 0.33
-6.526 -15.048 -1.512 0.34
-6.477 -15.065 -1.511 0.32
-6.454 -15.075 -1.511 0.34
-6.4 -15.08 -1.51 0.34
-6.351 -15.097 -1.509 0.32
-6.297 -15.1 -1.507 0.33
-6.241 -15.101 -1.505 0.33
-6.189 -15.108 -1.504 0.34
-6.136 -15.114 -1.502 0.32
-6.107 -15.111 -1.501 0.29
-6.054 -15.117 -1.499 0.35
-6.002 -15.125 -1.498 0.33
-5.953 -15.138 -1.498 0.28
-5.905 -15.157 -1.498 0.35
-5.854 -15.168 -1.497 0.3
-5.803 -15.175 -1.496 0.36
-5.778 -15.183 -1.495 0.32
-5.729 -15.197 -1.495 0.41
-5.673 -15.193 -1.492 0.3
-5.619 -15.193 -1.491 0.32
-5.57 -15.207 -1.49 0.36
-5.517 -15.212 -1.489 0.3
-5.463 -15.212 -1.487 0.26
-4.776 -13.44 -1.289 0.47
-5.386 -15.223 -1.485 0.28
-5.339 -15.241 -1.485 0.32
-5.291 -15.258 -1.485 0.36
-5.236 -15.256 -1.483 0.39
-5.188 -15.27 -1.483 0.36
-5.132 -15.264 -1.481 0.36
-5.103 -15.255 -1.479 0.33
-5.053 -15.265 -1.478 0.3
-4.995 -15.253 -1.475 0.42
-4.946 -15.265 -1.475 0.3
-4.893 -15.263 -1.473 0.34
-4.839 -15.259 -1.471 0.34
-4.787 -15.263 -1.469 0.36
-4.735 -15.265 -1.468 0.38
-4.186 -13.581 -1.283 0.25
-4.126 -13.537 -1.277 0.41
-4.618 -15.313 -1.469 0.41
-4.571 -15.329 -1.469 0.35
-3.88 -13.33 -1.249 0.56
-4.409 -15.312 -1.463 0.37
-4.381 -15.304 -1.461 0.34
-4.329 -15.304 -1.46 0.38
-4.283 -15.325 -1.461 0.34
-4.233 -15.333 -1.46 0.37
-4.188 -15.358 -1.461 0.34
-4.139 -15.367 -1.461 0.39
-4.09 -15.38 -1.461 0.31
-4.066 -15.386 -1.461 0.4
-4.014 -15.384 -1.459 0.4
-3.964 -15.39 -1.459 0.32
-3.906 -15.366 -1.455 0.5
-3.856 -15.373 -1.454 0.38
-3.806 -15.377 -1.453 0.39
-3.757 -15.385 -1.453 0.36
-3.707 -15.391 -1.452 0.36
-3.68 -15.385 -1.451 0.39
-3.631 -15.393 -1.45 0.38
-3.577 -15.381 -1.448 0.38
-3.527 -15.386 -1.447 0.37
-3.479 -15.399 -1.448 0.26
-3.428 -15.394 -1.446 0.39
-3.38 -15.407 -1.446 0.42
-3.354 -15.407 -1.446 0.41
-3.305 -15.415 -1.445 0.34
-3.254 -15.41 -1.444 0.39
-3.205 -15.42 -1.444 0.38
-3.155 -15.42 -1.443 0.34
-3.104 -15.42 -1.442 0.39
-3.055 -15.428 -1.441 0.34
-3.028 -15.417 -1.44 0.39
-2.977 -15.411 -1.438 0.3
-2.927 -15.412 -1.437 0.41
-2.878 -15.42 -1.437 0.32
-2.828 -15.419 -1.436 0.47
-2.781 -15.437 -1.437 0.29
-2.731 -15.436 -1.436 0.39
-2.681 -15.441 -1.436 0.38
-2.657 -15.441 -1.435 0.34
-2.606 -15.438 -1.434 0.43
-2.557 -15.444 -1.434 0.32
-2.51 -15.46 -1.434 0.23
-2.455 -15.426 -1.43 0.45
-2.407 -15.436 -1.43 0.48
-2.361 -15.463 -1.432 0.34
-2.334 -15.449 -1.431 0.43
-2.282 -15.435 -1.428 0.38
-1.928 -13.355 -1.208 0.21
-2.184 -15.441 -1.427 0.43
-2.137 -15.457 -1.428 0.29
-2.087 -15.456 -1.428 0.42
-2.04 -15.47 -1.428 0.33
-2.014 -15.466 -1.428 0.41
-1.964 -15.46 -1.426 0.36
-1.917 -15.476 -1.427 0.33
-1.868 -15.482 -1.427 0.4
-1.822 -15.504 -1.429 0.34
-1.77 -15.486 -1.427 0.41
-1.721 -15.483 -1.426 0.34
-1.695 -15.476 -1.425 0.36
-1.646 -15.473 -1.424 0.38
-1.597 -15.474 -1.423 0.36
-1.548 -15.475 -1.423 0.32
-1.499 -15.476 -1.423 0.41
-1.45 -15.485 -1.423 0.32
-1.398 -15.45 -1.419 0.46
-1.375 -15.462 -1.42 0.39
-1.325 -15.45 -1.418 0.36
-1.275 -15.434 -1.416 0.43
-1.227 -15.452 -1.418 0.29
-1.176 -15.428 -1.415 0.43
-1.128 -15.436 -1.415 0.4
-1.08 -15.437 -1.415 0.36
-1.055 -15.439 -1.415 0.37
-1.007 -15.448 -1.416 0.36
-0.958 -15.445 -1.415 0.36
-0.91 -15.454 -1.416 0.38
-0.86 -15.431 -1.413 0.38
-0.811 -15.426 -1.412 0.42
-0.763 -15.43 -1.412 0.36
-0.74 -15.449 -1.414 0.34
-0.69 -15.44 -1.413 0.34
-0.644 -15.482 -1.417 0.19
-0.591 -15.38 -1.406 0.58
-0.545 -15.448 -1.413 0.41
-0.497 -15.467 -1.415 0.38
-0.449 -15.473 -1.415 0.32
-0.4 -15.462 -1.414 0.47
-0.328 -13.637 -1.224 0.25
-0.326 -15.446 -1.412 0.38
-0.278 -15.441 -1.412 0.38
-0.229 -15.449 -1.412 0.31
-0.181 -15.444 -1.412 0.39
-0.132 -15.441 -1.411 0.33
-0.084 -15.433 -1.411 0.37
-0.059 -15.437 -1.411 0.33
-0.011 -15.431 -1.41 0.34
0.038 -15.405 -1.408 0.44
0.086 -15.407 -1.408 0.41
0.134 -15.415 -1.409 0.3
0.183 -15.412 -1.409 0.34
0.231 -15.426 -1.41 0.36
0.256 -15.421 -1.41 0.35
0.304 -15.406 -1.408 0.36
0.352 -15.401 -1.408 0.36
0.4 -15.394 -1.407 0.4
0.449 -15.399 -1.408 0.32
0.497 -15.395 -1.408 0.34
0.545 -15.382 -1.406 0.34
0.569 -15.369 -1.405 0.41
0.618 -15.375 -1.406 0.39
0.666 -15.381 -1.407 0.3
0.714 -15.365 -1.405 0.41
0.761 -15.347 -1.404 0.41
0.809 -15.33 -1.402 0.36
0.858 -15.338 -1.403 0.43
0.88 -15.309 -1.4 0.31
0.928 -15.296 -1.399 0.34
0.975 -15.277 -1.398 0.32
1.022 -15.268 -1.397 0.39
1.069 -15.253 -1.396 0.32
1.117 -15.243 -1.395 0.36
1.164 -15.228 -1.394 0.31
1.212 -15.222 -1.394 0.37
1.235 -15.216 -1.393 0.28
1.282 -15.198 -1.392 0.37
1.33 -15.204 -1.393 0.34
1.378 -15.2 -1.393 0.32
1.427 -15.205 -1.394 0.38
1.474 -15.191 -1.393 0.28
1.52 -15.17 -1.391 0.27
1.541 -15.138 -1.388 0.37
1.589 -15.139 -1.389 0.44
1.64 -15.168 -1.392 0.35
1.687 -15.153 -1.391 0.34
1.734 -15.149 -1.391 0.33
1.781 -15.134 -1.39 0.33
1.829 -15.136 -1.391 0.34
1.852 -15.121 -1.39 0.34
1.898 -15.108 -1.389 0.32
1.946 -15.104 -1.389 0.41
1.803 -13.636 -1.235 0.26
2.039 -15.077 -1.388 0.29
1.888 -13.618 -1.235 0.34
2.131 -15.046 -1.386 0.36
2.155 -15.043 -1.386 0.31
2.201 -15.032 -1.386 0.35
2.248 -15.019 -1.385 0.4
2.288 -14.965 -1.38 0.29
2.341 -14.997 -1.384 0.27
2.389 -14.998 -1.385 0.38
2.436 -14.988 -1.385 0.35
2.482 -14.976 -1.384 0.29
2.505 -14.965 -1.383 0.36
2.55 -14.947 -1.382 0.29
2.596 -14.935 -1.382 0.36
2.643 -14.925 -1.382 0.3
2.689 -14.912 -1.381 0.35
2.735 -14.898 -1.381 0.29
2.782 -14.893 -1.381 0.36
2.803 -14.873 -1.379 0.32
2.849 -14.864 -1.379 0.32
2.895 -14.849 -1.379 0.3
2.943 -14.85 -1.38 0.37
2.985 -14.815 -1.377 0.34
3.023 -14.763 -1.373 0.27
3.08 -14.806 -1.378 0.29
3.107 -14.817 -1.38 0.15
2.891 -13.565 -1.247 0.64
3.187 -14.737 -1.373 0.28
2.982 -13.574 -1.25 0.32
3.291 -14.769 -1.379 0.29
3.126 -13.817 -1.278 0.39
3.369 -14.686 -1.372 0.32
3.357 -14.527 -1.356 0.3
3.446 -14.701 -1.376 0.28
3.497 -14.713 -1.378 0.33
3.545 -14.706 -1.379 0.32
3.589 -14.687 -1.378 0.35
3.635 -14.675 -1.378 0.29
3.687 -14.687 -1.38 0.34
3.733 -14.676 -1.38 0.32
3.756 -14.668 -1.38 0.33
3.803 -14.662 -1.381 0.34
3.849 -14.65 -1.381 0.29
3.895 -14.635 -1.381 0.4
3.942 -14.629 -1.381 0.3
3.984 -14.601 -1.379 0.33
4.007 -14.597 -1.38 0.39
4.055 -14.59 -1.38 0.34
4.096 -14.56 -1.378 0.28
4.141 -14.545 -1.378 0.39
4.182 -14.515 -1.376 0.29
4.233 -14.521 -1.378 0.32
4.278 -14.507 -1.378 0.32
4.301 -14.5 -1.378 0.32
4.342 -14.472 -1.377 0.32
4.392 -14.473 -1.378 0.31
4.435 -14.45 -1.377 0.32
4.48 -14.434 -1.377 0.32
4.524 -14.416 -1.377 0.34
4.543 -14.32 -1.368 0.27
4.613 -14.383 -1.376 0.21
4.37 -13.548 -1.286 0.46
4.446 -13.637 -1.297 0.37
4.653 -14.124 -1.352 0.29
4.722 -14.185 -1.36 0.32
4.73 -14.06 -1.348 0.24
4.853 -14.277 -1.374 0.31
4.902 -14.275 -1.375 0.32
4.927 -14.275 -1.376 0.36
4.906 -14.069 -1.355 0.29
4.968 -14.105 -1.361 0.27
5.059 -14.222 -1.375 0.31
5.1 -14.195 -1.374 0.32
5.148 -14.188 -1.375 0.32
5.191 -14.168 -1.375 0.3
5.213 -14.16 -1.375 0.32
5.251 -14.125 -1.373 0.32
5.296 -14.11 -1.373 0.32
5.343 -14.101 -1.374 0.32
5.382 -14.069 -1.372 0.33
5.429 -14.06 -1.373 0.36
5.436 -13.948 -1.362 0.28
5.514 -14.018 -1.372 0.31
5.5 -13.917 -1.362 0.3
5.58 -13.992 -1.372 0.36
5.589 -13.887 -1.362 0.3
5.67 -13.962 -1.373 0.32
5.712 -13.938 -1.372 0.32
5.755 -13.92 -1.372 0.33
5.8 -13.906 -1.372 0.34
5.812 -13.871 -1.37 0.34
5.864 -13.873 -1.372 0.33
5.84 -13.695 -1.354 0.29
5.914 -13.75 -1.362 0.24
5.903 -13.607 -1.348 0.23
5.913 -13.512 -1.339 0.58
6.074 -13.765 -1.37 0.27
5.978 -13.488 -1.34 0.25
6.047 -13.529 -1.346 0.34
6.076 -13.481 -1.343 0.37
6.167 -13.568 -1.355 0.46
6.23 -13.592 -1.36 0.34
6.285 -13.6 -1.363 0.27
6.317 -13.558 -1.361 0.5
6.361 -13.597 -1.367 0.27
6.407 -13.584 -1.367 0.5
6.443 -13.55 -1.366 0.26
6.489 -13.537 -1.367 0.44
6.536 -13.525 -1.368 0.4
6.566 -13.479 -1.365 0.39
6.631 -13.505 -1.37 0.43
6.655 -13.5 -1.371 0.47
6.7 -13.484 -1.371 0.3
6.743 -13.465 -1.372 0.44
6.787 -13.446 -1.372 0.47
6.865 -13.495 -1.38 0.32
6.893 -13.445 -1.377 0.59
6.959 -13.471 -1.382 0.34
6.988 -13.474 -1.384 0.54
7.045 -13.481 -1.387 0.34
7.085 -13.455 -1.387 0.49
7.112 -13.403 -1.383 0.34
7.147 -13.368 -1.382 0.5
7.206 -13.377 -1.386 0.38
7.266 -13.388 -1.39 0.45
