# .PCD v.7 - Point Cloud Data file format
VERSION .7
FIELDS x y z intensity
SIZE 4 4 4 4
TYPE F F F F
COUNT 1 1 1 1
WIDTH 1898
HEIGHT 1
VIEWPOINT 0 0 0 1 0 0 0
POINTS 1898
DATA ascii
-15.731 -4.094 -2.103 0.39
-15.611 -4.116 -2.087 0.26
-15.598 -4.165 -2.087 0.27
-15.546 -4.203 -2.082 0.25
-15.508 -4.245 -2.078 0.11
-15.5 -4.269 -2.078 0.15
-15.45 -4.308 -2.072 0.11
-15.438 -4.357 -2.073 0.16
-15.441 -4.41 -2.075 0.27
-15.407 -4.453 -2.072 0.19
-15.242 -4.457 -2.05 0.1
-15.152 -4.483 -2.039 0.15
-15.012 -4.467 -2.019 0.12
-14.835 -4.466 -1.995 0.16
-14.652 -4.461 -1.97 0.29
-14.413 -4.438 -1.937 0.0
-14.187 -4.418 -1.905 0.0
-14.069 -4.43 -1.89 0.0
-15.12 -4.811 -2.048 0.11
-15.142 -4.871 -2.054 0.24
-15.084 -4.878 -2.046 0.22
-15.008 -4.906 -2.037 0.2
-14.996 -4.954 -2.038 0.21
-14.945 -4.989 -2.032 0.21
-14.916 -5.032 -2.03 0.27
-14.831 -5.055 -2.02 0.15
-14.699 -5.062 -2.003 0.44
-14.667 -5.077 -1.999 0.25
-14.583 -5.099 -1.989 0.23
-14.517 -5.127 -1.981 0.2
-14.458 -5.158 -1.975 0.18
-14.458 -5.209 -1.977 0.41
-14.363 -5.226 -1.966 0.22
-14.395 -5.289 -1.973 0.25
-14.359 -5.301 -1.969 0.15
-14.383 -5.362 -1.975 0.43
-14.242 -5.36 -1.956 0.22
-14.405 -5.473 -1.983 0.17
-14.426 -5.533 -1.989 0.29
-14.455 -5.596 -1.996 0.21
-14.395 -5.625 -1.99 0.12
-14.412 -5.658 -1.994 0.48
-14.352 -5.686 -1.987 0.24
-14.418 -5.765 -2.0 0.14
-14.47 -5.838 -2.011 0.45
-14.393 -5.86 -2.002 0.21
-14.415 -5.921 -2.008 0.27
-14.37 -5.956 -2.004 0.23
-14.247 -5.958 -1.988 0.24
-14.055 -5.904 -1.96 0.14
-13.867 -5.876 -1.934 0.37
-13.894 -5.939 -1.941 0.27
-13.844 -5.97 -1.936 0.18
-13.72 -5.968 -1.92 0.18
-13.603 -5.968 -1.905 0.17
-13.481 -5.965 -1.889 0.17
-13.365 -5.939 -1.872 0.16
-13.194 -5.913 -1.849 0.1
-13.073 -5.908 -1.833 0.0
-12.968 -5.91 -1.819 0.0
-12.87 -5.915 -1.807 0.0
-14.245 -6.598 -2.024 0.1
-14.14 -6.603 -2.011 0.28
-14.23 -6.672 -2.027 0.22
-14.23 -6.727 -2.03 0.41
-14.132 -6.735 -2.018 0.23
-14.109 -6.779 -2.018 0.26
-14.068 -6.814 -2.015 0.47
-14.095 -6.881 -2.022 0.22
-14.039 -6.909 -2.017 0.27
-14.012 -6.923 -2.014 0.19
-13.935 -6.94 -2.006 0.29
-13.979 -7.016 -2.016 0.51
-13.913 -7.038 -2.009 0.23
-13.921 -7.097 -2.014 0.16
-13.888 -7.135 -2.012 0.46
-13.842 -7.167 -2.008 0.18
-13.663 -7.129 -1.983 0.27
-13.749 -7.201 -1.999 0.19
-13.742 -7.252 -2.001 0.15
-13.684 -7.277 -1.996 0.44
-13.689 -7.335 -2.0 0.23
-13.713 -7.403 -2.008 0.23
-13.671 -7.436 -2.005 0.36
-13.532 -7.416 -1.986 0.19
-13.474 -7.411 -1.979 0.18
-13.397 -7.424 -1.97 0.16
-13.328 -7.441 -1.963 0.31
-13.179 -7.412 -1.942 0.21
-13.135 -7.442 -1.939 0.19
-13.048 -7.447 -1.929 0.22
-12.943 -7.442 -1.915 0.19
-12.851 -7.443 -1.904 0.23
-12.778 -7.427 -1.894 0.18
-12.674 -7.42 -1.881 0.31
-12.562 -7.408 -1.866 0.21
-12.45 -7.395 -1.852 0.2
-12.337 -7.38 -1.837 0.0
-12.252 -7.382 -1.827 0.0
-12.175 -7.388 -1.818 0.0
-12.111 -7.375 -1.809 0.0
-13.071 -8.071 -1.976 0.3
-13.061 -8.121 -1.979 0.37
-13.028 -8.158 -1.978 0.29
-12.949 -8.165 -1.969 0.29
-12.915 -8.201 -1.968 0.3
-12.843 -8.184 -1.958 0.24
-12.658 -8.122 -1.931 0.3
-12.642 -8.168 -1.932 0.27
-12.56 -8.171 -1.923 0.27
-12.469 -8.168 -1.912 0.27
-12.391 -8.172 -1.903 0.16
-12.304 -8.171 -1.893 0.42
-12.233 -8.152 -1.883 0.25
-12.161 -8.159 -1.875 0.24
-12.077 -8.158 -1.865 0.29
-11.997 -8.159 -1.856 0.28
-11.911 -8.155 -1.845 0.29
-11.836 -8.159 -1.837 0.27
-11.756 -8.159 -1.828 0.28
-11.679 -8.16 -1.819 0.31
-11.604 -8.135 -1.808 0.25
-11.54 -8.144 -1.801 0.34
-11.475 -8.153 -1.795 0.31
-11.442 -8.183 -1.793 0.29
-11.459 -8.25 -1.801 0.29
-11.597 -8.404 -1.829 0.3
-11.609 -8.469 -1.836 0.3
-11.591 -8.483 -1.835 0.37
-11.489 -8.465 -1.822 0.3
-11.456 -8.496 -1.821 0.31
-11.412 -8.519 -1.818 0.28
-11.361 -8.537 -1.814 0.35
-11.327 -8.567 -1.812 0.3
-11.281 -8.588 -1.809 0.35
-11.236 -8.582 -1.803 0.32
-11.201 -8.611 -1.802 0.25
-11.1 -8.589 -1.789 0.36
-11.076 -8.626 -1.789 0.4
-11.043 -8.656 -1.788 0.34
-10.944 -8.635 -1.775 0.34
-10.924 -8.675 -1.777 0.3
-10.886 -8.701 -1.775 0.29
-10.865 -8.712 -1.773 0.38
-10.743 -8.67 -1.756 0.34
-10.733 -8.718 -1.759 0.29
-10.692 -8.74 -1.757 0.34
-10.629 -8.745 -1.75 0.34
-10.543 -8.73 -1.74 0.31
-10.447 -8.706 -1.727 0.45
-10.427 -8.718 -1.726 0.33
-10.446 -8.788 -1.734 0.28
-10.403 -8.809 -1.731 0.46
-10.374 -8.84 -1.731 0.32
-10.37 -8.893 -1.736 0.35
-10.339 -8.923 -1.735 0.33
-10.321 -8.964 -1.737 0.32
-10.295 -8.97 -1.735 0.39
-10.276 -9.01 -1.737 0.3
-10.131 -8.941 -1.715 0.34
-10.044 -8.92 -1.703 0.32
-10.105 -9.03 -1.72 0.3
-10.078 -9.063 -1.721 0.41
-10.039 -9.086 -1.719 0.37
-9.962 -9.044 -1.707 0.3
-9.921 -9.065 -1.704 0.39
-9.934 -9.134 -1.712 0.29
-9.861 -9.125 -1.704 0.36
-9.818 -9.142 -1.701 0.35
-9.756 -9.142 -1.694 0.34
-9.755 -9.198 -1.7 0.33
-9.714 -9.189 -1.695 0.39
-9.613 -9.151 -1.681 0.27
-9.626 -9.221 -1.689 0.39
-9.567 -9.222 -1.683 0.36
-9.564 -9.277 -1.688 0.29
-9.559 -9.331 -1.693 0.44
-9.549 -9.38 -1.697 0.31
-9.397 -9.289 -1.672 0.36
-9.388 -9.309 -1.673 0.34
-9.392 -9.372 -1.68 0.29
-9.319 -9.358 -1.671 0.38
-9.317 -9.414 -1.677 0.29
-9.291 -9.448 -1.678 0.48
-9.189 -9.403 -1.663 0.26
-9.205 -9.479 -1.672 0.3
-9.159 -9.461 -1.666 0.41
-9.09 -9.45 -1.658 0.3
-9.055 -9.473 -1.657 0.33
-9.085 -9.564 -1.669 0.29
-8.986 -9.519 -1.655 0.43
-8.976 -9.569 -1.659 0.3
-8.893 -9.541 -1.648 0.37
-8.942 -9.653 -1.664 0.28
-8.855 -9.59 -1.65 0.38
-8.828 -9.62 -1.65 0.4
-8.765 -9.613 -1.643 0.28
-8.808 -9.721 -1.659 0.27
-8.8 -9.774 -1.664 0.46
-7.977 -8.919 -1.496 0.27
-7.913 -8.904 -1.488 0.31
-7.883 -8.899 -1.485 0.25
-7.853 -8.921 -1.484 0.36
-7.833 -8.954 -1.486 0.43
-7.79 -8.962 -1.483 0.32
-7.755 -8.979 -1.481 0.27
-7.728 -9.005 -1.482 0.46
-7.652 -8.974 -1.471 0.26
-7.633 -8.98 -1.47 0.36
-7.602 -9.0 -1.47 0.31
-7.591 -9.044 -1.473 0.34
-7.585 -9.095 -1.478 0.33
-7.568 -9.133 -1.481 0.3
-7.548 -9.167 -1.483 0.23
-7.538 -9.214 -1.487 0.45
-7.87 -9.648 -1.564 0.23
-8.045 -9.925 -1.61 0.28
-8.032 -9.973 -1.615 0.31
-7.831 -9.787 -1.576 0.25
-7.923 -9.966 -1.604 0.36
-7.913 -10.017 -1.609 0.41
-7.875 -10.034 -1.608 0.29
-7.84 -10.054 -1.607 0.38
-7.745 -9.965 -1.588 0.3
-7.822 -10.129 -1.613 0.24
-7.825 -10.199 -1.622 0.49
-7.687 -10.085 -1.597 0.28
-7.537 -9.953 -1.569 0.29
-7.563 -10.052 -1.583 0.34
-7.507 -10.045 -1.577 0.34
-7.51 -10.082 -1.581 0.44
-7.494 -10.126 -1.585 0.37
-7.463 -10.151 -1.585 0.34
-7.326 -10.031 -1.56 0.23
-7.416 -10.22 -1.589 0.38
-7.328 -10.166 -1.576 0.35
-7.373 -10.297 -1.595 0.34
-7.369 -10.325 -1.597 0.37
-7.31 -10.311 -1.591 0.31
-7.253 -10.3 -1.585 0.35
-7.193 -10.282 -1.578 0.39
-7.177 -10.329 -1.582 0.31
-7.167 -10.384 -1.588 0.36
-7.098 -10.352 -1.579 0.34
-7.032 -10.292 -1.566 0.36
-7.04 -10.373 -1.576 0.38
-6.964 -10.331 -1.565 0.37
-6.949 -10.379 -1.57 0.24
-6.956 -10.46 -1.58 0.3
-6.94 -10.507 -1.584 0.43
-6.877 -10.484 -1.577 0.19
-6.888 -10.536 -1.584 0.42
-6.641 -10.229 -1.528 0.27
-6.746 -10.463 -1.564 0.29
-6.68 -10.432 -1.555 0.38
-6.642 -10.445 -1.554 0.31
-6.606 -10.46 -1.553 0.29
-6.623 -10.56 -1.566 0.34
-6.505 -10.409 -1.539 0.27
-6.489 -10.457 -1.544 0.36
-6.448 -10.463 -1.542 0.33
-6.339 -10.36 -1.521 0.31
-6.369 -10.483 -1.538 0.27
-6.316 -10.47 -1.533 0.42
-6.159 -10.284 -1.499 0.21
-6.257 -10.521 -1.535 0.31
-6.246 -10.539 -1.536 0.36
-6.092 -10.354 -1.502 0.34
-6.227 -10.66 -1.55 0.31
-6.183 -10.661 -1.546 0.23
-6.128 -10.643 -1.54 0.54
-6.116 -10.7 -1.546 0.3
-6.07 -10.698 -1.543 0.34
-5.917 -10.467 -1.504 0.37
-5.968 -10.635 -1.528 0.26
-5.969 -10.714 -1.538 0.29
-5.935 -10.733 -1.538 0.41
-5.925 -10.795 -1.545 0.25
-5.873 -10.781 -1.54 0.4
-5.841 -10.802 -1.54 0.29
-5.813 -10.791 -1.537 0.41
-5.777 -10.805 -1.536 0.32
-5.672 -10.691 -1.515 0.28
-5.661 -10.75 -1.522 0.32
-5.592 -10.702 -1.511 0.32
-5.644 -10.882 -1.537 0.33
-5.612 -10.905 -1.538 0.32
-5.403 -10.583 -1.484 0.36
-5.523 -10.858 -1.526 0.27
-5.479 -10.856 -1.523 0.39
-5.45 -10.883 -1.525 0.33
-5.414 -10.897 -1.524 0.29
-5.346 -10.845 -1.513 0.31
-5.366 -10.971 -1.531 0.28
-5.336 -10.997 -1.532 0.29
-5.27 -10.906 -1.516 0.38
-5.211 -10.871 -1.508 0.37
-5.243 -11.026 -1.53 0.31
-5.13 -10.878 -1.504 0.24
-5.171 -11.054 -1.529 0.38
-5.135 -11.066 -1.529 0.28
-5.071 -11.019 -1.519 0.35
-5.047 -11.013 -1.517 0.27
-4.991 -10.982 -1.509 0.3
-4.997 -11.088 -1.523 0.36
-4.858 -10.87 -1.487 0.24
-4.963 -11.198 -1.536 0.3
-4.936 -11.232 -1.539 0.34
-4.833 -11.093 -1.515 0.27
-4.842 -11.163 -1.524 0.32
-4.788 -11.132 -1.517 0.41
-4.737 -11.111 -1.512 0.34
-4.69 -11.098 -1.507 0.32
-4.678 -11.166 -1.516 0.33
-4.607 -11.095 -1.502 0.23
-4.603 -11.184 -1.514 0.39
-4.491 -11.012 -1.485 0.32
-4.568 -11.25 -1.521 0.29
-4.522 -11.238 -1.517 0.27
-4.467 -11.203 -1.509 0.39
-4.399 -11.134 -1.497 0.25
-4.405 -11.251 -1.512 0.36
-4.34 -11.189 -1.501 0.3
-4.29 -11.166 -1.495 0.36
-4.278 -11.187 -1.497 0.3
-4.274 -11.28 -1.509 0.28
-4.229 -11.27 -1.506 0.41
-4.115 -11.071 -1.474 0.19
-4.193 -11.389 -1.52 0.36
-3.978 -10.915 -1.446 0.36
-4.114 -11.394 -1.517 0.25
-4.127 -11.488 -1.53 0.34
-4.099 -11.522 -1.533 0.33
-4.044 -11.484 -1.525 0.36
-3.955 -11.346 -1.503 0.26
-3.936 -11.405 -1.51 0.35
-3.935 -11.518 -1.525 0.31
-3.793 -11.221 -1.479 0.36
-3.801 -11.302 -1.49 0.23
-3.742 -11.245 -1.479 0.42
-3.763 -11.425 -1.505 0.33
-3.721 -11.418 -1.502 0.32
-3.707 -11.498 -1.512 0.26
-3.619 -11.347 -1.488 0.39
-3.613 -11.453 -1.502 0.25
-3.598 -11.468 -1.503 0.39
-3.55 -11.44 -1.497 0.28
-3.517 -11.46 -1.499 0.38
-3.477 -11.46 -1.497 0.27
-3.445 -11.484 -1.499 0.39
-3.402 -11.47 -1.495 0.2
-3.378 -11.522 -1.502 0.46
-3.358 -11.588 -1.51 0.24
-3.333 -11.57 -1.506 0.28
-3.324 -11.678 -1.521 0.35
-3.248 -11.549 -1.5 0.32
-3.198 -11.508 -1.493 0.25
-3.164 -11.527 -1.494 0.44
-3.091 -11.404 -1.474 0.26
-3.102 -11.587 -1.5 0.32
-3.083 -11.586 -1.499 0.38
-3.045 -11.59 -1.498 0.3
-2.999 -11.563 -1.493 0.38
-2.954 -11.54 -1.488 0.21
-2.93 -11.597 -1.495 0.33
-2.881 -11.559 -1.488 0.3
-2.845 -11.568 -1.488 0.43
-2.804 -11.48 -1.475 0.34
-2.778 -11.531 -1.481 0.22
-2.759 -11.611 -1.491 0.29
-2.73 -11.65 -1.496 0.42
-2.663 -11.529 -1.477 0.26
-2.64 -11.596 -1.485 0.38
-2.64 -11.762 -1.508 0.28
-2.576 -11.564 -1.479 0.32
-2.556 -11.647 -1.49 0.38
-2.454 -11.357 -1.447 0.25
-2.484 -11.669 -1.491 0.37
-2.444 -11.661 -1.488 0.31
-2.393 -11.599 -1.478 0.3
-2.356 -11.602 -1.478 0.3
-2.336 -11.691 -1.49 0.27
-2.315 -11.683 -1.488 0.44
-2.206 -11.321 -1.435 0.24
-2.235 -11.664 -1.483 0.35
-1.971 -10.479 -1.311 0.14
-2.193 -11.844 -1.507 0.45
-2.153 -11.835 -1.505 0.24
-2.07 -11.59 -1.468 0.31
-2.042 -11.539 -1.461 0.33
-2.027 -11.664 -1.478 0.23
-1.968 -11.54 -1.459 0.38
-1.936 -11.571 -1.463 0.25
-1.835 -11.192 -1.407 0.38
-1.873 -11.648 -1.472 0.29
-1.816 -11.524 -1.453 0.25
-1.822 -11.678 -1.475 0.39
-1.774 -11.613 -1.465 0.31
-1.743 -11.654 -1.47 0.28
-1.722 -11.761 -1.484 0.28
-1.658 -11.584 -1.458 0.38
-1.582 -11.309 -1.418 0.29
-1.58 -11.553 -1.453 0.3
-1.553 -11.493 -1.444 0.3
-1.528 -11.578 -1.455 0.38
-1.492 -11.591 -1.456 0.33
-1.459 -11.621 -1.46 0.39
-1.403 -11.47 -1.438 0.24
-1.385 -11.62 -1.458 0.38
-1.348 -11.624 -1.458 0.28
-1.33 -11.625 -1.458 0.47
-1.286 -11.564 -1.449 0.21
-1.26 -11.662 -1.462 0.38
-1.221 -11.648 -1.46 0.21
-1.186 -11.664 -1.461 0.48
-1.137 -11.549 -1.445 0.22
-1.111 -11.655 -1.459 0.39
-1.062 -11.531 -1.441 0.23
-1.046 -11.552 -1.444 0.25
-1.02 -11.672 -1.46 0.4
-0.986 -11.697 -1.463 0.25
-0.945 -11.652 -1.457 0.43
-0.918 -11.776 -1.474 0.29
-0.886 -11.847 -1.484 0.39
-0.825 -11.528 -1.438 0.29
-0.822 -11.741 -1.468 0.17
-0.77 -11.522 -1.437 0.51
-0.735 -11.534 -1.438 0.25
-0.699 -11.539 -1.438 0.32
-0.666 -11.596 -1.446 0.41
-0.631 -11.634 -1.451 0.31
-0.59 -11.555 -1.44 0.32
-0.564 -11.389 -1.416 0.2
-0.537 -11.577 -1.442 0.43
-0.495 -11.464 -1.426 0.34
-0.464 -11.584 -1.443 0.25
-0.433 -11.72 -1.462 0.32
-0.397 -11.733 -1.464 0.37
-0.359 -11.703 -1.459 0.33
-0.339 -11.664 -1.454 0.29
-0.302 -11.661 -1.453 0.33
-0.258 -11.355 -1.41 0.39
-0.23 -11.7 -1.458 0.33
-0.191 -11.56 -1.438 0.3
-0.154 -11.537 -1.435 0.3
-0.117 -11.504 -1.43 0.47
-0.099 -11.492 -1.429 0.21
-0.063 -11.516 -1.432 0.42
-0.026 -11.407 -1.417 0.33
0.01 -11.296 -1.401 0.18
0.046 -11.613 -1.446 0.34
0.081 -11.476 -1.426 0.27
0.119 -11.626 -1.448 0.34
0.138 -11.729 -1.462 0.27
0.174 -11.679 -1.455 0.31
0.21 -11.625 -1.448 0.32
0.247 -11.644 -1.451 0.31
0.284 -11.665 -1.454 0.41
0.319 -11.595 -1.444 0.34
0.352 -11.485 -1.428 0.23
0.377 -11.694 -1.458 0.23
0.413 -11.679 -1.456 0.39
0.447 -11.599 -1.445 0.29
0.483 -11.599 -1.445 0.4
0.519 -11.578 -1.442 0.32
0.555 -11.58 -1.443 0.31
0.596 -11.675 -1.457 0.21
0.625 -11.527 -1.436 0.42
0.645 -11.552 -1.44 0.3
0.681 -11.542 -1.438 0.42
0.664 -10.656 -1.313 0.25
0.757 -11.602 -1.448 0.28
0.791 -11.551 -1.441 0.36
0.829 -11.574 -1.444 0.34
0.868 -11.613 -1.45 0.3
0.881 -11.546 -1.441 0.38
0.916 -11.521 -1.438 0.34
0.956 -11.562 -1.444 0.34
0.991 -11.549 -1.443 0.27
0.959 -10.755 -1.33 0.39
1.059 -11.485 -1.435 0.27
1.097 -11.508 -1.438 0.32
1.114 -11.498 -1.437 0.46
1.16 -11.591 -1.451 0.21
1.195 -11.575 -1.449 0.36
1.24 -11.652 -1.461 0.34
1.261 -11.503 -1.44 0.26
1.293 -11.459 -1.434 0.3
1.334 -11.506 -1.442 0.32
1.365 -11.609 -1.456 0.32
1.402 -11.608 -1.457 0.29
1.442 -11.637 -1.462 0.35
1.463 -11.511 -1.444 0.28
1.502 -11.528 -1.447 0.35
1.533 -11.478 -1.441 0.31
1.568 -11.469 -1.44 0.32
1.603 -11.456 -1.439 0.3
1.625 -11.483 -1.444 0.36
1.597 -11.025 -1.379 0.35
1.694 -11.449 -1.44 0.25
1.728 -11.432 -1.438 0.32
1.757 -11.383 -1.432 0.34
1.805 -11.456 -1.444 0.35
1.851 -11.509 -1.452 0.27
1.863 -11.473 -1.447 0.42
1.89 -11.408 -1.439 0.32
1.91 -11.309 -1.425 0.24
1.963 -11.408 -1.44 0.34
2.005 -11.433 -1.445 0.31
2.01 -11.255 -1.42 0.24
2.078 -11.43 -1.446 0.42
2.071 -11.29 -1.427 0.29
2.132 -11.422 -1.447 0.27
2.164 -11.39 -1.443 0.4
2.204 -11.41 -1.447 0.35
2.237 -11.384 -1.444 0.31
2.259 -11.311 -1.435 0.39
2.292 -11.29 -1.433 0.25
2.325 -11.362 -1.444 0.36
2.36 -11.353 -1.443 0.28
2.399 -11.359 -1.445 0.38
2.437 -11.361 -1.447 0.3
2.476 -11.371 -1.449 0.3
2.506 -11.336 -1.445 0.44
2.46 -10.96 -1.392 0.25
2.582 -11.343 -1.449 0.34
2.591 -11.3 -1.443 0.26
2.63 -11.305 -1.445 0.37
2.672 -11.324 -1.449 0.29
2.688 -11.233 -1.437 0.37
2.72 -11.213 -1.435 0.33
2.756 -11.206 -1.435 0.25
2.782 -11.236 -1.44 0.39
2.821 -11.241 -1.442 0.28
2.863 -11.261 -1.447 0.46
2.848 -11.054 -1.418 0.21
2.919 -11.187 -1.438 0.36
2.945 -11.143 -1.433 0.38
2.962 -11.063 -1.423 0.23
3.018 -11.204 -1.444 0.37
3.015 -11.053 -1.424 0.21
3.075 -11.135 -1.437 0.44
3.07 -10.982 -1.416 0.27
3.085 -10.902 -1.406 0.27
3.187 -11.132 -1.441 0.36
3.065 -10.574 -1.36 0.34
3.168 -10.806 -1.396 0.3
3.214 -10.902 -1.411 0.26
3.282 -11.004 -1.427 0.31
3.277 -10.862 -1.408 0.24
3.303 -10.825 -1.404 0.3
3.355 -10.872 -1.412 0.35
3.385 -10.848 -1.41 0.3
3.42 -10.841 -1.411 0.35
3.425 -10.798 -1.405 0.24
3.505 -10.932 -1.427 0.33
3.489 -10.765 -1.404 0.29
3.578 -10.923 -1.429 0.37
3.58 -10.812 -1.414 0.3
3.559 -10.636 -1.389 0.27
3.688 -10.91 -1.432 0.31
3.707 -10.91 -1.433 0.31
3.731 -10.868 -1.428 0.28
3.775 -10.886 -1.433 0.38
3.808 -10.87 -1.432 0.25
3.792 -10.716 -1.411 0.35
3.841 -10.746 -1.417 0.32
3.889 -10.774 -1.423 0.35
3.927 -10.828 -1.432 0.29
3.934 -10.739 -1.421 0.32
3.971 -10.736 -1.422 0.28
4.001 -10.714 -1.421 0.37
4.032 -10.694 -1.42 0.34
4.068 -10.687 -1.421 0.31
4.048 -10.536 -1.4 0.31
4.113 -10.655 -1.419 0.36
4.104 -10.531 -1.402 0.24
4.181 -10.631 -1.419 0.27
4.133 -10.411 -1.387 0.34
4.173 -10.417 -1.39 0.37
4.305 -10.651 -1.428 0.34
4.316 -10.583 -1.42 0.23
4.333 -10.531 -1.414 0.4
4.341 -10.502 -1.41 0.26
4.41 -10.574 -1.424 0.3
4.428 -10.526 -1.418 0.39
4.492 -10.585 -1.43 0.25
4.503 -10.518 -1.421 0.41
4.56 -10.56 -1.43 0.34
4.597 -10.555 -1.431 0.3
4.622 -10.567 -1.435 0.39
4.602 -10.431 -1.416 0.25
4.676 -10.509 -1.43 0.29
4.714 -10.505 -1.432 0.42
4.717 -10.425 -1.422 0.22
4.769 -10.452 -1.428 0.41
4.822 -10.482 -1.435 0.29
4.822 -10.438 -1.43 0.37
4.858 -10.43 -1.431 0.28
4.892 -10.417 -1.431 0.36
4.933 -10.419 -1.434 0.34
4.71 -9.865 -1.349 0.3
5.016 -10.424 -1.439 0.29
5.035 -10.381 -1.435 0.3
5.045 -10.359 -1.433 0.43
5.028 -10.242 -1.417 0.3
5.039 -10.183 -1.41 0.2
5.163 -10.354 -1.44 0.4
5.241 -10.428 -1.454 0.28
5.257 -10.378 -1.449 0.32
5.285 -10.352 -1.447 0.29
5.309 -10.36 -1.45 0.39
5.335 -10.331 -1.448 0.32
5.357 -10.293 -1.444 0.3
5.389 -10.276 -1.444 0.25
5.434 -10.283 -1.448 0.41
5.449 -10.233 -1.443 0.29
5.508 -10.267 -1.451 0.32
5.532 -10.272 -1.453 0.32
5.544 -10.218 -1.447 0.27
5.547 -10.146 -1.439 0.36
5.579 -10.129 -1.439 0.3
5.627 -10.141 -1.444 0.34
5.611 -10.037 -1.43 0.32
5.654 -10.04 -1.433 0.35
5.667 -10.026 -1.432 0.25
5.718 -10.042 -1.438 0.37
5.735 -10.0 -1.434 0.32
5.791 -10.023 -1.44 0.31
5.83 -10.019 -1.443 0.28
5.818 -9.927 -1.431 0.39
5.808 -9.837 -1.419 0.34
5.882 -9.928 -1.435 0.21
5.933 -9.942 -1.441 0.39
5.957 -9.911 -1.439 0.32
5.979 -9.877 -1.436 0.3
6.039 -9.908 -1.444 0.32
5.994 -9.764 -1.424 0.33
6.013 -9.726 -1.421 0.33
6.038 -9.697 -1.419 0.33
6.097 -9.758 -1.431 0.32
6.117 -9.722 -1.428 0.32
6.148 -9.705 -1.428 0.3
6.208 -9.73 -1.436 0.3
6.238 -9.711 -1.436 0.36
6.274 -9.7 -1.437 0.34
6.295 -9.665 -1.435 0.35
6.315 -9.663 -1.436 0.32
6.326 -9.614 -1.431 0.3
6.39 -9.645 -1.44 0.23
6.368 -9.546 -1.426 0.39
6.424 -9.565 -1.433 0.37
6.425 -9.502 -1.426 0.3
6.419 -9.428 -1.416 0.31
6.485 -9.493 -1.429 0.31
6.534 -9.502 -1.434 0.29
6.519 -9.416 -1.423 0.36
6.612 -9.487 -1.439 0.34
6.645 -9.471 -1.44 0.35
6.64 -9.4 -1.431 0.32
6.716 -9.445 -1.442 0.26
6.664 -9.341 -1.426 0.37
6.743 -9.389 -1.438 0.36
6.781 -9.379 -1.44 0.28
6.801 -9.345 -1.438 0.32
6.852 -9.354 -1.443 0.23
6.911 -9.372 -1.45 0.43
6.918 -9.32 -1.445 0.3
6.92 -9.262 -1.438 0.31
6.949 -9.27 -1.442 0.22
6.974 -9.244 -1.441 0.38
7.012 -9.233 -1.443 0.35
7.072 -9.252 -1.45 0.31
7.106 -9.236 -1.451 0.39
7.128 -9.204 -1.45 0.29
7.13 -9.147 -1.444 0.3
7.16 -9.156 -1.447 0.37
7.194 -9.14 -1.448 0.34
7.221 -9.116 -1.448 0.27
7.255 -9.099 -1.449 0.35
7.244 -9.027 -1.44 0.32
7.325 -9.07 -1.452 0.27
7.336 -9.026 -1.448 0.38
7.335 -8.996 -1.445 0.34
7.407 -9.026 -1.455 0.34
7.423 -8.988 -1.452 0.34
7.454 -8.967 -1.453 0.35
7.483 -8.945 -1.453 0.34
7.527 -8.94 -1.456 0.33
7.569 -8.933 -1.459 0.3
7.602 -8.944 -1.463 0.37
7.633 -8.923 -1.464 0.34
7.666 -8.905 -1.465 0.23
7.694 -8.881 -1.465 0.45
7.733 -8.87 -1.468 0.3
7.745 -8.828 -1.464 0.34
7.799 -8.833 -1.47 0.35
7.825 -8.834 -1.472 0.29
7.879 -8.839 -1.478 0.36
7.934 -8.845 -1.484 0.29
7.967 -8.826 -1.485 0.27
7.994 -8.8 -1.485 0.3
8.008 -8.76 -1.482 0.32
8.029 -8.727 -1.481 0.36
8.055 -8.728 -1.483 0.32
8.102 -8.724 -1.487 0.32
8.138 -8.708 -1.489 0.29
8.155 -8.672 -1.487 0.37
8.199 -8.664 -1.49 0.32
8.217 -8.628 -1.488 0.31
8.256 -8.615 -1.491 0.32
8.277 -8.583 -1.49 0.39
8.313 -8.593 -1.494 0.36
8.356 -8.584 -1.498 0.26
8.394 -8.569 -1.5 0.34
8.438 -8.559 -1.503 0.39
8.463 -8.531 -1.503 0.27
8.496 -8.51 -1.504 0.42
8.561 -8.549 -1.514 0.29
8.599 -8.533 -1.517 0.31
8.617 -8.498 -1.515 0.3
8.654 -8.48 -1.517 0.28
8.68 -8.453 -1.517 0.29
8.701 -8.42 -1.516 0.27
8.735 -8.4 -1.517 0.28
8.757 -8.368 -1.516 0.28
8.768 -8.353 -1.516 0.29
8.75 -8.283 -1.507 0.3
8.762 -8.242 -1.505 0.25
8.793 -8.22 -1.506 0.29
8.663 -8.046 -1.475 0.16
8.671 -8.003 -1.472 0.45
8.7 -7.98 -1.473 0.24
8.742 -7.993 -1.479 0.25
8.795 -7.991 -1.484 0.2
8.846 -7.987 -1.489 0.4
8.899 -7.984 -1.494 0.23
8.976 -8.003 -1.504 0.23
9.019 -7.99 -1.507 0.24
9.075 -7.989 -1.513 0.21
9.121 -8.005 -1.52 0.2
9.169 -7.996 -1.524 0.37
9.23 -7.998 -1.531 0.22
9.292 -8.002 -1.538 0.2
9.348 -7.998 -1.543 0.37
9.407 -7.998 -1.55 0.24
9.469 -8.0 -1.557 0.19
9.516 -8.014 -1.563 0.4
9.58 -8.017 -1.57 0.23
9.641 -8.016 -1.577 0.27
9.689 -8.005 -1.581 0.27
9.678 -7.946 -1.574 0.3
9.706 -7.918 -1.575 0.34
9.75 -7.902 -1.578 0.28
9.747 -7.874 -1.576 0.19
9.812 -7.876 -1.583 0.45
9.838 -7.846 -1.583 0.22
9.824 -7.785 -1.576 0.0
9.893 -7.789 -1.584 0.0
9.242 -7.227 -1.463 0.0
9.277 -7.208 -1.465 0.0
9.321 -7.219 -1.471 0.1
9.373 -7.213 -1.476 0.21
9.427 -7.207 -1.482 0.25
9.494 -7.211 -1.49 0.26
9.569 -7.221 -1.499 0.25
9.631 -7.22 -1.506 0.11
9.714 -7.235 -1.516 0.16
9.771 -7.231 -1.523 0.11
9.824 -7.246 -1.53 0.16
9.887 -7.244 -1.537 0.12
9.951 -7.244 -1.544 0.17
10.027 -7.251 -1.553 0.28
10.089 -7.248 -1.56 0.18
10.148 -7.242 -1.567 0.18
10.095 -7.156 -1.553 0.18
10.219 -7.22 -1.573 0.17
10.288 -7.221 -1.581 0.1
10.348 -7.215 -1.588 0.14
10.407 -7.207 -1.594 0.23
10.418 -7.167 -1.592 0.17
10.504 -7.178 -1.603 0.18
10.504 -7.129 -1.599 0.23
10.528 -7.121 -1.601 0.18
10.58 -7.108 -1.606 0.18
10.566 -7.051 -1.6 0.18
10.652 -7.06 -1.611 0.18
10.684 -7.033 -1.613 0.12
10.617 -6.941 -1.597 0.17
10.707 -6.952 -1.609 0.29
10.711 -6.931 -1.608 0.19
10.708 -6.881 -1.604 0.15
10.676 -6.813 -1.595 0.27
10.757 -6.818 -1.605 0.18
10.702 -6.735 -1.592 0.18
10.772 -6.732 -1.6 0.31
10.809 -6.709 -1.603 0.24
10.817 -6.69 -1.602 0.24
10.836 -6.655 -1.602 0.25
10.822 -6.553 -1.593 0.18
10.886 -6.545 -1.6 0.15
10.908 -6.512 -1.6 0.12
10.902 -6.461 -1.596 0.15
10.893 -6.433 -1.593 0.16
10.929 -6.408 -1.595 0.0
10.923 -6.359 -1.591 0.0
9.919 -5.73 -1.423 0.0
10.007 -5.739 -1.435 0.0
10.063 -5.729 -1.441 0.0
10.115 -5.717 -1.447 0.0
10.181 -5.733 -1.456 0.07
10.291 -5.753 -1.471 0.08
10.374 -5.757 -1.481 0.09
10.455 -5.759 -1.491 0.14
10.523 -5.754 -1.5 0.09
10.611 -5.759 -1.511 0.15
10.679 -5.753 -1.519 0.09
10.76 -5.753 -1.529 0.15
10.82 -5.763 -1.537 0.1
10.826 -5.722 -1.535 0.09
10.807 -5.669 -1.529 0.14
10.933 -5.692 -1.547 0.09
11.074 -5.722 -1.566 0.14
11.168 -5.726 -1.578 0.21
11.235 -5.716 -1.586 0.16
11.191 -5.671 -1.578 0.0
11.2 -5.632 -1.576 0.0
11.267 -5.621 -1.584 0.13
11.302 -5.595 -1.587 0.09
11.318 -5.558 -1.587 0.08
11.36 -5.535 -1.591 0.14
11.362 -5.491 -1.588 0.21
11.34 -5.459 -1.583 0.11
11.339 -5.415 -1.581 0.15
11.362 -5.381 -1.581 0.3
11.208 -5.265 -1.555 0.11
11.288 -5.26 -1.565 0.15
11.34 -5.241 -1.57 0.1
11.365 -5.209 -1.572 0.15
11.339 -5.176 -1.566 0.21
11.325 -5.126 -1.562 0.25
11.363 -5.1 -1.565 0.2
11.382 -5.066 -1.565 0.18
11.411 -5.036 -1.567 0.43
11.486 -5.026 -1.577 0.22
11.529 -5.002 -1.581 0.23
11.534 -4.983 -1.58 0.33
11.64 -4.985 -1.594 0.19
11.636 -4.94 -1.591 0.34
11.626 -4.893 -1.587 0.18
11.723 -4.891 -1.6 0.14
11.74 -4.855 -1.6 0.53
11.84 -4.853 -1.613 0.25
11.846 -4.812 -1.612 0.21
11.848 -4.791 -1.611 0.2
11.912 -4.773 -1.618 0.21
11.931 -4.738 -1.619 0.21
12.054 -4.743 -1.636 0.19
12.04 -4.694 -1.631 0.29
12.045 -4.652 -1.63 0.0
11.109 -4.228 -1.484 0.0
11.207 -4.226 -1.497 0.12
11.328 -4.231 -1.514 0.23
11.508 -4.257 -1.539 0.11
11.631 -4.262 -1.555 0.18
11.736 -4.258 -1.569 0.12
11.837 -4.253 -1.582 0.17
11.933 -4.267 -1.596 0.11
12.002 -4.249 -1.604 0.15
12.07 -4.231 -1.612 0.21
12.176 -4.225 -1.626 0.22
12.182 -4.184 -1.625 0.33
12.184 -4.142 -1.624 0.18
12.182 -4.099 -1.621 0.37
12.201 -4.084 -1.623 0.11
12.242 -4.055 -1.627 0.16
12.249 -4.015 -1.627 0.23
12.275 -3.981 -1.629 0.24
12.325 -3.954 -1.634 0.11
12.332 -3.914 -1.633 0.17
12.352 -3.877 -1.634 0.12
12.424 -3.879 -1.644 0.17
12.493 -3.857 -1.653 0.29
12.509 -3.819 -1.653 0.26
12.562 -3.793 -1.659 0.25
12.513 -3.735 -1.65 0.24
12.563 -3.707 -1.656 0.21
12.575 -3.667 -1.656 0.27
12.561 -3.642 -1.653 0.22
12.523 -3.588 -1.646 0.22
12.557 -3.555 -1.649 0.49
12.568 -3.516 -1.649 0.23
12.537 -3.465 -1.643 0.24
12.613 -3.443 -1.653 0.25
12.612 -3.401 -1.651 0.2
12.615 -3.359 -1.65 0.26
12.611 -3.336 -1.648 0.24
12.597 -3.29 -1.645 0.14
12.511 -3.226 -1.631 0.17
12.446 -3.167 -1.62 0.29
12.506 -3.141 -1.627 0.19
12.495 -3.096 -1.624 0.0
12.449 -3.043 -1.616 0.0
11.388 -2.763 -1.461 0.0
11.429 -2.735 -1.465 0.0
11.671 -2.754 -1.499 0.12
11.899 -2.769 -1.531 0.16
12.081 -2.772 -1.557 0.16
12.194 -2.758 -1.572 0.1
12.247 -2.73 -1.578 0.15
12.217 -2.703 -1.573 0.22
12.266 -2.673 -1.579 0.18
12.272 -2.634 -1.579 0.12
12.304 -2.601 -1.582 0.16
12.43 -2.587 -1.599 0.3
12.419 -2.544 -1.596 0.16
12.481 -2.516 -1.604 0.14
12.446 -2.488 -1.599 0.14
12.446 -2.448 -1.597 0.12
12.397 -2.398 -1.589 0.14
12.461 -2.369 -1.597 0.18
12.389 -2.315 -1.586 0.34
12.297 -2.258 -1.572 0.16
12.242 -2.208 -1.563 0.16
12.224 -2.185 -1.56 0.5
12.127 -2.128 -1.545 0.23
12.173 -2.097 -1.55 0.25
12.193 -2.061 -1.552 0.21
12.172 -2.018 -1.548 0.27
12.186 -1.981 -1.55 0.21
12.206 -1.945 -1.551 0.16
12.157 -1.898 -1.544 0.16
12.068 -1.864 -1.53 0.18
12.078 -1.827 -1.531 0.31
12.093 -1.79 -1.532 0.2
12.109 -1.754 -1.534 0.18
12.289 -1.741 -1.559 0.21
12.547 -1.738 -1.595 0.18
12.817 -1.735 -1.633 0.17
12.834 -1.717 -1.635 0.28
12.882 -1.682 -1.641 0.38
12.933 -1.647 -1.647 0.36
12.973 -1.611 -1.652 0.29
12.901 -1.561 -1.641 0.23
12.883 -1.518 -1.638 0.18
12.864 -1.474 -1.635 0.14
12.86 -1.453 -1.634 0.18
12.833 -1.409 -1.629 0.12
12.841 -1.37 -1.63 0.16
12.822 -1.327 -1.627 0.28
12.826 -1.286 -1.627 0.27
12.826 -1.246 -1.626 0.18
12.83 -1.205 -1.626 0.18
12.848 -1.187 -1.628 0.18
12.845 -1.146 -1.627 0.16
12.853 -1.106 -1.628 0.16
12.85 -1.065 -1.627 0.16
12.858 -1.025 -1.628 0.16
12.845 -0.983 -1.625 0.1
12.864 -0.944 -1.628 0.15
12.853 -0.923 -1.626 0.16
12.842 -0.882 -1.624 0.1
12.861 -0.842 -1.626 0.15
12.856 -0.801 -1.625 0.23
12.848 -0.76 -1.624 0.25
12.841 -0.72 -1.622 0.26
12.835 -0.679 -1.621 0.11
12.824 -0.658 -1.62 0.15
12.828 -0.618 -1.62 0.12
12.808 -0.576 -1.617 0.16
12.798 -0.536 -1.615 0.12
12.788 -0.495 -1.613 0.17
12.795 -0.455 -1.614 0.29
12.787 -0.415 -1.613 0.19
12.781 -0.394 -1.612 0.2
12.785 -0.354 -1.612 0.21
12.772 -0.314 -1.61 0.2
12.781 -0.274 -1.611 0.21
12.77 -0.233 -1.61 0.18
12.762 -0.193 -1.609 0.31
12.767 -0.153 -1.609 0.19
12.765 -0.113 -1.609 0.19
12.757 -0.093 -1.608 0.31
12.754 -0.053 -1.607 0.2
12.742 -0.013 -1.606 0.18
12.362 0.004 -1.608 0.3
12.36 0.043 -1.607 0.29
12.356 0.081 -1.607 0.29
12.362 0.12 -1.608 0.27
12.361 0.159 -1.608 0.29
12.351 0.178 -1.606 0.27
12.356 0.217 -1.607 0.26
12.371 0.256 -1.609 0.27
12.369 0.295 -1.609 0.26
12.383 0.334 -1.611 0.23
12.386 0.374 -1.612 0.38
12.387 0.413 -1.612 0.23
12.382 0.432 -1.612 0.19
12.401 0.472 -1.615 0.39
12.395 0.51 -1.614 0.19
12.4 0.55 -1.615 0.38
12.394 0.588 -1.614 0.23
12.382 0.627 -1.613 0.2
12.394 0.666 -1.615 0.37
12.38 0.705 -1.613 0.22
12.375 0.724 -1.613 0.21
12.374 0.763 -1.613 0.37
12.354 0.8 -1.61 0.23
12.336 0.838 -1.608 0.2
12.355 0.879 -1.611 0.4
12.332 0.916 -1.608 0.25
12.333 0.955 -1.609 0.25
12.332 0.974 -1.609 0.27
12.309 1.011 -1.606 0.22
12.28 1.048 -1.602 0.18
12.261 1.085 -1.6 0.37
12.252 1.123 -1.599 0.39
12.262 1.163 -1.601 0.53
12.266 1.202 -1.602 0.32
12.254 1.22 -1.601 0.27
12.246 1.258 -1.6 0.3
12.232 1.296 -1.599 0.29
12.232 1.335 -1.599 0.28
12.228 1.373 -1.599 0.28
12.224 1.411 -1.599 0.3
12.217 1.45 -1.599 0.3
12.213 1.469 -1.599 0.29
12.208 1.507 -1.599 0.3
12.205 1.545 -1.599 0.3
12.185 1.582 -1.597 0.29
12.182 1.62 -1.597 0.28
12.177 1.659 -1.597 0.28
12.175 1.697 -1.597 0.3
12.159 1.714 -1.595 0.3
12.167 1.755 -1.597 0.26
12.154 1.792 -1.596 0.29
12.14 1.829 -1.595 0.3
12.136 1.867 -1.595 0.3
12.121 1.904 -1.594 0.28
12.101 1.94 -1.592 0.29
12.118 1.981 -1.595 0.32
12.094 1.997 -1.592 0.27
12.093 2.036 -1.593 0.29
12.073 2.071 -1.591 0.3
12.072 2.11 -1.592 0.29
12.058 2.147 -1.591 0.29
12.049 2.184 -1.591 0.29
12.038 2.222 -1.59 0.32
12.027 2.239 -1.589 0.3
12.016 2.276 -1.588 0.29
12.009 2.314 -1.588 0.29
11.998 2.351 -1.588 0.32
11.977 2.386 -1.586 0.29
11.961 2.422 -1.584 0.29
11.957 2.46 -1.585 0.29
11.961 2.48 -1.586 0.32
11.946 2.516 -1.585 0.29
11.938 2.554 -1.585 0.31
11.928 2.591 -1.585 0.29
11.916 2.628 -1.584 0.3
11.904 2.664 -1.584 0.3
11.897 2.702 -1.584 0.3
11.893 2.721 -1.584 0.32
11.886 2.758 -1.584 0.3
11.879 2.796 -1.584 0.32
11.876 2.835 -1.585 0.3
11.873 2.874 -1.586 0.28
11.854 2.909 -1.585 0.3
11.836 2.943 -1.583 0.28
11.84 2.984 -1.585 0.32
11.82 2.999 -1.583 0.29
11.824 3.039 -1.585 0.3
11.806 3.074 -1.584 0.3
11.787 3.109 -1.582 0.29
11.777 3.146 -1.582 0.31
11.762 3.181 -1.582 0.3
11.759 3.22 -1.583 0.29
11.75 3.238 -1.582 0.28
11.746 3.276 -1.583 0.31
11.733 3.313 -1.583 0.3
11.721 3.349 -1.582 0.3
11.707 3.385 -1.582 0.3
11.683 3.417 -1.58 0.28
11.668 3.453 -1.579 0.29
11.668 3.473 -1.58 0.31
11.642 3.505 -1.578 0.27
11.629 3.541 -1.578 0.29
11.618 3.578 -1.578 0.29
11.597 3.611 -1.576 0.29
11.588 3.648 -1.576 0.3
11.586 3.687 -1.578 0.29
11.565 3.701 -1.576 0.3
11.548 3.735 -1.575 0.3
11.526 3.768 -1.573 0.3
11.511 3.803 -1.573 0.31
11.501 3.84 -1.573 0.3
11.487 3.876 -1.573 0.32
11.469 3.91 -1.572 0.31
11.453 3.925 -1.57 0.28
11.439 3.96 -1.57 0.31
11.417 3.992 -1.569 0.3
11.388 4.022 -1.566 0.27
11.388 4.063 -1.568 0.28
11.366 4.095 -1.567 0.37
11.37 4.137 -1.569 0.18
11.354 4.151 -1.568 0.45
11.352 4.191 -1.569 0.42
11.35 4.231 -1.571 0.42
11.353 4.273 -1.574 0.5
11.356 4.315 -1.576 0.35
11.352 4.354 -1.578 0.22
11.353 4.396 -1.58 0.39
11.359 4.439 -1.583 0.25
11.356 4.459 -1.584 0.2
11.375 4.507 -1.589 0.38
11.37 4.547 -1.591 0.23
11.365 4.586 -1.592 0.2
11.367 4.629 -1.595 0.37
11.374 4.673 -1.598 0.21
11.372 4.694 -1.599 0.34
11.356 4.728 -1.599 0.17
11.357 4.771 -1.601 0.37
11.344 4.807 -1.602 0.2
11.336 4.846 -1.603 0.34
11.319 4.881 -1.602 0.19
11.315 4.921 -1.604 0.24
11.31 4.941 -1.605 0.18
11.295 4.976 -1.605 0.23
11.272 5.008 -1.604 0.21
11.26 5.045 -1.604 0.18
11.258 5.087 -1.606 0.4
11.226 5.115 -1.604 0.21
11.206 5.149 -1.603 0.19
11.222 5.199 -1.608 0.39
11.214 5.217 -1.608 0.25
11.194 5.25 -1.608 0.25
11.176 5.284 -1.608 0.26
11.181 5.33 -1.611 0.27
11.171 5.368 -1.612 0.27
11.163 5.408 -1.614 0.28
11.148 5.444 -1.614 0.3
11.143 5.463 -1.615 0.29
11.136 5.503 -1.616 0.29
11.126 5.542 -1.617 0.26
11.105 5.575 -1.617 0.2
11.101 5.617 -1.619 0.43
11.094 5.657 -1.621 0.22
11.062 5.685 -1.619 0.21
11.076 5.714 -1.622 0.43
11.062 5.751 -1.623 0.25
11.052 5.79 -1.624 0.26
11.057 5.837 -1.628 0.26
11.045 5.875 -1.629 0.26
11.02 5.906 -1.628 0.2
11.022 5.952 -1.632 0.4
11.007 5.988 -1.632 0.23
11.001 6.008 -1.633 0.17
10.999 6.052 -1.636 0.39
10.998 6.096 -1.639 0.21
10.982 6.132 -1.639 0.24
10.961 6.166 -1.639 0.2
10.965 6.214 -1.643 0.21
10.957 6.232 -1.643 0.19
10.955 6.276 -1.646 0.22
10.939 6.313 -1.647 0.18
10.924 6.35 -1.648 0.32
10.9 6.382 -1.647 0.18
10.901 6.429 -1.65 0.35
10.882 6.464 -1.651 0.19
10.877 6.484 -1.652 0.23
10.853 6.516 -1.651 0.21
10.826 6.546 -1.65 0.18
10.827 6.593 -1.654 0.39
10.805 6.626 -1.653 0.22
10.792 6.666 -1.655 0.2
10.781 6.706 -1.656 0.38
10.749 6.732 -1.654 0.23
10.743 6.752 -1.655 0.2
10.742 6.799 -1.659 0.4
10.722 6.833 -1.659 0.25
10.709 6.872 -1.661 0.26
10.694 6.91 -1.662 0.26
10.672 6.944 -1.662 0.27
10.654 6.98 -1.662 0.28
10.648 7.0 -1.663 0.27
10.637 7.041 -1.665 0.28
10.63 7.084 -1.668 0.26
10.612 7.121 -1.669 0.27
10.588 7.153 -1.668 0.23
10.572 7.191 -1.669 0.27
10.553 7.226 -1.67 0.38
10.535 7.262 -1.671 0.37
10.554 7.3 -1.676 0.44
10.54 7.339 -1.678 0.3
10.528 7.38 -1.68 0.29
10.508 7.416 -1.68 0.3
10.496 7.457 -1.682 0.26
10.493 7.505 -1.686 0.26
10.463 7.533 -1.685 0.3
10.462 7.557 -1.687 0.28
10.442 7.593 -1.688 0.29
10.427 7.632 -1.689 0.27
10.416 7.675 -1.692 0.3
10.397 7.711 -1.693 0.29
10.376 7.746 -1.693 0.29
10.373 7.769 -1.695 0.29
10.352 7.804 -1.695 0.27
10.324 7.834 -1.695 0.29
10.312 7.876 -1.697 0.31
10.292 7.912 -1.698 0.31
10.275 7.951 -1.7 0.29
10.243 7.978 -1.698 0.3
10.231 8.02 -1.701 0.29
10.221 8.038 -1.701 0.32
10.196 8.07 -1.701 0.28
10.18 8.11 -1.703 0.3
10.168 8.153 -1.706 0.3
10.133 8.177 -1.704 0.31
10.118 8.218 -1.706 0.32
10.088 8.246 -1.705 0.28
10.072 8.259 -1.704 0.29
10.058 8.301 -1.707 0.29
10.038 8.338 -1.708 0.3
10.015 8.372 -1.709 0.29
10.002 8.415 -1.711 0.3
9.983 8.452 -1.713 0.32
9.958 8.485 -1.713 0.3
9.955 8.51 -1.715 0.29
9.925 8.538 -1.714 0.29
9.913 8.582 -1.717 0.31
9.888 8.615 -1.717 0.28
9.865 8.65 -1.718 0.29
9.841 8.683 -1.719 0.3
9.833 8.731 -1.723 0.32
9.808 8.765 -1.723 0.31
9.797 8.783 -1.724 0.29
9.795 8.836 -1.729 0.34
9.749 8.851 -1.725 0.28
9.732 8.891 -1.727 0.27
9.702 8.92 -1.727 0.23
9.68 8.956 -1.728 0.46
9.678 9.011 -1.733 0.22
9.664 9.026 -1.733 0.28
9.625 9.047 -1.731 0.29
9.62 9.099 -1.736 0.33
9.6 9.137 -1.738 0.29
9.571 9.167 -1.738 0.32
9.556 9.211 -1.741 0.32
9.526 9.239 -1.74 0.27
9.514 9.257 -1.741 0.33
9.481 9.283 -1.74 0.25
9.466 9.326 -1.743 0.32
9.305 9.225 -1.716 0.23
8.47 8.447 -1.549 0.2
8.342 8.371 -1.528 0.11
8.274 8.355 -1.519 0.0
8.219 8.326 -1.511 0.13
8.176 8.335 -1.507 0.29
8.11 8.319 -1.499 0.24
8.029 8.288 -1.487 0.15
7.989 8.299 -1.484 0.29
7.926 8.285 -1.477 0.0
7.863 8.271 -1.469 0.07
7.845 8.278 -1.468 0.16
7.818 8.301 -1.467 0.09
7.81 8.345 -1.471 0.0
7.789 8.376 -1.473 0.0
7.868 8.514 -1.495 0.0
7.706 8.391 -1.466 0.0
7.66 8.393 -1.462 0.0
7.617 8.4 -1.458 0.0
7.613 8.422 -1.46 0.0
7.603 8.463 -1.464 0.0
7.583 8.495 -1.465 0.0
7.572 8.536 -1.469 0.0
7.572 8.591 -1.475 0.0
7.562 8.634 -1.478 0.0
7.553 8.679 -1.482 0.0
7.569 8.725 -1.489 0.0
7.558 8.769 -1.493 0.0
7.551 8.816 -1.497 0.0
7.548 8.869 -1.503 0.0
7.543 8.92 -1.508 0.0
7.534 8.966 -1.513 0.0
7.536 9.026 -1.519 0.0
7.54 9.059 -1.523 0.0
7.548 9.127 -1.532 0.0
7.557 9.197 -1.541 0.0
7.611 9.324 -1.56 0.0
7.665 9.451 -1.579 0.0
7.8 9.68 -1.618 0.1
7.825 9.774 -1.631 0.1
7.828 9.84 -1.639 0.14
8.32 10.496 -1.758 0.29
8.292 10.528 -1.759 0.28
8.259 10.554 -1.759 0.29
8.228 10.583 -1.76 0.29
8.198 10.614 -1.761 0.29
8.166 10.641 -1.761 0.3
8.133 10.666 -1.761 0.3
8.124 10.69 -1.763 0.3
8.085 10.708 -1.762 0.29
8.051 10.733 -1.762 0.29
8.016 10.757 -1.761 0.29
7.98 10.779 -1.761 0.29
7.939 10.794 -1.759 0.29
7.914 10.832 -1.761 0.28
7.901 10.849 -1.762 0.27
7.868 10.875 -1.763 0.27
7.828 10.892 -1.761 0.28
7.796 10.92 -1.762 0.3
7.765 10.949 -1.763 0.28
7.725 10.965 -1.761 0.29
7.696 10.998 -1.763 0.29
7.681 11.013 -1.763 0.27
7.651 11.044 -1.764 0.27
7.617 11.069 -1.765 0.27
7.587 11.1 -1.766 0.27
7.562 11.138 -1.768 0.26
7.519 11.15 -1.766 0.22
7.504 11.204 -1.772 0.43
7.484 11.212 -1.771 0.29
7.449 11.236 -1.771 0.27
7.418 11.265 -1.772 0.27
7.381 11.287 -1.772 0.25
7.352 11.32 -1.774 0.27
7.318 11.345 -1.774 0.27
7.281 11.366 -1.774 0.26
7.248 11.394 -1.774 0.27
7.228 11.402 -1.774 0.26
7.197 11.431 -1.775 0.25
7.145 11.429 -1.771 0.23
7.118 11.466 -1.773 0.42
7.078 11.482 -1.772 0.25
7.042 11.504 -1.772 0.25
7.0 11.516 -1.77 0.26
6.986 11.534 -1.772 0.25
6.954 11.562 -1.773 0.29
6.924 11.596 -1.775 0.28
6.875 11.596 -1.771 0.28
6.829 11.602 -1.768 0.23
6.809 11.651 -1.773 0.47
6.768 11.665 -1.772 0.25
6.728 11.679 -1.771 0.21
6.712 11.695 -1.772 0.33
6.677 11.72 -1.772 0.33
6.65 11.758 -1.775 0.29
6.613 11.779 -1.775 0.26
6.582 11.81 -1.777 0.26
6.551 11.841 -1.778 0.26
6.514 11.863 -1.779 0.26
6.498 11.878 -1.78 0.26
6.466 11.907 -1.781 0.27
6.427 11.926 -1.781 0.27
6.4 11.965 -1.784 0.25
6.363 11.987 -1.784 0.26
6.332 12.019 -1.786 0.27
6.295 12.041 -1.787 0.27
6.276 12.049 -1.786 0.27
6.245 12.083 -1.789 0.26
6.21 12.108 -1.789 0.27
6.18 12.143 -1.792 0.27
6.139 12.157 -1.791 0.28
6.112 12.199 -1.795 0.27
6.079 12.229 -1.797 0.29
6.042 12.252 -1.797 0.29
6.029 12.273 -1.799 0.29
5.99 12.291 -1.799 0.29
5.954 12.315 -1.8 0.28
5.912 12.328 -1.799 0.29
5.876 12.352 -1.8 0.25
5.849 12.395 -1.804 0.29
5.811 12.415 -1.804 0.29
5.791 12.425 -1.804 0.29
5.753 12.444 -1.804 0.28
5.718 12.471 -1.806 0.32
5.684 12.5 -1.808 0.3
5.646 12.522 -1.808 0.3
5.602 12.528 -1.806 0.29
5.562 12.546 -1.806 0.29
5.552 12.575 -1.81 0.3
5.511 12.59 -1.809 0.3
5.477 12.62 -1.811 0.3
5.437 12.637 -1.811 0.29
5.408 12.678 -1.815 0.32
5.368 12.695 -1.815 0.3
5.334 12.726 -1.817 0.31
5.293 12.739 -1.817 0.29
5.275 12.753 -1.818 0.3
5.237 12.775 -1.819 0.3
5.195 12.788 -1.818 0.3
5.154 12.8 -1.817 0.29
5.119 12.829 -1.82 0.3
5.077 12.844 -1.819 0.29
5.04 12.867 -1.82 0.31
5.021 12.879 -1.821 0.3
4.979 12.889 -1.82 0.31
4.942 12.914 -1.822 0.3
4.9 12.925 -1.821 0.29
4.86 12.942 -1.821 0.31
4.818 12.954 -1.821 0.3
4.78 12.976 -1.822 0.29
4.759 12.982 -1.822 0.34
4.72 13.003 -1.822 0.3
4.678 13.014 -1.822 0.28
4.637 13.03 -1.822 0.29
4.6 13.054 -1.824 0.29
4.562 13.08 -1.825 0.29
4.516 13.077 -1.823 0.29
4.502 13.105 -1.826 0.29
4.46 13.117 -1.826 0.32
4.416 13.121 -1.824 0.29
4.375 13.137 -1.824 0.3
4.335 13.153 -1.825 0.3
4.291 13.161 -1.824 0.31
4.251 13.176 -1.824 0.3
4.212 13.197 -1.825 0.3
4.186 13.186 -1.823 0.27
4.146 13.205 -1.824 0.29
4.107 13.227 -1.825 0.32
4.065 13.238 -1.825 0.3
4.026 13.261 -1.826 0.31
3.985 13.275 -1.826 0.3
3.943 13.288 -1.826 0.29
3.924 13.299 -1.827 0.29
3.879 13.3 -1.826 0.28
3.844 13.337 -1.829 0.31
3.804 13.353 -1.83 0.29
3.764 13.374 -1.831 0.29
3.722 13.386 -1.831 0.29
3.683 13.407 -1.833 0.3
3.639 13.411 -1.832 0.3
3.618 13.419 -1.832 0.29
3.573 13.42 -1.83 0.29
3.529 13.424 -1.829 0.0
2.224 8.533 -1.09 0.11
2.182 8.476 -1.08 0.29
2.142 8.433 -1.073 0.0
1.853 8.39 -1.057 0.0
1.796 8.378 -1.053 0.0
1.771 8.394 -1.055 0.0
1.742 8.386 -1.053 0.0
1.713 8.375 -1.051 0.0
1.697 8.365 -1.049 0.0
1.671 8.374 -1.049 0.0
1.643 8.371 -1.048 0.0
1.619 8.384 -1.049 0.0
1.591 8.383 -1.048 0.0
1.563 8.377 -1.047 0.0
1.533 8.364 -1.044 0.0
1.516 8.343 -1.04 0.0
1.492 8.361 -1.042 0.0
1.465 8.362 -1.042 0.0
1.437 8.357 -1.04 0.0
1.41 8.355 -1.04 0.0
1.382 8.352 -1.038 0.0
1.356 8.358 -1.039 0.0
1.341 8.347 -1.037 0.0
1.315 8.349 -1.036 0.0
1.288 8.349 -1.036 0.0
1.263 8.363 -1.037 0.0
1.234 8.345 -1.034 0.0
1.207 8.343 -1.033 0.0
1.179 8.335 -1.031 0.0
1.15 8.323 -1.029 0.0
1.138 8.331 -1.03 0.0
1.114 8.352 -1.033 0.0
1.087 8.344 -1.031 0.0
1.061 8.351 -1.031 0.0
1.032 8.337 -1.029 0.0
1.005 8.33 -1.027 0.0
0.981 8.351 -1.03 0.0
0.965 8.331 -1.027 0.0
0.94 8.338 -1.027 0.0
0.914 8.346 -1.028 0.0
0.888 8.347 -1.028 0.0
0.861 8.346 -1.027 0.0
0.834 8.341 -1.026 0.0
0.806 8.328 -1.024 0.0
0.781 8.336 -1.025 0.0
0.77 8.369 -1.029 0.0
0.744 8.373 -1.03 0.0
0.716 8.352 -1.026 0.0
0.691 8.368 -1.028 0.0
0.663 8.344 -1.025 0.0
0.637 8.35 -1.025 0.0
0.612 8.368 -1.027 0.0
0.596 8.335 -1.023 0.0
0.571 8.357 -1.025 0.12
0.545 8.363 -1.026 0.18
0.518 8.349 -1.024 0.16
0.492 8.352 -1.024 0.21
0.466 8.358 -1.025 0.11
0.439 8.345 -1.023 0.17
0.413 8.343 -1.022 0.19
0.398 8.31 -1.017 0.14
0.375 8.382 -1.027 0.57
0.347 8.354 -1.023 0.23
0.32 8.335 -1.02 0.19
0.293 8.284 -1.013 0.17
0.269 8.356 -1.023 0.09
0.242 8.357 -1.023 0.16
0.229 8.344 -1.021 0.17
0.203 8.352 -1.022 0.34
0.176 8.333 -1.019 0.3
0.15 8.363 -1.024 0.41
0.124 8.348 -1.021 0.25
0.098 8.36 -1.023 0.41
0.072 8.349 -1.021 0.22
0.058 8.368 -1.024 0.0
0.032 8.347 -1.021 0.0
0.006 8.349 -1.021 0.0
-0.02 8.347 -1.021 0.0
-0.046 8.339 -1.02 0.0
-0.073 8.36 -1.023 0.0
-0.099 8.342 -1.021 0.0
-0.125 8.336 -1.02 0.0
-0.139 8.373 -1.025 0.0
-0.164 8.345 -1.021 0.0
-0.191 8.347 -1.021 0.0
-0.217 8.342 -1.021 0.0
-0.244 8.365 -1.024 0.0
-0.269 8.346 -1.022 0.0
-0.296 8.365 -1.025 0.0
-0.309 8.353 -1.023 0.0
-0.362 8.369 -1.025 0.0
-0.415 8.37 -1.026 0.0
-0.44 8.345 -1.023 0.0
-0.481 8.371 -1.027 0.0
-0.644 8.419 -1.035 0.0
-1.392 8.559 -1.068 0.0
-1.427 8.605 -1.076 0.0
-1.446 8.636 -1.081 0.0
-1.489 8.721 -1.094 0.0
-1.539 8.841 -1.113 0.12
-2.584 14.229 -1.914 0.36
-2.628 14.217 -1.914 0.32
-2.669 14.187 -1.911 0.36
-2.718 14.202 -1.914 0.27
-2.739 14.19 -1.913 0.31
-2.784 14.185 -1.913 0.29
-2.824 14.153 -1.91 0.48
-2.871 14.158 -1.912 0.5
-2.91 14.122 -1.908 0.48
-2.949 14.087 -1.904 0.49
-2.991 14.068 -1.903 0.38
-3.01 14.046 -1.9 0.39
-3.056 14.046 -1.902 0.36
-3.099 14.031 -1.901 0.44
-3.145 14.033 -1.902 0.42
-3.196 14.052 -1.907 0.4
-3.245 14.061 -1.91 0.39
-3.286 14.037 -1.908 0.36
-3.313 14.053 -1.911 0.38
-3.356 14.037 -1.91 0.41
-3.402 14.036 -1.911 0.38
-3.445 14.019 -1.911 0.32
-3.487 14.003 -1.91 0.42
-3.534 14.001 -1.911 0.51
-3.578 13.992 -1.911 0.39
-3.627 14.0 -1.914 0.5
-3.637 13.95 -1.908 0.43
-3.695 13.992 -1.916 0.42
-3.746 14.003 -1.919 0.43
-3.792 13.999 -1.92 0.39
-3.84 14.004 -1.923 0.41
-3.884 13.99 -1.923 0.35
-3.929 13.982 -1.923 0.56
-3.957 13.997 -1.926 0.52
-4.004 13.997 -1.928 0.36
-4.052 13.996 -1.93 0.43
-4.106 14.018 -1.935 0.48
-4.162 14.046 -1.942 0.38
-4.204 14.024 -1.94 0.56
-4.261 14.056 -1.947 0.3
-4.304 14.039 -1.947 0.48
-4.326 14.03 -1.946 0.41
-4.366 14.003 -1.944 0.51
-4.42 14.023 -1.95 0.33
-4.461 14.0 -1.948 0.32
-4.504 13.982 -1.948 0.33
-4.54 13.943 -1.944 0.35
-4.593 13.955 -1.948 0.29
-4.608 13.929 -1.945 0.41
-4.656 13.926 -1.947 0.44
-4.711 13.945 -1.952 0.35
-4.764 13.958 -1.956 0.3
-4.804 13.932 -1.955 0.32
-4.845 13.907 -1.953 0.44
-4.897 13.916 -1.957 0.27
-4.918 13.907 -1.957 0.45
-4.959 13.884 -1.955 0.42
-5.006 13.876 -1.957 0.41
-5.059 13.888 -1.961 0.51
-5.109 13.888 -1.963 0.29
-5.158 13.887 -1.966 0.4
-5.203 13.875 -1.966 0.32
-5.245 13.855 -1.966 0.29
-5.267 13.846 -1.966 0.26
-5.314 13.839 -1.967 0.45
-5.365 13.841 -1.97 0.34
-5.41 13.827 -1.971 0.31
-5.449 13.801 -1.969 0.34
-5.495 13.789 -1.97 0.34
-5.548 13.796 -1.974 0.34
-5.59 13.775 -1.973 0.31
-5.603 13.746 -1.97 0.39
-5.658 13.757 -1.975 0.31
-5.7 13.736 -1.974 0.29
-5.749 13.732 -1.976 0.33
-5.792 13.713 -1.976 0.32
-5.836 13.698 -1.977 0.28
-5.875 13.67 -1.975 0.28
-5.903 13.676 -1.978 0.38
-5.954 13.675 -1.981 0.31
-5.997 13.656 -1.981 0.31
-6.049 13.659 -1.984 0.32
-6.089 13.633 -1.983 0.28
-6.134 13.619 -1.984 0.3
-6.18 13.605 -1.985 0.34
-6.206 13.606 -1.986 0.3
-6.253 13.596 -1.988 0.3
-6.301 13.589 -1.99 0.3
-6.351 13.583 -1.992 0.3
-6.392 13.559 -1.992 0.3
-6.438 13.546 -1.993 0.3
-6.487 13.54 -1.995 0.34
-6.531 13.524 -1.996 0.31
-6.552 13.511 -1.995 0.29
-6.603 13.509 -1.998 0.29
-6.647 13.491 -1.999 0.29
-6.696 13.485 -2.001 0.3
-6.75 13.486 -2.005 0.32
-6.793 13.465 -2.005 0.31
-6.838 13.451 -2.006 0.29
-6.862 13.445 -2.007 0.3
-6.915 13.445 -2.01 0.31
-6.961 13.43 -2.011 0.31
-7.012 13.424 -2.014 0.3
-7.055 13.404 -2.014 0.29
-7.095 13.378 -2.014 0.28
-7.142 13.364 -2.015 0.29
-7.165 13.358 -2.016 0.26
-7.208 13.337 -2.016 0.28
-7.254 13.322 -2.018 0.28
-7.299 13.304 -2.018 0.29
-7.336 13.272 -2.017 0.28
-7.378 13.251 -2.017 0.3
-7.423 13.233 -2.018 0.31
-7.464 13.209 -2.018 0.29
-7.49 13.206 -2.02 0.29
-7.536 13.191 -2.021 0.3
-7.58 13.171 -2.022 0.3
-7.618 13.142 -2.021 0.29
-7.67 13.137 -2.024 0.31
-7.711 13.113 -2.024 0.31
-7.755 13.092 -2.024 0.29
-7.791 13.107 -2.029 0.33
-7.832 13.08 -2.029 0.29
-7.871 13.052 -2.028 0.3
-5.981 9.861 -1.486 0.17
-5.978 9.786 -1.477 0.27
-5.978 9.719 -1.469 0.31
-5.971 9.64 -1.458 0.35
-5.978 9.584 -1.452 0.34
-5.965 9.529 -1.444 0.37
-5.966 9.465 -1.436 0.38
-5.961 9.391 -1.427 0.36
-5.968 9.338 -1.421 0.44
-5.986 9.302 -1.418 0.64
-6.034 9.312 -1.423 0.61
-6.036 9.251 -1.415 0.0
-6.014 9.186 -1.406 0.0
-5.948 8.902 -1.366 0.36
-5.946 8.839 -1.358 0.41
-5.943 8.776 -1.35 0.4
-5.943 8.716 -1.343 0.39
-5.926 8.663 -1.335 0.46
-5.928 8.607 -1.328 0.31
-5.923 8.543 -1.32 0.38
-5.935 8.503 -1.317 0.8
-5.925 8.433 -1.307 0.48
-5.924 8.375 -1.3 0.43
-5.944 8.349 -1.299 0.49
-6.029 8.41 -1.313 0.59
-6.09 8.468 -1.325 0.25
-6.159 8.506 -1.336 0.12
-6.207 8.516 -1.341 0.3
-6.185 8.431 -1.329 0.2
-6.202 8.399 -1.327 0.5
-6.397 8.604 -1.368 0.29
-6.454 8.624 -1.375 0.34
-6.488 8.613 -1.377 0.22
-6.719 8.89 -1.43 0.19
-6.504 8.551 -1.371 0.08
-6.457 8.435 -1.354 0.14
-6.469 8.396 -1.35 0.16
-6.47 8.342 -1.344 0.25
-6.495 8.32 -1.344 0.19
-6.545 8.33 -1.349 0.38
-6.564 8.327 -1.351 0.41
-6.607 8.328 -1.355 0.38
-6.647 8.324 -1.358 0.23
-6.697 8.333 -1.363 0.32
-6.743 8.336 -1.368 0.29
-6.774 8.321 -1.369 0.29
-6.805 8.306 -1.37 0.25
-6.833 8.313 -1.374 0.25
-6.881 8.318 -1.379 0.43
-6.917 8.308 -1.381 0.4
-6.975 8.324 -1.388 0.4
-7.283 8.634 -1.452 0.29
-7.33 8.636 -1.456 0.32
-7.419 8.685 -1.47 0.31
-7.373 8.604 -1.457 0.24
-7.163 8.307 -1.404 0.31
-7.226 8.326 -1.412 0.34
-7.27 8.324 -1.416 0.43
-7.308 8.315 -1.419 0.45
-7.359 8.32 -1.424 0.43
-7.408 8.322 -1.429 0.43
-7.454 8.321 -1.434 0.39
-7.479 8.322 -1.436 0.27
-7.525 8.321 -1.441 0.48
-7.575 8.323 -1.446 0.23
-7.616 8.315 -1.449 0.13
-7.657 8.307 -1.452 0.17
-7.7 8.302 -1.456 0.12
-7.751 8.304 -1.461 0.15
-7.793 8.297 -1.465 0.1
-7.824 8.303 -1.468 0.16
-7.882 8.313 -1.475 0.12
-7.928 8.308 -1.479 0.17
-7.983 8.313 -1.485 0.29
-8.018 8.298 -1.487 0.11
-8.072 8.301 -1.493 0.15
-8.127 8.305 -1.499 0.28
-8.169 8.322 -1.505 0.2
-8.218 8.319 -1.51 0.23
-8.261 8.31 -1.513 0.16
-8.309 8.306 -1.518 0.26
-8.359 8.304 -1.523 0.21
-8.404 8.295 -1.527 0.15
-8.458 8.297 -1.532 0.45
-8.508 8.319 -1.54 0.21
-8.565 8.323 -1.546 0.27
-8.611 8.315 -1.55 0.26
-8.666 8.315 -1.556 0.32
-8.726 8.321 -1.563 0.34
-8.793 8.331 -1.571 0.4
-8.839 8.322 -1.575 0.31
-8.903 8.33 -1.583 0.36
-8.993 8.387 -1.598 0.31
-9.455 8.761 -1.685 0.38
-9.363 8.622 -1.661 0.17
-9.149 8.373 -1.613 0.16
-9.155 8.325 -1.609 0.23
-9.146 8.265 -1.602 0.12
-9.173 8.237 -1.603 0.31
-9.211 8.245 -1.608 0.48
-9.256 8.233 -1.611 0.16
-9.37 8.281 -1.628 0.43
-9.391 8.248 -1.628 0.25
-9.472 8.266 -1.638 0.21
-9.503 8.24 -1.639 0.23
-9.562 8.239 -1.645 0.25
-9.625 8.241 -1.653 0.25
-9.691 8.271 -1.663 0.2
-9.72 8.243 -1.663 0.2
-9.765 8.229 -1.667 0.24
-9.814 8.217 -1.671 0.25
-9.879 8.219 -1.679 0.32
-12.342 10.194 -2.14 0.29
-12.343 10.13 -2.134 0.28
-12.344 10.098 -2.131 0.27
-12.385 10.067 -2.133 0.3
-12.443 10.049 -2.138 0.32
-12.513 10.041 -2.145 0.3
-12.58 10.03 -2.152 0.32
-12.647 10.018 -2.159 0.28
-12.713 10.005 -2.165 0.23
-12.756 10.007 -2.17 0.27
-12.794 9.972 -2.171 0.54
-12.866 9.963 -2.179 0.37
-12.993 9.996 -2.196 0.31
-13.042 9.969 -2.2 0.33
-13.114 9.959 -2.207 0.46
-13.188 9.95 -2.215 0.41
-13.226 9.945 -2.219 0.31
-13.263 9.909 -2.22 0.49
-13.232 9.821 -2.209 0.31
-13.207 9.738 -2.199 0.26
-13.175 9.651 -2.187 0.27
-13.17 9.584 -2.181 0.29
-13.183 9.53 -2.178 0.29
-13.198 9.478 -2.175 0.3
-13.194 9.444 -2.172 0.3
-13.21 9.393 -2.17 0.34
-13.217 9.336 -2.166 0.28
-13.232 9.284 -2.163 0.29
-13.248 9.233 -2.161 0.29
-13.262 9.181 -2.158 0.3
-13.276 9.13 -2.155 0.29
-13.286 9.105 -2.155 0.31
-13.298 9.053 -2.152 0.32
-13.336 9.017 -2.153 0.25
-13.34 8.959 -2.149 0.3
-13.365 8.915 -2.148 0.3
-13.384 8.867 -2.147 0.29
-13.407 8.822 -2.146 0.29
-13.409 8.793 -2.144 0.29
-13.422 8.741 -2.142 0.29
-13.436 8.691 -2.139 0.29
-13.445 8.637 -2.136 0.31
-13.459 8.586 -2.134 0.3
-13.479 8.539 -2.133 0.29
-13.492 8.489 -2.13 0.28
-13.505 8.438 -2.128 0.31
-13.508 8.41 -2.126 0.27
-13.531 8.366 -2.126 0.31
-13.542 8.314 -2.123 0.29
-13.565 8.269 -2.122 0.3
-13.566 8.211 -2.118 0.28
-13.574 8.158 -2.115 0.31
-13.581 8.105 -2.112 0.27
-13.587 8.079 -2.111 0.29
-13.599 8.028 -2.109 0.29
-13.626 7.987 -2.109 0.32
-13.639 7.937 -2.107 0.3
-13.65 7.886 -2.105 0.3
-13.664 7.837 -2.103 0.29
-13.684 7.791 -2.102 0.29
-13.698 7.743 -2.1 0.3
-13.715 7.724 -2.101 0.3
-13.734 7.678 -2.1 0.29
-13.746 7.628 -2.098 0.3
-13.773 7.587 -2.099 0.29
-13.799 7.544 -2.099 0.28
-13.805 7.492 -2.096 0.28
-13.83 7.449 -2.096 0.29
-13.838 7.425 -2.096 0.29
-13.849 7.375 -2.094 0.28
-13.866 7.328 -2.093 0.29
-13.887 7.284 -2.092 0.29
-13.899 7.235 -2.091 0.25
-13.895 7.177 -2.086 0.28
-13.89 7.119 -2.082 0.3
-13.887 7.09 -2.079 0.29
-13.909 7.047 -2.079 0.27
-13.908 6.991 -2.076 0.21
-13.919 6.942 -2.074 0.45
-13.918 6.887 -2.07 0.25
-13.932 6.84 -2.069 0.2
-13.945 6.792 -2.068 0.39
-13.952 6.768 -2.067 0.22
-13.946 6.712 -2.063 0.19
-13.976 6.672 -2.064 0.4
-13.981 6.62 -2.061 0.23
-13.986 6.569 -2.059 0.2
-13.994 6.519 -2.057 0.36
-14.009 6.473 -2.056 0.2
-14.022 6.425 -2.055 0.24
-14.016 6.396 -2.052 0.21
-14.039 6.353 -2.053 0.22
-14.041 6.301 -2.05 0.2
-14.059 6.256 -2.05 0.22
-14.059 6.203 -2.046 0.2
-14.076 6.158 -2.046 0.23
-14.085 6.109 -2.044 0.2
-14.106 6.066 -2.045 0.21
-14.095 6.035 -2.042 0.18
-14.116 5.992 -2.042 0.23
-14.116 5.94 -2.039 0.2
-14.122 5.89 -2.037 0.21
-14.117 5.836 -2.033 0.19
-14.128 5.788 -2.032 0.3
-14.131 5.738 -2.03 0.16
-14.118 5.707 -2.026 0.35
-14.112 5.653 -2.022 0.24
-14.124 5.607 -2.022 0.25
-14.132 5.559 -2.02 0.25
-14.135 5.508 -2.018 0.27
-14.139 5.459 -2.016 0.28
-14.142 5.409 -2.013 0.26
-14.135 5.381 -2.011 0.28
-14.158 5.339 -2.012 0.28
-14.158 5.288 -2.009 0.27
-14.171 5.242 -2.009 0.27
-14.174 5.193 -2.007 0.27
-14.188 5.148 -2.007 0.27
-14.193 5.099 -2.005 0.27
-14.194 5.074 -2.004 0.2
-14.206 5.028 -2.003 0.41
-14.216 4.982 -2.002 0.23
-14.215 4.931 -2.0 0.21
-14.23 4.886 -2.0 0.38
-14.232 4.837 -1.998 0.22
-14.234 4.788 -1.996 0.2
