# .PCD v.7 - Point Cloud Data file format
VERSION .7
FIELDS x y z intensity
SIZE 4 4 4 4
TYPE F F F F
COUNT 1 1 1 1
WIDTH 1946
HEIGHT 1
VIEWPOINT 0 0 0 1 0 0 0
POINTS 1946
DATA ascii
-4.089 8.841 -1.967 0.35
-4.118 8.83 -1.968 0.31
-4.143 8.812 -1.967 0.35
-4.165 8.786 -1.964 0.3
-4.198 8.785 -1.967 0.36
-4.222 8.765 -1.965 0.31
-4.252 8.757 -1.966 0.35
-4.26 8.738 -1.963 0.3
-4.291 8.732 -1.965 0.38
-4.318 8.718 -1.965 0.31
-4.348 8.71 -1.966 0.35
-4.368 8.68 -1.962 0.3
-4.398 8.672 -1.964 0.38
-4.426 8.66 -1.964 0.31
-4.455 8.649 -1.965 0.37
-4.466 8.637 -1.964 0.31
-4.495 8.628 -1.965 0.35
-4.521 8.611 -1.964 0.3
-4.545 8.591 -1.963 0.36
-4.571 8.575 -1.962 0.3
-4.602 8.568 -1.964 0.35
-4.623 8.543 -1.961 0.33
-4.636 8.536 -1.961 0.34
-4.662 8.519 -1.961 0.34
-4.687 8.501 -1.96 0.34
-4.717 8.491 -1.961 0.33
-4.743 8.477 -1.961 0.35
-4.768 8.458 -1.961 0.35
-4.784 8.425 -1.956 0.29
-4.803 8.427 -1.959 0.35
-4.824 8.404 -1.956 0.34
-4.849 8.385 -1.956 0.29
-4.879 8.376 -1.957 0.35
-4.905 8.361 -1.957 0.31
-4.936 8.352 -1.959 0.38
-4.95 8.317 -1.954 0.3
-4.977 8.303 -1.954 0.32
-4.996 8.305 -1.957 0.35
-5.013 8.274 -1.953 0.3
-5.045 8.268 -1.956 0.39
-5.068 8.248 -1.954 0.32
-5.094 8.232 -1.954 0.37
-5.117 8.211 -1.953 0.31
-5.142 8.194 -1.953 0.36
-5.161 8.167 -1.95 0.3
-5.179 8.167 -1.952 0.37
-5.203 8.149 -1.952 0.3
-5.228 8.131 -1.951 0.37
-5.249 8.108 -1.95 0.31
-5.283 8.104 -1.953 0.35
-5.299 8.073 -1.949 0.31
-5.321 8.052 -1.948 0.32
-5.337 8.048 -1.949 0.32
-5.362 8.031 -1.949 0.32
-5.391 8.019 -1.951 0.36
-5.41 7.994 -1.948 0.29
-5.442 7.987 -1.951 0.36
-5.46 7.96 -1.948 0.29
-5.492 7.952 -1.951 0.36
-5.498 7.934 -1.948 0.34
-5.522 7.915 -1.948 0.34
-5.55 7.903 -1.949 0.33
-5.569 7.877 -1.947 0.3
-5.598 7.866 -1.949 0.36
-5.617 7.84 -1.947 0.3
-5.65 7.834 -1.95 0.35
-5.674 7.816 -1.95 0.34
-5.683 7.802 -1.948 0.34
-5.701 7.775 -1.946 0.29
-5.726 7.759 -1.946 0.35
-5.746 7.734 -1.945 0.3
-5.77 7.716 -1.945 0.36
-5.798 7.703 -1.946 0.34
-5.826 7.689 -1.947 0.3
-5.839 7.682 -1.948 0.36
-5.857 7.656 -1.946 0.34
-5.88 7.636 -1.945 0.3
-5.908 7.622 -1.946 0.35
-5.924 7.594 -1.944 0.3
-5.952 7.58 -1.945 0.36
-5.973 7.558 -1.944 0.35
-5.998 7.541 -1.945 0.28
-6.011 7.533 -1.945 0.38
-6.027 7.505 -1.943 0.34
-6.041 7.474 -1.939 0.29
-6.071 7.462 -1.941 0.36
-6.092 7.44 -1.94 0.32
-6.121 7.428 -1.943 0.34
-6.146 7.411 -1.943 0.37
-6.142 7.383 -1.938 0.27
-6.15 7.346 -1.933 0.28
-6.164 7.316 -1.93 0.32
-6.193 7.302 -1.932 0.38
-6.209 7.276 -1.93 0.4
-6.231 7.255 -1.929 0.41
-6.257 7.239 -1.93 0.39
-6.258 7.218 -1.927 0.44
-6.298 7.217 -1.933 0.37
-6.319 7.196 -1.932 0.35
-6.33 7.163 -1.928 0.34
-6.362 7.153 -1.931 0.3
-6.385 7.135 -1.932 0.34
-6.389 7.094 -1.926 0.3
-6.427 7.091 -1.931 0.34
-6.437 7.08 -1.93 0.32
-6.453 7.052 -1.928 0.32
-6.478 7.035 -1.929 0.3
-6.493 7.007 -1.927 0.3
-6.51 6.981 -1.925 0.32
-6.535 6.965 -1.927 0.32
-6.549 6.936 -1.924 0.3
-6.57 6.936 -1.927 0.31
-6.589 6.912 -1.926 0.31
-6.612 6.893 -1.927 0.3
-6.626 6.865 -1.925 0.29
-6.648 6.844 -1.925 0.33
-6.671 6.825 -1.925 0.3
-6.674 6.785 -1.92 0.28
-6.694 6.763 -1.919 0.31
-6.708 6.755 -1.92 0.3
-6.732 6.737 -1.921 0.29
-6.749 6.712 -1.92 0.29
-6.771 6.692 -1.92 0.29
-6.785 6.664 -1.918 0.28
-6.805 6.641 -1.917 0.29
-6.821 6.615 -1.916 0.3
-6.83 6.603 -1.916 0.29
-6.858 6.589 -1.918 0.27
-6.879 6.567 -1.918 0.28
-6.886 6.533 -1.914 0.3
-6.907 6.512 -1.914 0.29
-6.916 6.479 -1.911 0.27
-6.939 6.46 -1.912 0.28
-6.961 6.44 -1.912 0.27
-6.968 6.426 -1.911 0.28
-6.998 6.413 -1.914 0.26
-7.014 6.387 -1.913 0.27
-7.031 6.363 -1.912 0.28
-7.051 6.341 -1.912 0.26
-7.074 6.321 -1.913 0.29
-7.082 6.288 -1.909 0.3
-7.083 6.27 -1.907 0.27
-7.106 6.25 -1.908 0.27
-7.122 6.225 -1.907 0.3
-7.133 6.195 -1.904 0.29
-7.16 6.179 -1.906 0.29
-7.173 6.151 -1.905 0.29
-7.188 6.125 -1.904 0.29
-7.207 6.121 -1.906 0.26
-7.221 6.095 -1.905 0.28
-7.237 6.069 -1.904 0.29
-7.255 6.045 -1.904 0.28
-7.266 6.016 -1.901 0.3
-7.291 5.999 -1.903 0.28
-7.29 5.96 -1.898 0.3
-7.314 5.94 -1.899 0.28
-7.317 5.924 -1.897 0.26
-7.328 5.895 -1.895 0.29
-7.34 5.867 -1.893 0.29
-7.365 5.849 -1.895 0.25
-7.365 5.811 -1.89 0.27
-7.381 5.787 -1.89 0.29
-7.402 5.766 -1.891 0.32
-7.408 5.752 -1.89 0.33
-7.417 5.721 -1.887 0.32
-7.419 5.686 -1.883 0.3
-7.436 5.662 -1.883 0.31
-7.457 5.641 -1.883 0.32
-7.468 5.612 -1.882 0.32
-7.501 5.601 -1.886 0.36
-7.494 5.577 -1.882 0.29
-7.509 5.551 -1.881 0.31
-7.526 5.528 -1.881 0.33
-7.543 5.504 -1.881 0.33
-7.553 5.475 -1.879 0.32
-7.583 5.46 -1.882 0.33
-7.585 5.426 -1.878 0.29
-7.604 5.403 -1.879 0.32
-7.609 5.389 -1.878 0.35
-7.618 5.359 -1.876 0.29
-7.635 5.335 -1.876 0.3
-7.661 5.318 -1.878 0.3
-7.675 5.292 -1.878 0.34
-7.687 5.264 -1.876 0.3
-7.713 5.247 -1.879 0.33
-7.716 5.231 -1.878 0.31
-7.726 5.203 -1.876 0.29
-7.737 5.175 -1.875 0.3
-7.757 5.153 -1.875 0.31
-7.765 5.123 -1.873 0.3
-7.778 5.097 -1.872 0.3
-7.799 5.075 -1.874 0.3
-7.812 5.066 -1.875 0.32
-7.822 5.039 -1.874 0.27
-7.842 5.016 -1.875 0.32
-7.854 4.989 -1.874 0.3
-7.863 4.961 -1.872 0.29
-7.882 4.938 -1.873 0.29
-7.892 4.91 -1.872 0.29
-7.909 4.886 -1.872 0.3
-7.917 4.874 -1.872 0.27
-7.931 4.848 -1.872 0.29
-7.929 4.813 -1.867 0.29
-7.941 4.786 -1.867 0.27
-7.952 4.759 -1.866 0.29
-7.967 4.734 -1.866 0.28
-7.984 4.71 -1.866 0.29
-7.991 4.697 -1.866 0.29
-7.987 4.661 -1.862 0.28
-8.004 4.637 -1.862 0.3
-8.02 4.613 -1.862 0.28
-8.028 4.584 -1.861 0.28
-8.018 4.545 -1.855 0.26
-8.029 4.518 -1.854 0.29
-8.031 4.503 -1.853 0.29
-8.043 4.476 -1.852 0.29
-8.042 4.443 -1.849 0.3
-8.068 4.424 -1.852 0.29
-8.046 4.379 -1.843 0.25
-8.04 4.344 -1.838 0.28
-8.059 4.321 -1.839 0.35
-8.067 4.293 -1.838 0.39
-8.072 4.279 -1.838 0.41
-8.091 4.257 -1.839 0.35
-8.084 4.221 -1.834 0.43
-8.098 4.196 -1.834 0.48
-8.126 4.178 -1.838 0.4
-8.137 4.151 -1.837 0.28
-8.157 4.129 -1.839 0.36
-8.158 4.114 -1.838 0.29
-8.173 4.089 -1.838 0.36
-8.18 4.061 -1.837 0.35
-8.175 4.026 -1.833 0.31
-8.197 4.005 -1.835 0.36
-8.197 3.973 -1.832 0.31
-8.218 3.952 -1.834 0.36
-8.219 3.936 -1.833 0.31
-8.235 3.912 -1.833 0.38
-8.233 3.88 -1.83 0.31
-8.249 3.855 -1.831 0.32
-8.275 3.836 -1.834 0.36
-8.282 3.807 -1.833 0.3
-8.303 3.785 -1.835 0.33
-8.327 3.765 -1.838 0.38
-8.326 3.749 -1.836 0.3
-8.341 3.724 -1.837 0.33
-8.358 3.7 -1.838 0.32
-8.379 3.678 -1.841 0.38
-8.383 3.648 -1.839 0.31
-8.412 3.63 -1.843 0.36
-8.409 3.597 -1.84 0.31
-8.424 3.588 -1.842 0.36
-8.433 3.561 -1.841 0.31
-8.445 3.534 -1.841 0.33
-8.466 3.512 -1.844 0.36
-8.492 3.491 -1.847 0.35
-8.505 3.465 -1.848 0.34
-8.501 3.433 -1.844 0.31
-8.523 3.41 -1.847 0.32
-8.535 3.4 -1.849 0.38
-8.542 3.372 -1.848 0.31
-8.538 3.339 -1.844 0.31
-8.563 3.318 -1.848 0.35
-8.563 3.287 -1.845 0.29
-8.595 3.268 -1.85 0.36
-8.6 3.239 -1.849 0.29
-8.607 3.226 -1.849 0.33
-8.617 3.199 -1.849 0.32
-8.638 3.176 -1.852 0.35
-8.646 3.148 -1.852 0.34
-8.663 3.124 -1.853 0.33
-8.656 3.091 -1.849 0.3
-8.671 3.065 -1.851 0.35
-8.689 3.056 -1.854 0.32
-8.695 3.028 -1.853 0.3
-8.714 3.003 -1.855 0.36
-8.721 2.975 -1.854 0.34
-8.734 2.949 -1.855 0.34
-8.736 2.919 -1.854 0.34
-8.766 2.899 -1.858 0.34
-8.752 2.879 -1.854 0.28
-8.779 2.857 -1.858 0.36
-8.773 2.825 -1.855 0.3
-8.791 2.8 -1.857 0.32
-8.802 2.773 -1.857 0.36
-8.796 2.741 -1.854 0.31
-8.815 2.717 -1.857 0.38
-8.815 2.686 -1.854 0.29
-8.836 2.677 -1.858 0.37
-8.852 2.652 -1.86 0.34
-8.835 2.617 -1.854 0.29
-8.87 2.597 -1.86 0.37
-8.874 2.568 -1.859 0.35
-8.873 2.537 -1.857 0.29
-8.888 2.511 -1.859 0.32
-8.892 2.497 -1.859 0.32
-8.908 2.472 -1.861 0.36
-8.91 2.442 -1.859 0.35
-8.915 2.414 -1.859 0.32
-8.934 2.388 -1.862 0.35
-8.929 2.357 -1.859 0.31
-8.951 2.333 -1.862 0.38
-8.945 2.316 -1.86 0.29
-8.975 2.294 -1.865 0.35
-8.969 2.262 -1.862 0.3
-8.972 2.233 -1.861 0.33
-8.994 2.209 -1.865 0.36
-9.009 2.182 -1.866 0.31
-9.016 2.154 -1.866 0.39
-9.021 2.125 -1.866 0.29
-9.024 2.111 -1.866 0.32
-9.038 2.084 -1.867 0.36
-9.033 2.053 -1.865 0.3
-9.063 2.03 -1.87 0.37
-9.054 1.998 -1.867 0.3
-9.075 1.973 -1.87 0.38
-9.072 1.943 -1.868 0.3
-9.088 1.931 -1.871 0.36
-9.096 1.903 -1.871 0.35
-9.106 1.875 -1.872 0.35
-9.108 1.846 -1.871 0.34
-9.106 1.816 -1.87 0.3
-9.125 1.79 -1.872 0.35
-9.131 1.761 -1.872 0.34
-9.136 1.732 -1.872 0.32
-9.147 1.719 -1.874 0.34
-9.152 1.691 -1.874 0.32
-9.165 1.663 -1.876 0.33
-9.164 1.633 -1.875 0.34
-9.185 1.607 -1.878 0.33
-9.169 1.575 -1.873 0.32
-9.185 1.548 -1.876 0.32
-9.197 1.535 -1.878 0.32
-9.186 1.504 -1.875 0.29
-9.201 1.476 -1.877 0.38
-9.217 1.449 -1.879 0.32
-9.208 1.418 -1.876 0.34
-9.222 1.391 -1.878 0.31
-9.234 1.363 -1.88 0.32
-9.223 1.346 -1.877 0.34
-9.229 1.318 -1.878 0.31
-9.244 1.29 -1.88 0.33
-9.237 1.26 -1.878 0.32
-9.237 1.23 -1.877 0.34
-9.256 1.203 -1.88 0.33
-9.258 1.174 -1.88 0.32
-9.258 1.159 -1.879 0.3
-9.263 1.13 -1.88 0.3
-9.257 1.1 -1.878 0.34
-9.301 1.075 -1.886 0.43
-9.291 1.045 -1.883 0.34
-9.3 1.016 -1.885 0.35
-9.321 0.989 -1.888 0.32
-9.316 0.959 -1.887 0.3
-9.322 0.944 -1.888 0.34
-9.328 0.916 -1.888 0.32
-9.337 0.887 -1.89 0.3
-9.348 0.858 -1.891 0.34
-9.354 0.829 -1.892 0.3
-9.357 0.8 -1.892 0.3
-9.367 0.771 -1.894 0.3
-9.376 0.757 -1.896 0.29
-9.378 0.727 -1.896 0.28
-9.379 0.698 -1.895 0.31
-9.381 0.668 -1.895 0.28
-9.383 0.639 -1.895 0.29
-9.387 0.609 -1.896 0.28
-9.383 0.58 -1.894 0.28
-9.39 0.55 -1.896 0.27
-9.399 0.536 -1.897 0.28
-9.416 0.507 -1.901 0.26
-9.406 0.477 -1.898 0.3
-9.415 0.448 -1.9 0.25
-9.423 0.419 -1.901 0.28
-9.416 0.389 -1.899 0.29
-9.413 0.359 -1.899 0.29
-9.396 0.344 -1.895 0.28
-9.399 0.314 -1.895 0.29
-9.402 0.285 -1.896 0.3
-9.397 0.255 -1.894 0.3
-9.396 0.226 -1.894 0.31
-9.371 0.196 -1.888 0.3
-9.385 0.166 -1.891 0.33
-9.37 0.151 -1.888 0.3
-9.38 0.122 -1.89 0.34
-9.383 0.093 -1.891 0.29
-9.381 0.063 -1.89 0.31
-9.377 0.034 -1.889 0.33
-9.375 0.004 -1.889 0.32
-9.369 -0.025 -1.888 0.28
-9.381 -0.055 -1.89 0.35
-9.385 -0.07 -1.891 0.32
-9.388 -0.099 -1.892 0.35
-9.402 -0.129 -1.895 0.32
-9.389 -0.158 -1.892 0.31
-9.387 -0.173 -1.892 0.31
-9.391 -0.202 -1.893 0.33
-9.406 -0.232 -1.896 0.33
-9.411 -0.262 -1.897 0.36
-9.4 -0.291 -1.895 0.3
-9.405 -0.321 -1.896 0.31
-9.402 -0.351 -1.896 0.33
-9.407 -0.38 -1.897 0.31
-9.402 -0.395 -1.896 0.32
-9.407 -0.425 -1.898 0.34
-9.405 -0.454 -1.898 0.31
-9.41 -0.484 -1.899 0.33
-9.402 -0.513 -1.898 0.3
-9.403 -0.543 -1.898 0.31
-9.407 -0.573 -1.899 0.31
-9.412 -0.588 -1.901 0.34
-9.421 -0.618 -1.903 0.32
-9.425 -0.648 -1.904 0.32
-9.431 -0.679 -1.906 0.34
-9.419 -0.708 -1.904 0.29
-9.434 -0.739 -1.908 0.33
-9.428 -0.768 -1.907 0.28
-9.437 -0.784 -1.909 0.3
-9.434 -0.813 -1.909 0.29
-9.435 -0.843 -1.91 0.29
-9.442 -0.874 -1.912 0.29
-9.447 -0.904 -1.914 0.28
-9.441 -0.933 -1.913 0.29
-9.43 -0.962 -1.911 0.28
-9.444 -0.979 -1.914 0.27
-9.443 -1.009 -1.915 0.27
-9.426 -1.037 -1.912 0.29
-9.43 -1.067 -1.914 0.29
-9.421 -1.096 -1.912 0.28
-9.421 -1.126 -1.913 0.29
-9.41 -1.155 -1.912 0.33
-9.406 -1.184 -1.912 0.3
-9.405 -1.199 -1.912 0.32
-9.399 -1.228 -1.911 0.32
-9.391 -1.257 -1.91 0.32
-9.389 -1.287 -1.911 0.33
-9.391 -1.318 -1.912 0.32
-9.369 -1.344 -1.908 0.29
-9.376 -1.376 -1.911 0.32
-9.378 -1.391 -1.912 0.35
-9.381 -1.422 -1.913 0.32
-9.381 -1.452 -1.914 0.33
-9.38 -1.482 -1.915 0.34
-9.387 -1.513 -1.917 0.32
-9.403 -1.546 -1.922 0.34
-9.439 -1.583 -1.931 0.27
-9.467 -1.618 -1.938 0.36
-9.462 -1.632 -1.938 0.31
-9.467 -1.664 -1.94 0.3
-9.473 -1.696 -1.942 0.3
-9.46 -1.724 -1.94 0.45
-9.389 -1.741 -1.926 0.29
-9.27 -1.749 -1.901 0.35
-9.111 -1.748 -1.868 0.3
-8.976 -1.737 -1.839 0.35
-8.932 -1.757 -1.831 0.35
-8.9 -1.78 -1.825 0.29
-8.877 -1.804 -1.821 0.29
-8.881 -1.834 -1.823 0.31
-8.85 -1.857 -1.818 0.31
-8.833 -1.882 -1.815 0.47
-8.834 -1.897 -1.816 0.35
-8.828 -1.925 -1.816 0.54
-8.831 -1.954 -1.818 0.44
-8.859 -1.99 -1.825 0.43
-8.864 -2.02 -1.828 0.37
-8.877 -2.053 -1.832 0.37
-8.882 -2.083 -1.835 0.43
-8.864 -2.108 -1.832 0.31
-8.88 -2.127 -1.836 0.34
-8.949 -2.174 -1.853 0.33
-8.942 -2.202 -1.853 0.37
-8.937 -2.23 -1.854 0.31
-9.078 -2.296 -1.886 0.39
-9.015 -2.31 -1.874 0.3
-8.842 -2.295 -1.837 0.2
-7.923 -2.067 -1.634 0.44
-8.893 -2.353 -1.851 0.21
-9.084 -2.435 -1.895 0.34
-7.99 -2.165 -1.653 0.28
-8.918 -2.45 -1.862 0.14
-8.769 -2.438 -1.83 0.21
-8.992 -2.532 -1.882 0.21
-9.054 -2.58 -1.897 0.28
-8.982 -2.575 -1.882 0.3
-8.764 -2.541 -1.835 0.2
-9.022 -2.648 -1.895 0.21
-9.017 -2.677 -1.896 0.19
-9.073 -2.725 -1.91 0.52
-9.028 -2.742 -1.902 0.29
-9.047 -2.763 -1.907 0.29
-8.989 -2.777 -1.896 0.33
-8.934 -2.79 -1.886 0.27
-8.912 -2.814 -1.883 0.28
-8.859 -2.828 -1.872 0.3
-8.779 -2.832 -1.857 0.29
-8.685 -2.832 -1.837 0.29
-8.59 -2.831 -1.818 0.29
-8.43 -2.792 -1.783 0.21
-8.338 -2.79 -1.764 0.26
-8.266 -2.795 -1.75 0.0
-8.243 -2.816 -1.746 0.0
-9.068 -3.133 -1.936 0.09
-9.057 -3.161 -1.935 0.19
-9.078 -3.2 -1.943 0.27
-9.065 -3.212 -1.941 0.25
-9.061 -3.242 -1.942 0.25
-9.06 -3.274 -1.944 0.25
-9.059 -3.306 -1.946 0.26
-9.068 -3.342 -1.951 0.25
-9.067 -3.374 -1.953 0.27
-9.071 -3.408 -1.956 0.29
-9.057 -3.435 -1.956 0.28
-9.049 -3.448 -1.955 0.26
-9.028 -3.473 -1.953 0.29
-9.042 -3.511 -1.959 0.29
-9.038 -3.542 -1.96 0.29
-9.043 -3.577 -1.964 0.3
-9.021 -3.601 -1.961 0.32
-9.021 -3.634 -1.964 0.32
-9.039 -3.658 -1.969 0.37
-9.02 -3.683 -1.968 0.28
-9.028 -3.719 -1.972 0.35
-9.013 -3.746 -1.972 0.3
-9.024 -3.784 -1.977 0.37
-8.973 -3.796 -1.968 0.27
-9.004 -3.843 -1.978 0.33
-8.996 -3.856 -1.977 0.32
-8.973 -3.88 -1.975 0.27
-8.986 -3.919 -1.981 0.29
-8.943 -3.934 -1.974 0.38
-8.97 -3.979 -1.983 0.31
-8.963 -4.01 -1.984 0.3
-8.931 -4.029 -1.98 0.29
-8.903 -4.033 -1.974 0.3
-8.851 -4.043 -1.965 0.28
-8.835 -4.069 -1.964 0.28
-8.794 -4.084 -1.958 0.29
-8.795 -4.118 -1.961 0.29
-8.828 -4.168 -1.972 0.31
-8.718 -4.149 -1.949 0.29
-8.685 -4.167 -1.944 0.27
-8.698 -4.19 -1.949 0.3
-8.68 -4.215 -1.948 0.29
-8.67 -4.244 -1.948 0.3
-8.616 -4.251 -1.939 0.27
-8.596 -4.274 -1.937 0.29
-8.516 -4.268 -1.921 0.37
-8.43 -4.257 -1.904 0.31
-8.324 -4.22 -1.88 0.27
-8.293 -4.237 -1.875 0.26
-8.339 -4.294 -1.89 0.34
-8.311 -4.313 -1.886 0.3
-8.259 -4.319 -1.877 0.32
-8.189 -4.314 -1.863 0.3
-8.127 -4.314 -1.852 0.31
-8.072 -4.317 -1.841 0.33
-8.014 -4.302 -1.829 0.32
-7.952 -4.301 -1.817 0.34
-7.858 -4.282 -1.797 0.3
-7.79 -4.276 -1.784 0.27
-7.737 -4.279 -1.774 0.06
-7.684 -4.281 -1.765 0.0
-7.649 -4.293 -1.759 0.0
-8.316 -4.722 -1.929 0.21
-8.276 -4.733 -1.923 0.25
-8.242 -4.748 -1.918 0.32
-8.203 -4.76 -1.912 0.35
-8.17 -4.775 -1.908 0.34
-8.183 -4.818 -1.915 0.37
-8.099 -4.785 -1.896 0.29
-8.058 -4.795 -1.889 0.24
-8.068 -4.836 -1.896 0.39
-8.01 -4.834 -1.885 0.3
-7.929 -4.82 -1.868 0.34
-7.931 -4.855 -1.872 0.27
-7.914 -4.879 -1.872 0.36
-7.861 -4.863 -1.861 0.27
-7.888 -4.914 -1.871 0.45
-7.799 -4.893 -1.853 0.3
-7.774 -4.911 -1.85 0.27
-7.788 -4.954 -1.858 0.43
-7.736 -4.956 -1.849 0.34
-7.713 -4.974 -1.846 0.31
-7.679 -4.97 -1.84 0.29
-7.663 -4.994 -1.84 0.41
-7.618 -4.998 -1.832 0.29
-7.591 -5.015 -1.829 0.34
-7.55 -5.022 -1.823 0.25
-7.577 -5.074 -1.834 0.38
-7.527 -5.075 -1.825 0.27
-7.49 -5.084 -1.82 0.38
-7.448 -5.073 -1.811 0.28
-7.456 -5.113 -1.817 0.36
-7.438 -5.135 -1.817 0.27
-7.478 -5.198 -1.831 0.48
-7.438 -5.204 -1.825 0.28
-7.411 -5.22 -1.822 0.41
-7.448 -5.282 -1.836 0.26
-7.426 -5.283 -1.833 0.37
-7.418 -5.313 -1.835 0.32
-7.457 -5.377 -1.85 0.3
-7.421 -5.386 -1.845 0.29
-7.401 -5.407 -1.844 0.37
-7.39 -5.435 -1.846 0.34
-7.381 -5.464 -1.848 0.34
-7.39 -5.488 -1.852 0.38
-7.376 -5.514 -1.853 0.32
-7.375 -5.55 -1.858 0.34
-7.3 -5.529 -1.842 0.29
-7.323 -5.583 -1.853 0.35
-7.321 -5.618 -1.857 0.27
-7.331 -5.663 -1.865 0.34
-7.315 -5.687 -1.865 0.4
-7.289 -5.685 -1.861 0.31
-7.299 -5.73 -1.868 0.32
-7.272 -5.746 -1.866 0.4
-7.267 -5.779 -1.87 0.34
-7.234 -5.79 -1.865 0.33
-7.199 -5.799 -1.861 0.33
-7.164 -5.808 -1.856 0.36
-7.111 -5.783 -1.844 0.35
-7.046 -5.767 -1.831 0.3
-7.016 -5.779 -1.828 0.28
-6.984 -5.79 -1.824 0.27
-6.943 -5.793 -1.818 0.29
-6.915 -5.806 -1.815 0.3
-6.877 -5.811 -1.809 0.31
-6.861 -5.816 -1.807 0.3
-6.786 -5.789 -1.791 0.29
-6.774 -5.815 -1.793 0.31
-6.74 -5.824 -1.789 0.31
-6.682 -5.81 -1.777 0.31
-6.639 -5.809 -1.77 0.3
-6.608 -5.818 -1.766 0.3
-6.562 -5.796 -1.756 0.3
-6.539 -5.813 -1.755 0.31
-6.507 -5.82 -1.75 0.3
-6.449 -5.805 -1.739 0.29
-6.399 -5.796 -1.73 0.28
-6.353 -5.791 -1.722 0.28
-6.302 -5.781 -1.712 0.32
-6.267 -5.785 -1.707 0.3
-6.219 -5.758 -1.696 0.21
-6.202 -5.779 -1.696 0.3
-6.154 -5.771 -1.687 0.25
-6.13 -5.785 -1.686 0.0
-6.095 -5.788 -1.681 0.0
-6.558 -6.269 -1.824 0.04
-6.724 -6.469 -1.879 0.17
-6.684 -6.451 -1.87 0.27
-6.669 -6.477 -1.872 0.32
-6.65 -6.5 -1.872 0.32
-6.603 -6.494 -1.865 0.26
-6.598 -6.53 -1.869 0.32
-6.582 -6.555 -1.87 0.33
-6.568 -6.583 -1.872 0.41
-6.521 -6.555 -1.861 0.27
-6.489 -6.565 -1.858 0.39
-6.498 -6.616 -1.867 0.38
-6.499 -6.659 -1.874 0.32
-6.474 -6.675 -1.872 0.34
-6.433 -6.674 -1.866 0.31
-6.446 -6.729 -1.877 0.43
-6.383 -6.706 -1.864 0.35
-6.356 -6.699 -1.859 0.27
-6.367 -6.753 -1.869 0.31
-6.359 -6.787 -1.873 0.45
-6.349 -6.818 -1.876 0.38
-6.27 -6.777 -1.858 0.32
-6.242 -6.789 -1.856 0.34
-6.231 -6.82 -1.859 0.33
-6.225 -6.834 -1.861 0.38
-6.236 -6.89 -1.871 0.4
-6.182 -6.873 -1.861 0.38
-6.139 -6.869 -1.854 0.35
-6.127 -6.899 -1.857 0.28
-6.129 -6.946 -1.865 0.42
-6.104 -6.961 -1.864 0.32
-6.094 -6.972 -1.864 0.36
-6.068 -6.986 -1.863 0.27
-6.079 -7.044 -1.874 0.5
-6.052 -7.057 -1.872 0.27
-5.99 -7.028 -1.859 0.48
-5.978 -7.059 -1.862 0.35
-5.957 -7.079 -1.862 0.36
-5.918 -7.079 -1.857 0.34
-5.899 -7.079 -1.854 0.28
-5.872 -7.091 -1.853 0.35
-5.83 -7.085 -1.846 0.3
-5.802 -7.096 -1.844 0.3
-5.795 -7.134 -1.849 0.42
-5.772 -7.151 -1.849 0.25
-5.75 -7.17 -1.849 0.16
-5.715 -7.149 -1.841 0.47
-5.689 -7.162 -1.84 0.52
-5.728 -7.258 -1.861 0.36
-5.7 -7.27 -1.859 0.37
-5.668 -7.276 -1.856 0.34
-5.624 -7.267 -1.849 0.36
-5.574 -7.249 -1.839 0.31
-5.544 -7.233 -1.833 0.32
-5.513 -7.239 -1.83 0.28
-5.482 -7.246 -1.827 0.29
-5.452 -7.253 -1.824 0.31
-5.418 -7.255 -1.82 0.3
-5.389 -7.264 -1.818 0.31
-5.356 -7.267 -1.814 0.32
-5.34 -7.269 -1.812 0.32
-5.292 -7.251 -1.803 0.33
-5.25 -7.242 -1.797 0.29
-5.213 -7.238 -1.791 0.31
-5.206 -7.276 -1.797 0.33
-5.168 -7.272 -1.791 0.33
-5.139 -7.278 -1.789 0.34
-5.113 -7.266 -1.784 0.34
-5.079 -7.266 -1.779 0.34
-5.047 -7.269 -1.776 0.34
-5.012 -7.267 -1.771 0.35
-4.977 -7.265 -1.767 0.33
-4.943 -7.264 -1.763 0.34
-4.915 -7.271 -1.76 0.34
-4.894 -7.265 -1.757 0.34
-4.863 -7.268 -1.754 0.34
-4.825 -7.261 -1.748 0.34
-4.793 -7.261 -1.744 0.34
-4.762 -7.263 -1.741 0.32
-4.729 -7.263 -1.737 0.32
-4.692 -7.255 -1.731 0.32
-4.654 -7.247 -1.725 0.32
-4.631 -7.236 -1.721 0.34
-4.594 -7.227 -1.715 0.34
-4.556 -7.218 -1.709 0.3
-4.528 -7.223 -1.706 0.36
-4.492 -7.217 -1.701 0.3
-4.464 -7.221 -1.699 0.32
-4.432 -7.22 -1.695 0.32
-4.418 -7.224 -1.694 0.35
-4.4 -7.244 -1.696 0.37
-4.361 -7.231 -1.689 0.3
-4.322 -7.218 -1.682 0.23
-4.306 -7.243 -1.685 0.27
-4.269 -7.231 -1.679 0.24
-4.251 -7.253 -1.681 0.11
-4.267 -7.307 -1.693 0.0
-4.313 -7.441 -1.723 0.0
-4.475 -7.779 -1.803 0.11
-4.481 -7.846 -1.816 0.15
-4.463 -7.872 -1.819 0.3
-4.407 -7.829 -1.805 0.33
-4.389 -7.857 -1.808 0.43
-4.385 -7.877 -1.812 0.38
-4.364 -7.898 -1.813 0.32
-4.334 -7.903 -1.811 0.37
-4.318 -7.932 -1.815 0.24
-4.284 -7.928 -1.811 0.53
-4.261 -7.947 -1.812 0.42
-4.224 -7.938 -1.807 0.34
-4.18 -7.915 -1.798 0.55
-4.18 -7.944 -1.803 0.32
-4.145 -7.938 -1.799 0.45
-4.117 -7.945 -1.797 0.44
-4.095 -7.964 -1.799 0.33
-4.065 -7.966 -1.796 0.31
-4.047 -7.994 -1.8 0.36
-4.015 -7.993 -1.797 0.4
-3.998 -7.989 -1.794 0.38
-3.957 -7.97 -1.786 0.34
-3.94 -7.998 -1.79 0.41
-3.905 -7.991 -1.786 0.34
-3.877 -7.998 -1.784 0.36
-3.846 -7.998 -1.781 0.36
-3.82 -8.006 -1.781 0.39
-3.804 -8.005 -1.779 0.37
-3.768 -7.994 -1.773 0.38
-3.736 -7.992 -1.77 0.36
-3.705 -7.991 -1.767 0.37
-3.673 -7.986 -1.763 0.36
-3.641 -7.984 -1.76 0.37
-3.614 -7.992 -1.759 0.35
-3.6 -7.994 -1.758 0.36
-3.57 -7.992 -1.755 0.36
-3.537 -7.987 -1.752 0.38
-3.508 -7.988 -1.749 0.38
-3.477 -7.986 -1.746 0.36
-3.446 -7.983 -1.743 0.39
-3.418 -7.988 -1.742 0.41
-3.391 -7.993 -1.74 0.38
-3.375 -7.99 -1.738 0.36
-3.34 -7.977 -1.733 0.3
-3.313 -7.984 -1.732 0.38
-3.281 -7.976 -1.728 0.39
-3.253 -7.979 -1.726 0.38
-3.224 -7.98 -1.724 0.38
-3.198 -7.988 -1.723 0.38
-3.182 -7.984 -1.721 0.37
-3.15 -7.976 -1.717 0.37
-3.121 -7.977 -1.715 0.37
-3.091 -7.974 -1.712 0.37
-3.062 -7.972 -1.71 0.38
-3.036 -7.978 -1.709 0.43
-3.006 -7.975 -1.706 0.36
-2.989 -7.969 -1.703 0.38
-2.959 -7.965 -1.7 0.37
-2.932 -7.967 -1.699 0.39
-2.904 -7.969 -1.697 0.38
-2.873 -7.961 -1.693 0.39
-2.848 -7.97 -1.693 0.42
-2.821 -7.974 -1.692 0.35
-2.806 -7.973 -1.691 0.4
-2.778 -7.97 -1.688 0.38
-2.748 -7.966 -1.685 0.36
-2.719 -7.964 -1.683 0.38
-2.693 -7.968 -1.682 0.39
-2.664 -7.966 -1.679 0.36
-2.635 -7.961 -1.676 0.39
-2.621 -7.961 -1.676 0.34
-2.594 -7.964 -1.674 0.38
-2.57 -7.974 -1.675 0.38
-2.54 -7.967 -1.671 0.38
-2.513 -7.969 -1.67 0.39
-2.486 -7.97 -1.668 0.39
-2.459 -7.97 -1.667 0.38
-2.431 -7.968 -1.665 0.35
-2.414 -7.959 -1.662 0.38
-2.389 -7.965 -1.661 0.35
-2.36 -7.959 -1.658 0.36
-2.333 -7.959 -1.657 0.42
-2.308 -7.966 -1.657 0.37
-2.281 -7.968 -1.655 0.34
-2.251 -7.956 -1.651 0.37
-2.239 -7.962 -1.652 0.37
-2.213 -7.967 -1.651 0.38
-2.186 -7.964 -1.649 0.38
-2.158 -7.96 -1.647 0.36
-2.13 -7.957 -1.645 0.39
-2.105 -7.964 -1.645 0.36
-2.079 -7.966 -1.644 0.39
-2.066 -7.968 -1.643 0.38
-2.04 -7.968 -1.642 0.38
-2.013 -7.969 -1.641 0.37
-1.987 -7.972 -1.64 0.36
-1.962 -7.976 -1.64 0.34
-1.937 -7.982 -1.64 0.37
-1.91 -7.982 -1.638 0.35
-1.899 -7.989 -1.639 0.35
-1.873 -7.995 -1.639 0.32
-1.848 -8.001 -1.639 0.33
-1.822 -8.001 -1.638 0.35
-1.798 -8.014 -1.64 0.3
-1.774 -8.022 -1.64 0.33
-1.75 -8.033 -1.641 0.36
-1.727 -8.052 -1.644 0.33
-1.713 -8.045 -1.642 0.35
-1.692 -8.071 -1.647 0.33
-1.669 -8.092 -1.65 0.38
-1.646 -8.107 -1.652 0.27
-1.62 -8.108 -1.651 0.46
-1.595 -8.115 -1.652 0.34
-1.569 -8.122 -1.652 0.41
-1.561 -8.146 -1.657 0.38
-1.531 -8.127 -1.652 0.25
-1.5 -8.105 -1.646 0.45
-1.475 -8.112 -1.646 0.49
-1.451 -8.126 -1.648 0.38
-1.424 -8.121 -1.646 0.45
-1.394 -8.096 -1.64 0.38
-1.381 -8.097 -1.64 0.43
-1.355 -8.097 -1.639 0.55
-1.331 -8.115 -1.642 0.48
-1.311 -8.154 -1.649 0.35
-1.285 -8.152 -1.648 0.42
-1.26 -8.162 -1.649 0.34
-1.234 -8.162 -1.648 0.45
-1.219 -8.152 -1.646 0.39
-1.194 -8.158 -1.646 0.39
-1.167 -8.15 -1.644 0.36
-1.134 -8.098 -1.632 0.35
-1.107 -8.095 -1.63 0.55
-1.09 -8.163 -1.644 0.27
-1.057 -8.106 -1.631 0.54
-1.043 -8.096 -1.629 0.33
-1.02 -8.122 -1.634 0.52
-1.001 -8.176 -1.645 0.34
-0.975 -8.183 -1.645 0.45
-0.947 -8.167 -1.641 0.41
-0.923 -8.177 -1.643 0.38
-0.892 -8.134 -1.633 0.38
-0.881 -8.156 -1.637 0.35
-0.855 -8.151 -1.636 0.43
-0.828 -8.142 -1.633 0.33
-0.804 -8.162 -1.637 0.48
-0.779 -8.169 -1.638 0.29
-0.753 -8.161 -1.636 0.52
-0.726 -8.158 -1.634 0.32
-0.714 -8.167 -1.636 0.39
-0.688 -8.163 -1.635 0.46
-0.662 -8.163 -1.634 0.36
-0.638 -8.177 -1.637 0.44
-0.612 -8.183 -1.638 0.34
-0.587 -8.189 -1.639 0.42
-0.561 -8.191 -1.639 0.39
-0.535 -8.188 -1.638 0.41
-0.522 -8.193 -1.639 0.34
-0.496 -8.185 -1.637 0.44
-0.47 -8.183 -1.636 0.35
-0.444 -8.182 -1.635 0.45
-0.418 -8.174 -1.633 0.41
-0.392 -8.167 -1.632 0.36
-0.366 -8.157 -1.629 0.45
-0.353 -8.161 -1.63 0.32
-0.326 -8.117 -1.62 0.53
-0.299 -8.087 -1.614 0.32
-0.275 -8.121 -1.621 0.52
-0.251 -8.192 -1.636 0.37
-0.226 -8.197 -1.637 0.47
-0.2 -8.213 -1.64 0.36
-0.187 -8.208 -1.639 0.39
-0.162 -8.206 -1.638 0.39
-0.136 -8.209 -1.639 0.47
-0.11 -8.195 -1.636 0.36
-0.084 -8.199 -1.637 0.45
-0.058 -8.19 -1.634 0.35
-0.033 -8.192 -1.635 0.43
-0.02 -8.19 -1.634 0.41
0.006 -8.196 -1.636 0.32
0.032 -8.2 -1.637 0.43
0.058 -8.223 -1.642 0.41
0.084 -8.227 -1.642 0.35
0.109 -8.215 -1.64 0.48
0.135 -8.226 -1.642 0.27
0.161 -8.202 -1.637 0.48
0.173 -8.196 -1.636 0.34
0.2 -8.211 -1.64 0.44
0.225 -8.209 -1.639 0.38
0.249 -8.151 -1.627 0.41
0.276 -8.191 -1.636 0.38
0.303 -8.214 -1.641 0.42
0.329 -8.215 -1.641 0.38
0.341 -8.208 -1.64 0.39
0.368 -8.215 -1.642 0.4
0.393 -8.208 -1.64 0.35
0.419 -8.199 -1.639 0.46
0.444 -8.2 -1.639 0.38
0.47 -8.19 -1.637 0.43
0.495 -8.183 -1.636 0.34
0.507 -8.167 -1.633 0.45
0.533 -8.165 -1.633 0.41
0.558 -8.161 -1.632 0.42
0.584 -8.167 -1.634 0.41
0.609 -8.154 -1.632 0.38
0.634 -8.148 -1.631 0.39
0.66 -8.144 -1.63 0.38
0.67 -8.118 -1.625 0.29
0.693 -8.086 -1.619 0.52
0.718 -8.08 -1.618 0.3
0.743 -8.068 -1.616 0.48
0.768 -8.066 -1.616 0.3
0.794 -8.071 -1.617 0.5
0.818 -8.055 -1.614 0.38
0.828 -8.03 -1.609 0.34
0.852 -8.014 -1.606 0.34
0.877 -8.013 -1.607 0.38
0.9 -7.987 -1.602 0.35
0.925 -7.984 -1.602 0.32
0.95 -7.981 -1.602 0.32
0.975 -7.978 -1.602 0.33
0.987 -7.973 -1.601 0.34
1.01 -7.956 -1.598 0.34
1.035 -7.949 -1.597 0.35
1.06 -7.944 -1.597 0.33
1.083 -7.931 -1.595 0.34
1.11 -7.941 -1.598 0.34
1.133 -7.926 -1.595 0.33
1.158 -7.924 -1.595 0.34
1.171 -7.924 -1.596 0.36
1.197 -7.924 -1.597 0.37
1.222 -7.921 -1.597 0.38
1.246 -7.911 -1.595 0.34
1.271 -7.909 -1.596 0.36
1.297 -7.912 -1.598 0.37
1.322 -7.908 -1.598 0.4
1.335 -7.91 -1.598 0.33
1.36 -7.908 -1.599 0.4
1.386 -7.909 -1.6 0.38
1.411 -7.909 -1.601 0.39
1.437 -7.906 -1.601 0.39
1.463 -7.911 -1.603 0.38
1.49 -7.918 -1.606 0.38
1.502 -7.91 -1.605 0.38
1.529 -7.921 -1.608 0.38
1.554 -7.916 -1.608 0.38
1.578 -7.907 -1.607 0.4
1.604 -7.906 -1.608 0.31
1.631 -7.91 -1.61 0.36
1.653 -7.894 -1.608 0.36
1.669 -7.906 -1.611 0.39
1.698 -7.92 -1.615 0.38
1.72 -7.902 -1.612 0.4
1.748 -7.909 -1.615 0.38
1.774 -7.91 -1.616 0.36
1.798 -7.9 -1.616 0.36
1.823 -7.898 -1.616 0.36
1.839 -7.911 -1.62 0.37
1.864 -7.903 -1.619 0.38
1.891 -7.908 -1.622 0.38
1.92 -7.918 -1.625 0.37
1.941 -7.896 -1.622 0.35
1.97 -7.905 -1.625 0.35
1.998 -7.912 -1.628 0.37
2.01 -7.907 -1.628 0.36
2.036 -7.907 -1.629 0.38
2.066 -7.919 -1.633 0.37
2.09 -7.911 -1.633 0.36
2.118 -7.916 -1.635 0.41
2.144 -7.913 -1.636 0.37
2.167 -7.9 -1.635 0.34
2.195 -7.905 -1.637 0.38
2.21 -7.909 -1.639 0.35
2.236 -7.905 -1.64 0.41
2.265 -7.912 -1.643 0.34
2.292 -7.912 -1.645 0.36
2.315 -7.901 -1.644 0.36
2.345 -7.91 -1.648 0.35
2.374 -7.916 -1.65 0.41
2.384 -7.905 -1.649 0.35
2.414 -7.914 -1.653 0.36
2.44 -7.91 -1.653 0.36
2.469 -7.914 -1.656 0.43
2.496 -7.913 -1.658 0.37
2.521 -7.907 -1.658 0.35
2.547 -7.901 -1.658 0.37
2.564 -7.914 -1.662 0.41
2.59 -7.908 -1.663 0.38
2.62 -7.914 -1.666 0.38
2.648 -7.917 -1.668 0.34
2.674 -7.913 -1.669 0.34
2.702 -7.912 -1.671 0.34
2.728 -7.907 -1.672 0.36
2.741 -7.904 -1.672 0.35
2.769 -7.905 -1.674 0.37
2.795 -7.9 -1.675 0.36
2.821 -7.895 -1.676 0.33
2.852 -7.902 -1.68 0.34
2.882 -7.908 -1.683 0.36
2.909 -7.904 -1.684 0.35
2.926 -7.911 -1.687 0.37
2.951 -7.902 -1.687 0.35
2.979 -7.901 -1.689 0.35
3.01 -7.908 -1.693 0.34
3.037 -7.904 -1.694 0.32
3.066 -7.906 -1.697 0.39
3.093 -7.902 -1.698 0.37
3.108 -7.904 -1.7 0.32
3.137 -7.903 -1.702 0.35
3.162 -7.895 -1.702 0.36
3.195 -7.905 -1.707 0.4
3.22 -7.895 -1.707 0.35
3.25 -7.898 -1.71 0.42
3.273 -7.882 -1.708 0.33
3.29 -7.889 -1.711 0.45
3.324 -7.901 -1.716 0.38
3.355 -7.903 -1.719 0.43
3.373 -7.878 -1.716 0.25
3.413 -7.903 -1.724 0.46
3.434 -7.881 -1.722 0.47
3.454 -7.862 -1.72 0.35
3.488 -7.87 -1.724 0.41
3.508 -7.883 -1.729 0.39
3.53 -7.865 -1.727 0.25
3.575 -7.9 -1.738 0.52
3.599 -7.887 -1.737 0.35
3.606 -7.836 -1.728 0.12
3.631 -7.825 -1.728 0.19
3.633 -7.766 -1.717 0.05
3.5 -7.454 -1.644 0.11
3.397 -7.178 -1.581 0.18
3.41 -7.148 -1.577 0.21
3.435 -7.141 -1.577 0.25
3.462 -7.141 -1.58 0.28
3.487 -7.135 -1.581 0.27
3.514 -7.133 -1.583 0.29
3.526 -7.129 -1.584 0.3
3.555 -7.13 -1.587 0.28
3.586 -7.137 -1.591 0.35
3.607 -7.124 -1.59 0.31
3.639 -7.13 -1.595 0.37
3.658 -7.113 -1.593 0.31
3.692 -7.124 -1.599 0.36
3.711 -7.132 -1.602 0.35
3.737 -7.127 -1.604 0.32
3.767 -7.131 -1.608 0.31
3.804 -7.145 -1.614 0.31
3.836 -7.152 -1.619 0.34
3.862 -7.145 -1.62 0.34
3.886 -7.136 -1.621 0.29
3.91 -7.154 -1.627 0.37
3.935 -7.145 -1.627 0.32
3.973 -7.162 -1.634 0.36
3.999 -7.154 -1.636 0.31
4.025 -7.149 -1.637 0.32
4.055 -7.149 -1.641 0.32
4.086 -7.152 -1.645 0.36
4.11 -7.141 -1.645 0.3
4.132 -7.153 -1.65 0.32
4.161 -7.152 -1.653 0.38
4.191 -7.15 -1.655 0.31
4.227 -7.161 -1.661 0.37
4.257 -7.159 -1.664 0.3
4.282 -7.151 -1.666 0.37
4.314 -7.152 -1.669 0.35
4.331 -7.156 -1.672 0.3
4.358 -7.149 -1.674 0.39
4.353 -7.092 -1.663 0.32
4.399 -7.116 -1.672 0.29
4.428 -7.112 -1.675 0.31
4.481 -7.146 -1.687 0.34
4.506 -7.137 -1.688 0.32
4.518 -7.132 -1.689 0.33
4.552 -7.135 -1.693 0.32
4.582 -7.133 -1.696 0.29
4.606 -7.12 -1.697 0.3
4.635 -7.117 -1.7 0.3
4.655 -7.097 -1.698 0.3
4.688 -7.099 -1.702 0.3
4.759 -7.181 -1.726 0.31
4.782 -7.168 -1.726 0.29
4.806 -7.154 -1.726 0.23
4.82 -7.128 -1.723 0.53
4.858 -7.135 -1.729 0.41
4.89 -7.133 -1.733 0.35
4.904 -7.106 -1.73 0.36
4.921 -7.106 -1.732 0.39
4.932 -7.075 -1.728 0.3
4.937 -7.035 -1.721 0.3
4.936 -6.986 -1.713 0.27
4.951 -6.961 -1.71 0.31
4.978 -6.954 -1.712 0.34
5.003 -6.943 -1.713 0.3
5.018 -6.917 -1.711 0.3
5.033 -6.914 -1.712 0.32
5.051 -6.894 -1.711 0.32
5.062 -6.864 -1.707 0.23
5.116 -6.892 -1.719 0.29
5.144 -6.883 -1.721 0.34
5.167 -6.869 -1.721 0.39
5.214 -6.909 -1.734 0.33
5.231 -6.886 -1.733 0.32
5.263 -6.884 -1.736 0.39
5.275 -6.855 -1.733 0.27
5.305 -6.849 -1.736 0.36
5.322 -6.826 -1.734 0.34
5.345 -6.811 -1.735 0.26
5.332 -6.773 -1.727 0.2
5.357 -6.761 -1.728 0.54
5.361 -6.723 -1.722 0.3
5.359 -6.677 -1.714 0.37
5.435 -6.729 -1.733 0.48
5.422 -6.669 -1.721 0.39
5.474 -6.69 -1.732 0.31
5.461 -6.653 -1.724 0.34
5.473 -6.625 -1.721 0.32
5.49 -6.603 -1.72 0.35
5.5 -6.574 -1.716 0.25
5.516 -6.551 -1.715 0.38
5.53 -6.526 -1.713 0.39
5.547 -6.504 -1.711 0.4
5.57 -6.489 -1.712 0.2
5.601 -6.504 -1.719 0.43
5.595 -6.457 -1.71 0.27
5.65 -6.479 -1.722 0.51
5.664 -6.454 -1.72 0.29
5.643 -6.39 -1.706 0.31
5.665 -6.375 -1.707 0.38
5.701 -6.374 -1.712 0.36
5.701 -6.354 -1.709 0.3
5.721 -6.336 -1.709 0.36
5.739 -6.316 -1.708 0.35
5.775 -6.316 -1.713 0.0
5.647 -6.138 -1.667 0.02
5.252 -5.675 -1.536 0.11
5.27 -5.659 -1.536 0.17
5.277 -5.649 -1.536 0.22
5.308 -5.647 -1.54 0.25
5.338 -5.643 -1.544 0.28
5.374 -5.644 -1.549 0.31
5.398 -5.634 -1.551 0.31
5.428 -5.63 -1.555 0.31
5.474 -5.642 -1.564 0.31
5.501 -5.652 -1.569 0.27
5.543 -5.66 -1.577 0.29
5.578 -5.659 -1.582 0.31
5.613 -5.659 -1.587 0.32
5.638 -5.649 -1.59 0.29
5.674 -5.649 -1.595 0.32
5.717 -5.656 -1.603 0.34
5.742 -5.663 -1.608 0.29
5.78 -5.664 -1.614 0.3
5.82 -5.668 -1.62 0.36
5.855 -5.666 -1.625 0.33
5.86 -5.635 -1.621 0.29
5.885 -5.623 -1.624 0.29
5.939 -5.64 -1.634 0.3
5.986 -5.666 -1.646 0.32
6.013 -5.656 -1.648 0.3
6.043 -5.649 -1.652 0.32
6.068 -5.636 -1.654 0.29
6.089 -5.62 -1.655 0.29
6.109 -5.603 -1.656 0.29
6.162 -5.616 -1.666 0.3
6.201 -5.616 -1.672 0.3
6.229 -5.623 -1.678 0.41
6.241 -5.598 -1.676 0.31
6.239 -5.562 -1.671 0.26
6.263 -5.547 -1.672 0.32
6.239 -5.492 -1.661 0.25
6.303 -5.513 -1.674 0.34
6.322 -5.494 -1.674 0.29
6.353 -5.504 -1.681 0.37
6.352 -5.468 -1.676 0.27
6.356 -5.437 -1.672 0.3
6.383 -5.426 -1.675 0.24
6.412 -5.416 -1.678 0.3
6.416 -5.384 -1.674 0.27
6.461 -5.388 -1.682 0.34
6.465 -5.374 -1.681 0.32
6.475 -5.347 -1.679 0.32
6.484 -5.321 -1.677 0.27
6.455 -5.264 -1.664 0.23
6.461 -5.235 -1.661 0.27
6.515 -5.245 -1.672 0.45
6.506 -5.204 -1.665 0.29
6.473 -5.161 -1.653 0.3
6.469 -5.125 -1.648 0.25
6.482 -5.102 -1.647 0.38
6.485 -5.072 -1.644 0.28
6.489 -5.042 -1.64 0.3
6.516 -5.03 -1.643 0.36
6.559 -5.031 -1.651 0.26
6.553 -5.01 -1.647 0.49
6.502 -4.939 -1.629 0.36
6.514 -4.916 -1.628 0.35
6.572 -4.927 -1.64 0.36
6.608 -4.921 -1.645 0.36
6.622 -4.899 -1.645 0.29
6.645 -4.884 -1.647 0.3
6.67 -4.87 -1.649 0.35
6.684 -4.864 -1.651 0.43
6.674 -4.825 -1.644 0.29
6.701 -4.813 -1.648 0.32
6.72 -4.794 -1.648 0.36
6.732 -4.771 -1.648 0.36
6.729 -4.737 -1.643 0.26
6.765 -4.731 -1.648 0.35
6.762 -4.713 -1.646 0.29
6.792 -4.702 -1.65 0.33
6.827 -4.695 -1.655 0.33
6.863 -4.688 -1.661 0.38
6.881 -4.669 -1.661 0.25
6.961 -4.69 -1.678 0.34
7.005 -4.688 -1.686 0.39
7.03 -4.689 -1.69 0.29
7.053 -4.672 -1.692 0.37
7.077 -4.656 -1.695 0.3
7.09 -4.633 -1.695 0.4
7.098 -4.607 -1.693 0.41
7.147 -4.606 -1.702 0.37
7.181 -4.596 -1.707 0.34
7.25 -4.624 -1.722 0.32
7.278 -4.609 -1.726 0.39
7.269 -4.572 -1.72 0.29
7.321 -4.573 -1.729 0.43
7.166 -4.445 -1.687 0.0
7.27 -4.478 -1.709 0.0
6.751 -4.116 -1.574 0.06
6.777 -4.103 -1.577 0.18
6.818 -4.099 -1.584 0.27
6.861 -4.096 -1.592 0.31
6.908 -4.094 -1.6 0.29
6.98 -4.107 -1.615 0.31
7.04 -4.112 -1.627 0.32
7.089 -4.125 -1.637 0.32
7.134 -4.122 -1.645 0.32
7.191 -4.124 -1.656 0.32
7.245 -4.125 -1.666 0.32
7.283 -4.116 -1.672 0.31
7.342 -4.119 -1.684 0.35
7.381 -4.11 -1.69 0.35
7.414 -4.098 -1.695 0.31
7.441 -4.098 -1.7 0.29
7.463 -4.079 -1.702 0.24
7.534 -4.087 -1.716 0.25
7.607 -4.096 -1.731 0.43
7.579 -4.05 -1.721 0.23
7.56 -4.01 -1.713 0.45
7.592 -3.996 -1.718 0.25
7.567 -3.968 -1.71 0.31
7.597 -3.953 -1.715 0.4
7.63 -3.94 -1.72 0.35
7.675 -3.933 -1.728 0.23
7.737 -3.933 -1.739 0.38
7.723 -3.896 -1.733 0.31
7.723 -3.865 -1.73 0.36
7.729 -3.853 -1.73 0.34
7.741 -3.829 -1.73 0.34
7.74 -3.799 -1.727 0.32
7.682 -3.74 -1.71 0.27
7.725 -3.731 -1.718 0.35
7.757 -3.716 -1.723 0.36
7.75 -3.683 -1.718 0.32
7.742 -3.665 -1.715 0.33
7.766 -3.646 -1.718 0.38
7.768 -3.618 -1.716 0.31
7.778 -3.592 -1.716 0.35
7.78 -3.564 -1.713 0.32
7.802 -3.544 -1.716 0.32
7.769 -3.5 -1.705 0.35
7.821 -3.508 -1.716 0.31
7.835 -3.485 -1.717 0.31
7.857 -3.465 -1.72 0.31
7.862 -3.438 -1.718 0.32
7.871 -3.413 -1.718 0.3
7.88 -3.387 -1.718 0.32
7.898 -3.365 -1.719 0.32
7.918 -3.359 -1.723 0.32
7.934 -3.337 -1.724 0.32
7.94 -3.31 -1.723 0.35
7.947 -3.284 -1.722 0.34
7.948 -3.255 -1.72 0.29
7.964 -3.232 -1.721 0.36
7.954 -3.199 -1.717 0.36
7.965 -3.189 -1.718 0.27
8.0 -3.174 -1.724 0.4
7.97 -3.133 -1.715 0.22
8.002 -3.116 -1.72 0.38
8.022 -3.095 -1.722 0.27
8.025 -3.068 -1.721 0.34
8.018 -3.036 -1.717 0.27
8.103 -3.054 -1.735 0.34
8.067 -3.011 -1.725 0.3
8.104 -2.996 -1.731 0.4
7.968 -2.918 -1.698 0.0
8.132 -2.948 -1.733 0.0
7.288 -2.619 -1.539 0.02
7.305 -2.6 -1.541 0.17
7.373 -2.597 -1.554 0.25
7.428 -2.604 -1.566 0.25
7.586 -2.632 -1.6 0.29
7.656 -2.629 -1.614 0.3
7.727 -2.626 -1.628 0.3
7.806 -2.625 -1.644 0.3
7.853 -2.613 -1.653 0.28
7.839 -2.581 -1.648 0.31
7.822 -2.562 -1.643 0.35
7.815 -2.533 -1.64 0.34
7.885 -2.528 -1.654 0.32
7.964 -2.525 -1.67 0.25
8.046 -2.524 -1.687 0.34
8.06 -2.5 -1.688 0.39
8.081 -2.479 -1.691 0.25
8.103 -2.472 -1.695 0.45
8.102 -2.443 -1.693 0.27
8.042 -2.398 -1.678 0.35
8.089 -2.384 -1.687 0.35
8.075 -2.353 -1.682 0.36
8.075 -2.325 -1.68 0.27
8.086 -2.301 -1.681 0.52
8.08 -2.272 -1.678 0.34
8.012 -2.239 -1.662 0.33
8.076 -2.23 -1.675 0.31
8.054 -2.197 -1.668 0.26
7.938 -2.139 -1.641 0.4
7.924 -2.108 -1.637 0.37
7.969 -2.093 -1.645 0.34
7.981 -2.07 -1.646 0.38
7.961 -2.051 -1.641 0.37
7.945 -2.02 -1.636 0.38
7.997 -2.007 -1.646 0.34
7.988 -1.978 -1.643 0.39
7.983 -1.95 -1.64 0.34
8.012 -1.93 -1.645 0.46
7.997 -1.9 -1.641 0.34
7.96 -1.878 -1.632 0.38
7.956 -1.851 -1.63 0.36
7.977 -1.83 -1.633 0.36
7.979 -1.804 -1.632 0.37
7.954 -1.772 -1.626 0.42
7.963 -1.748 -1.627 0.32
7.969 -1.723 -1.627 0.4
7.91 -1.697 -1.613 0.37
7.904 -1.67 -1.611 0.31
7.909 -1.645 -1.611 0.31
7.913 -1.62 -1.61 0.29
7.923 -1.596 -1.611 0.35
7.917 -1.569 -1.609 0.3
7.962 -1.552 -1.618 0.32
8.062 -1.558 -1.639 0.32
8.167 -1.551 -1.661 0.39
8.261 -1.542 -1.68 0.3
8.308 -1.524 -1.689 0.33
8.312 -1.498 -1.689 0.35
8.313 -1.471 -1.689 0.34
8.324 -1.446 -1.69 0.34
8.332 -1.42 -1.691 0.28
8.311 -1.403 -1.686 0.27
8.281 -1.371 -1.678 0.56
8.291 -1.346 -1.679 0.39
8.274 -1.317 -1.675 0.3
8.284 -1.292 -1.676 0.36
8.274 -1.264 -1.673 0.31
8.282 -1.238 -1.674 0.37
8.286 -1.226 -1.674 0.33
8.288 -1.199 -1.674 0.35
8.264 -1.17 -1.668 0.28
8.276 -1.145 -1.67 0.36
8.275 -1.118 -1.669 0.34
8.271 -1.091 -1.667 0.32
8.296 -1.068 -1.672 0.36
8.292 -1.054 -1.671 0.29
8.303 -1.029 -1.672 0.35
8.3 -1.002 -1.671 0.29
8.311 -0.977 -1.673 0.31
8.31 -0.95 -1.672 0.3
8.321 -0.925 -1.674 0.34
8.327 -0.899 -1.674 0.3
8.331 -0.887 -1.675 0.31
8.33 -0.86 -1.674 0.3
8.348 -0.835 -1.677 0.29
8.345 -0.809 -1.676 0.3
8.328 -0.781 -1.672 0.28
8.344 -0.756 -1.675 0.32
8.334 -0.728 -1.672 0.28
8.334 -0.715 -1.672 0.32
8.334 -0.689 -1.671 0.29
8.334 -0.662 -1.671 0.29
8.332 -0.636 -1.67 0.3
8.33 -0.609 -1.669 0.29
8.324 -0.583 -1.668 0.29
8.324 -0.557 -1.667 0.31
8.325 -0.543 -1.667 0.3
8.315 -0.517 -1.665 0.27
8.307 -0.49 -1.663 0.31
8.306 -0.464 -1.662 0.31
8.304 -0.437 -1.661 0.32
8.299 -0.411 -1.66 0.34
8.297 -0.385 -1.659 0.31
8.301 -0.372 -1.66 0.34
8.289 -0.345 -1.657 0.33
8.297 -0.32 -1.659 0.34
8.281 -0.293 -1.655 0.29
8.288 -0.267 -1.656 0.36
8.279 -0.241 -1.654 0.27
8.287 -0.215 -1.656 0.38
8.282 -0.202 -1.655 0.31
8.288 -0.176 -1.656 0.38
8.302 -0.15 -1.659 0.32
8.289 -0.124 -1.656 0.29
8.299 -0.098 -1.658 0.38
8.288 -0.072 -1.655 0.31
8.298 -0.046 -1.658 0.37
8.284 -0.02 -1.655 0.28
8.284 -0.007 -1.655 0.35
7.961 0.023 -1.651 0.31
7.963 0.048 -1.651 0.31
7.965 0.061 -1.652 0.34
7.957 0.086 -1.65 0.35
7.957 0.111 -1.65 0.34
7.956 0.136 -1.65 0.32
7.958 0.161 -1.65 0.33
7.961 0.186 -1.651 0.34
7.953 0.211 -1.649 0.32
7.952 0.236 -1.649 0.33
7.955 0.248 -1.65 0.34
7.958 0.273 -1.651 0.31
7.961 0.298 -1.652 0.32
7.951 0.323 -1.65 0.29
7.963 0.349 -1.653 0.35
7.958 0.373 -1.652 0.28
7.975 0.399 -1.656 0.33
7.972 0.412 -1.656 0.3
7.971 0.437 -1.656 0.32
7.981 0.462 -1.658 0.34
7.98 0.488 -1.658 0.29
7.988 0.513 -1.66 0.29
7.998 0.539 -1.663 0.3
7.996 0.564 -1.663 0.29
7.993 0.577 -1.663 0.29
7.987 0.601 -1.662 0.3
7.98 0.626 -1.66 0.29
7.972 0.651 -1.659 0.28
7.981 0.677 -1.662 0.29
7.981 0.702 -1.662 0.28
7.993 0.728 -1.665 0.26
7.978 0.739 -1.662 0.3
7.983 0.765 -1.664 0.27
7.983 0.791 -1.664 0.28
7.961 0.814 -1.66 0.3
7.974 0.84 -1.663 0.26
7.975 0.866 -1.664 0.28
7.964 0.89 -1.663 0.28
7.965 0.903 -1.663 0.3
7.958 0.927 -1.662 0.29
7.963 0.953 -1.664 0.29
7.954 0.977 -1.663 0.29
7.951 1.002 -1.663 0.3
7.934 1.026 -1.659 0.31
7.927 1.05 -1.659 0.28
7.922 1.062 -1.658 0.29
7.918 1.087 -1.658 0.3
7.911 1.111 -1.657 0.29
7.909 1.136 -1.657 0.3
7.902 1.161 -1.656 0.3
7.888 1.184 -1.654 0.3
7.889 1.209 -1.655 0.3
7.848 1.229 -1.647 0.22
7.86 1.243 -1.65 0.23
7.86 1.268 -1.651 0.37
7.856 1.293 -1.651 0.38
7.844 1.316 -1.649 0.38
7.838 1.341 -1.649 0.33
7.835 1.366 -1.649 0.55
7.835 1.391 -1.65 0.34
7.819 1.401 -1.647 0.28
7.82 1.426 -1.648 0.32
7.824 1.452 -1.65 0.34
7.815 1.476 -1.649 0.29
7.82 1.503 -1.651 0.35
7.802 1.525 -1.648 0.29
7.805 1.551 -1.65 0.3
7.798 1.575 -1.649 0.31
7.797 1.587 -1.65 0.34
7.785 1.61 -1.648 0.33
7.793 1.638 -1.651 0.32
7.786 1.662 -1.651 0.31
7.777 1.685 -1.65 0.33
7.773 1.71 -1.65 0.31
7.772 1.735 -1.651 0.32
7.761 1.746 -1.649 0.31
7.746 1.768 -1.647 0.27
7.76 1.797 -1.652 0.35
7.756 1.822 -1.652 0.3
7.746 1.845 -1.651 0.31
7.754 1.873 -1.654 0.3
7.749 1.884 -1.654 0.36
7.734 1.906 -1.652 0.29
7.726 1.93 -1.651 0.32
7.716 1.953 -1.65 0.32
7.719 1.98 -1.652 0.34
7.711 2.004 -1.652 0.32
7.707 2.028 -1.652 0.34
7.698 2.052 -1.652 0.34
7.697 2.065 -1.652 0.31
7.696 2.09 -1.654 0.33
7.674 2.111 -1.65 0.34
7.666 2.134 -1.65 0.33
7.661 2.159 -1.65 0.29
7.66 2.184 -1.652 0.36
7.658 2.21 -1.653 0.32
7.647 2.22 -1.651 0.29
7.635 2.242 -1.65 0.37
7.637 2.269 -1.652 0.34
7.615 2.289 -1.649 0.28
7.619 2.316 -1.651 0.37
7.604 2.337 -1.649 0.29
7.599 2.362 -1.65 0.36
7.591 2.373 -1.649 0.31
7.597 2.401 -1.652 0.36
7.582 2.422 -1.65 0.3
7.57 2.445 -1.649 0.35
7.559 2.467 -1.649 0.31
7.568 2.497 -1.652 0.35
7.547 2.516 -1.649 0.3
7.55 2.543 -1.652 0.37
7.537 2.552 -1.65 0.31
7.525 2.575 -1.649 0.37
7.517 2.598 -1.649 0.31
7.505 2.621 -1.648 0.3
7.506 2.647 -1.65 0.36
7.505 2.673 -1.652 0.34
7.49 2.681 -1.649 0.34
7.478 2.704 -1.649 0.28
7.475 2.729 -1.65 0.36
7.464 2.752 -1.649 0.31
7.459 2.777 -1.65 0.36
7.454 2.801 -1.651 0.29
7.442 2.823 -1.65 0.35
7.441 2.836 -1.651 0.29
7.446 2.865 -1.655 0.36
7.436 2.888 -1.654 0.34
7.414 2.906 -1.651 0.34
7.41 2.932 -1.652 0.34
7.403 2.956 -1.653 0.32
7.39 2.978 -1.652 0.32
7.388 3.004 -1.654 0.34
7.39 3.018 -1.656 0.32
7.377 3.04 -1.655 0.33
7.366 3.062 -1.654 0.32
7.361 3.088 -1.656 0.33
7.352 3.111 -1.656 0.31
7.344 3.135 -1.656 0.34
7.334 3.158 -1.656 0.31
7.332 3.171 -1.657 0.32
7.326 3.195 -1.658 0.31
7.314 3.218 -1.657 0.32
7.304 3.241 -1.657 0.31
7.29 3.262 -1.656 0.34
7.29 3.29 -1.659 0.32
7.275 3.31 -1.658 0.33
7.273 3.323 -1.659 0.32
7.254 3.342 -1.656 0.34
7.25 3.368 -1.658 0.32
7.238 3.39 -1.658 0.31
7.222 3.41 -1.656 0.31
7.211 3.433 -1.656 0.32
7.202 3.456 -1.657 0.33
7.198 3.482 -1.659 0.34
7.203 3.499 -1.661 0.35
7.187 3.519 -1.66 0.29
7.172 3.54 -1.659 0.32
7.153 3.558 -1.657 0.29
7.147 3.583 -1.658 0.36
7.135 3.605 -1.658 0.32
7.142 3.623 -1.661 0.36
7.113 3.636 -1.657 0.26
7.114 3.665 -1.66 0.36
7.095 3.683 -1.658 0.34
7.089 3.708 -1.659 0.29
7.077 3.731 -1.659 0.38
7.06 3.75 -1.658 0.35
7.046 3.757 -1.656 0.29
7.037 3.781 -1.657 0.32
7.032 3.806 -1.659 0.35
7.022 3.829 -1.659 0.34
7.01 3.852 -1.659 0.33
6.991 3.87 -1.657 0.32
6.972 3.888 -1.656 0.29
6.965 3.913 -1.657 0.37
6.952 3.92 -1.655 0.27
6.953 3.949 -1.659 0.38
6.93 3.965 -1.656 0.35
6.908 3.981 -1.653 0.29
6.909 4.011 -1.657 0.35
6.888 4.028 -1.655 0.3
6.883 4.054 -1.657 0.35
6.877 4.065 -1.657 0.32
6.869 4.089 -1.658 0.34
6.855 4.11 -1.658 0.34
6.85 4.137 -1.66 0.31
6.842 4.161 -1.661 0.3
6.826 4.18 -1.66 0.31
6.837 4.217 -1.667 0.34
6.821 4.222 -1.664 0.27
6.813 4.246 -1.666 0.32
6.801 4.269 -1.666 0.32
6.777 4.284 -1.663 0.17
6.752 4.298 -1.66 0.41
6.739 4.319 -1.66 0.39
6.717 4.335 -1.658 0.39
6.71 4.36 -1.66 0.39
6.71 4.375 -1.662 0.4
6.698 4.397 -1.662 0.34
6.692 4.423 -1.664 0.5
6.699 4.458 -1.67 0.37
6.688 4.482 -1.671 0.32
6.674 4.503 -1.671 0.32
6.672 4.516 -1.672 0.31
6.667 4.544 -1.675 0.31
6.652 4.564 -1.674 0.29
6.653 4.596 -1.679 0.32
6.647 4.622 -1.681 0.3
6.634 4.644 -1.681 0.31
6.622 4.667 -1.682 0.31
6.623 4.683 -1.684 0.29
6.597 4.696 -1.681 0.3
6.595 4.726 -1.685 0.29
6.579 4.745 -1.684 0.26
6.57 4.771 -1.686 0.29
6.565 4.798 -1.689 0.27
6.557 4.824 -1.691 0.28
6.537 4.841 -1.689 0.29
6.539 4.859 -1.692 0.28
6.524 4.879 -1.692 0.29
6.513 4.903 -1.693 0.27
6.506 4.929 -1.696 0.28
6.493 4.952 -1.696 0.28
6.478 4.973 -1.696 0.29
6.477 5.005 -1.701 0.29
6.46 5.008 -1.698 0.27
6.457 5.038 -1.702 0.26
6.452 5.066 -1.705 0.29
6.427 5.079 -1.702 0.27
6.421 5.108 -1.705 0.28
6.417 5.138 -1.709 0.3
6.4 5.157 -1.708 0.3
6.39 5.166 -1.708 0.29
6.383 5.193 -1.71 0.3
6.359 5.207 -1.708 0.28
6.35 5.233 -1.71 0.31
6.341 5.259 -1.713 0.28
6.313 5.269 -1.709 0.29
6.31 5.3 -1.713 0.32
6.3 5.326 -1.715 0.28
6.28 5.326 -1.712 0.3
6.274 5.355 -1.715 0.31
6.264 5.381 -1.717 0.32
6.243 5.396 -1.716 0.32
6.233 5.422 -1.718 0.31
6.225 5.45 -1.72 0.32
6.204 5.465 -1.719 0.32
6.199 5.479 -1.72 0.3
6.189 5.505 -1.723 0.3
6.169 5.522 -1.722 0.33
6.165 5.553 -1.726 0.32
6.137 5.563 -1.723 0.28
6.121 5.584 -1.723 0.3
6.109 5.608 -1.725 0.33
6.095 5.612 -1.723 0.29
6.093 5.646 -1.728 0.33
6.085 5.674 -1.731 0.32
6.063 5.689 -1.729 0.28
6.047 5.71 -1.73 0.31
6.029 5.729 -1.73 0.3
6.016 5.753 -1.732 0.3
6.011 5.767 -1.733 0.31
6.0 5.792 -1.735 0.31
5.986 5.815 -1.736 0.31
5.978 5.843 -1.739 0.31
5.965 5.868 -1.741 0.3
5.949 5.889 -1.742 0.28
5.929 5.906 -1.742 0.29
5.909 5.905 -1.738 0.26
5.907 5.94 -1.743 0.32
5.89 5.96 -1.744 0.29
5.879 5.986 -1.746 0.31
5.865 6.009 -1.748 0.29
5.851 6.033 -1.749 0.29
5.812 6.03 -1.743 0.17
5.817 6.074 -1.751 0.32
5.797 6.072 -1.747 0.25
5.786 6.098 -1.75 0.29
5.771 6.121 -1.751 0.29
5.759 6.147 -1.754 0.27
5.751 6.177 -1.757 0.29
5.734 6.198 -1.758 0.29
5.709 6.21 -1.756 0.27
5.703 6.223 -1.758 0.27
5.688 6.246 -1.759 0.3
5.671 6.266 -1.76 0.27
5.65 6.283 -1.76 0.29
5.636 6.308 -1.762 0.26
5.624 6.334 -1.764 0.27
5.582 6.327 -1.757 0.17
5.606 6.374 -1.768 0.29
5.584 6.388 -1.767 0.22
5.544 6.384 -1.761 0.17
5.553 6.435 -1.771 0.29
5.523 6.441 -1.767 0.25
5.505 6.461 -1.768 0.26
5.489 6.483 -1.77 0.26
5.473 6.506 -1.771 0.26
5.464 6.516 -1.772 0.27
5.444 6.533 -1.772 0.27
5.428 6.556 -1.773 0.27
5.415 6.582 -1.776 0.28
5.395 6.599 -1.776 0.27
5.376 6.619 -1.777 0.27
5.365 6.648 -1.78 0.25
5.35 6.65 -1.779 0.29
5.328 6.666 -1.778 0.28
5.319 6.697 -1.783 0.25
5.302 6.719 -1.784 0.28
5.283 6.738 -1.785 0.27
5.267 6.761 -1.786 0.29
5.242 6.773 -1.785 0.29
5.235 6.786 -1.786 0.29
5.217 6.807 -1.788 0.3
5.194 6.822 -1.787 0.28
5.172 6.836 -1.787 0.29
5.158 6.864 -1.79 0.3
5.141 6.886 -1.792 0.29
5.122 6.905 -1.793 0.3
5.109 6.91 -1.792 0.3
5.091 6.931 -1.793 0.29
5.07 6.948 -1.793 0.25
5.05 6.967 -1.794 0.32
5.031 6.986 -1.795 0.3
5.007 6.999 -1.794 0.26
4.997 7.032 -1.799 0.32
4.967 7.037 -1.796 0.27
4.967 7.06 -1.8 0.31
4.948 7.081 -1.802 0.28
4.926 7.096 -1.802 0.29
4.904 7.112 -1.802 0.29
4.883 7.129 -1.802 0.29
4.868 7.155 -1.805 0.3
4.849 7.175 -1.806 0.31
4.834 7.178 -1.805 0.27
4.824 7.211 -1.81 0.35
4.804 7.231 -1.811 0.3
4.782 7.248 -1.812 0.33
4.76 7.263 -1.812 0.31
4.735 7.274 -1.811 0.29
4.719 7.301 -1.814 0.3
4.71 7.311 -1.815 0.33
4.696 7.341 -1.819 0.32
4.672 7.354 -1.818 0.33
4.646 7.364 -1.817 0.3
4.622 7.377 -1.816 0.31
4.601 7.394 -1.817 0.31
4.577 7.409 -1.817 0.31
4.553 7.422 -1.817 0.3
4.551 7.444 -1.821 0.31
4.528 7.46 -1.821 0.32
4.511 7.484 -1.824 0.31
4.492 7.506 -1.826 0.34
4.466 7.515 -1.825 0.3
4.449 7.541 -1.828 0.3
4.426 7.557 -1.828 0.33
4.426 7.584 -1.833 0.32
4.402 7.596 -1.833 0.33
4.373 7.601 -1.831 0.27
4.356 7.627 -1.834 0.34
4.329 7.635 -1.833 0.28
4.313 7.664 -1.836 0.34
4.288 7.676 -1.836 0.3
4.262 7.686 -1.835 0.31
4.26 7.71 -1.84 0.31
4.232 7.716 -1.838 0.28
4.214 7.742 -1.841 0.35
4.188 7.751 -1.84 0.32
4.165 7.768 -1.841 0.32
4.141 7.781 -1.841 0.31
4.118 7.797 -1.842 0.28
4.107 7.806 -1.842 0.36
4.087 7.827 -1.844 0.31
4.061 7.838 -1.844 0.33
4.04 7.858 -1.846 0.32
4.016 7.871 -1.846 0.32
3.992 7.885 -1.846 0.32
3.971 7.904 -1.848 0.32
3.963 7.921 -1.85 0.34
3.934 7.925 -1.848 0.29
3.911 7.94 -1.849 0.32
3.887 7.954 -1.85 0.31
3.861 7.965 -1.849 0.32
3.836 7.977 -1.849 0.32
3.813 7.993 -1.85 0.32
3.799 7.997 -1.85 0.32
3.778 8.017 -1.852 0.32
3.753 8.029 -1.852 0.31
3.731 8.048 -1.853 0.31
3.704 8.056 -1.853 0.34
3.679 8.068 -1.853 0.31
3.658 8.09 -1.855 0.33
3.631 8.098 -1.854 0.34
3.619 8.105 -1.855 0.31
3.598 8.126 -1.857 0.32
3.57 8.132 -1.856 0.32
3.547 8.148 -1.857 0.34
3.52 8.157 -1.857 0.3
3.494 8.167 -1.856 0.32
3.477 8.197 -1.861 0.31
3.466 8.208 -1.862 0.37
3.438 8.214 -1.861 0.3
3.411 8.221 -1.86 0.31
3.384 8.23 -1.86 0.31
3.364 8.255 -1.863 0.33
3.337 8.263 -1.863 0.33
3.315 8.283 -1.865 0.3
3.303 8.29 -1.865 0.32
3.277 8.302 -1.866 0.31
3.252 8.314 -1.866 0.34
3.227 8.326 -1.867 0.34
3.204 8.345 -1.869 0.32
3.176 8.35 -1.867 0.31
3.149 8.36 -1.867 0.28
3.127 8.379 -1.87 0.35
3.116 8.391 -1.871 0.33
3.091 8.404 -1.872 0.32
3.066 8.418 -1.873 0.34
3.04 8.429 -1.873 0.34
3.014 8.44 -1.874 0.32
2.99 8.455 -1.875 0.32
2.968 8.478 -1.878 0.32
2.955 8.482 -1.878 0.32
2.93 8.497 -1.88 0.33
2.902 8.504 -1.879 0.34
2.878 8.519 -1.88 0.31
2.853 8.534 -1.882 0.3
2.825 8.539 -1.881 0.34
2.798 8.549 -1.881 0.32
2.784 8.55 -1.88 0.34
2.761 8.57 -1.883 0.31
2.735 8.584 -1.884 0.3
2.708 8.591 -1.884 0.31
2.683 8.605 -1.885 0.3
2.656 8.615 -1.886 0.3
2.63 8.625 -1.886 0.31
2.605 8.641 -1.888 0.31
2.589 8.638 -1.886 0.31
2.565 8.655 -1.888 0.27
2.539 8.669 -1.89 0.38
2.51 8.671 -1.888 0.32
2.486 8.688 -1.89 0.32
2.459 8.698 -1.891 0.32
2.431 8.704 -1.89 0.31
2.42 8.719 -1.893 0.32
2.395 8.732 -1.894 0.31
2.364 8.728 -1.892 0.32
2.34 8.749 -1.895 0.31
2.313 8.758 -1.895 0.32
2.284 8.76 -1.894 0.34
2.26 8.78 -1.897 0.35
2.232 8.785 -1.897 0.33
2.22 8.796 -1.898 0.34
2.194 8.809 -1.9 0.32
2.166 8.814 -1.899 0.32
2.139 8.824 -1.9 0.35
2.109 8.823 -1.898 0.34
2.083 8.836 -1.9 0.33
2.056 8.846 -1.9 0.32
2.044 8.855 -1.902 0.34
2.017 8.865 -1.903 0.34
1.99 8.877 -1.904 0.31
1.961 8.877 -1.903 0.32
1.935 8.891 -1.904 0.32
1.908 8.903 -1.906 0.33
1.88 8.907 -1.905 0.31
1.867 8.918 -1.907 0.32
1.842 8.937 -1.91 0.34
1.812 8.933 -1.908 0.3
1.786 8.95 -1.91 0.34
1.758 8.956 -1.91 0.3
1.732 8.971 -1.913 0.33
1.705 8.982 -1.914 0.32
1.675 8.98 -1.912 0.3
1.664 8.997 -1.916 0.33
1.637 9.012 -1.918 0.32
1.608 9.012 -1.917 0.3
1.58 9.019 -1.917 0.3
1.553 9.029 -1.918 0.3
1.525 9.036 -1.919 0.3
1.497 9.045 -1.92 0.3
1.485 9.06 -1.923 0.35
1.457 9.067 -1.923 0.3
1.427 9.066 -1.922 0.32
