# .PCD v.7 - Point Cloud Data file format
VERSION .7
FIELDS x y z intensity
SIZE 4 4 4 4
TYPE F F F F
COUNT 1 1 1 1
WIDTH 1853
HEIGHT 1
VIEWPOINT 0 0 0 1 0 0 0
POINTS 1853
DATA ascii
14.295 13.918 -1.269 0.51
14.33 14.041 -1.277 0.2
14.132 13.933 -1.261 0.36
16.386 16.263 -1.5 0.19
14.013 13.991 -1.258 0.36
14.011 14.077 -1.262 0.3
14.372 14.486 -1.302 0.34
14.294 14.498 -1.299 0.2
13.589 13.868 -1.229 0.24
13.465 13.828 -1.221 0.53
13.348 13.794 -1.213 0.36
13.249 13.778 -1.207 0.41
13.152 13.764 -1.201 0.41
13.136 13.79 -1.202 0.37
13.069 13.807 -1.199 0.51
13.011 13.832 -1.198 0.34
12.895 13.795 -1.19 0.3
12.799 13.779 -1.184 0.49
12.736 13.797 -1.182 0.26
12.677 13.82 -1.181 0.51
12.642 13.869 -1.181 0.31
12.617 13.886 -1.181 0.5
12.598 13.952 -1.184 0.51
12.491 13.922 -1.177 0.26
12.32 13.818 -1.163 0.35
12.199 13.768 -1.154 0.3
12.167 13.82 -1.155 0.48
12.06 13.785 -1.148 0.35
11.988 13.746 -1.143 0.38
11.995 13.841 -1.148 0.45
11.92 13.843 -1.145 0.23
11.822 13.816 -1.138 0.5
11.808 13.888 -1.142 0.34
11.737 13.893 -1.139 0.54
11.718 13.959 -1.142 0.26
11.529 13.777 -1.122 0.51
11.502 13.833 -1.124 0.34
11.422 13.824 -1.12 0.58
11.348 13.823 -1.116 0.4
11.379 13.95 -1.125 0.19
7.051 8.741 -0.626 0.0
6.764 8.519 -0.6 0.0
6.724 8.525 -0.598 0.0
6.177 8.523 -0.574 0.0
6.131 8.515 -0.572 0.07
6.106 8.538 -0.572 0.0
5.953 8.519 -0.564 0.0
5.926 8.538 -0.564 0.0
5.271 8.531 -0.537 0.0
5.232 8.529 -0.536 0.0
5.214 8.528 -0.535 0.0
5.19 8.55 -0.535 0.0
5.154 8.551 -0.534 0.0
5.263 8.795 -0.554 0.0
5.264 8.861 -0.558 0.0
5.266 8.928 -0.562 0.0
5.257 9.45 -0.595 0.0
5.224 9.459 -0.595 0.0
5.227 9.537 -0.6 0.0
5.228 9.609 -0.604 0.0
5.27 9.836 -0.621 0.16
5.238 9.85 -0.621 0.29
5.201 9.855 -0.619 0.0
5.195 9.88 -0.621 0.0
4.48 8.579 -0.512 0.0
4.413 8.581 -0.509 0.0
4.371 8.633 -0.511 0.0
4.359 8.677 -0.514 0.0
4.352 8.906 -0.529 0.0
4.347 8.968 -0.533 0.0
4.332 9.009 -0.535 0.0
4.328 9.074 -0.539 0.0
4.335 9.126 -0.543 0.0
4.338 9.207 -0.548 0.0
4.33 9.266 -0.552 0.0
4.333 9.35 -0.558 0.0
7.032 15.34 -1.042 0.0
4.394 9.64 -0.579 0.0
4.395 9.806 -0.59 0.13
4.385 9.826 -0.591 0.14
7.143 16.185 -1.102 0.29
7.031 16.066 -1.091 0.21
6.985 16.099 -1.092 0.2
6.93 16.11 -1.091 0.31
6.882 16.139 -1.091 0.24
6.805 16.098 -1.086 0.19
6.797 16.149 -1.09 0.28
6.723 16.114 -1.085 0.2
6.672 16.135 -1.085 0.26
6.608 16.122 -1.082 0.16
6.556 16.141 -1.082 0.45
6.505 16.162 -1.082 0.2
6.432 16.126 -1.078 0.14
6.171 15.539 -1.031 0.2
6.107 15.519 -1.027 0.63
6.052 15.522 -1.026 0.64
6.001 15.537 -1.026 0.65
5.946 15.539 -1.025 0.63
5.892 15.543 -1.023 0.66
5.845 15.567 -1.024 0.71
5.812 15.628 -1.027 0.16
5.778 15.613 -1.025 0.55
5.737 15.652 -1.027 0.41
5.685 15.662 -1.026 0.34
5.624 15.646 -1.024 0.39
5.576 15.669 -1.024 0.38
5.521 15.67 -1.023 0.34
5.466 15.67 -1.021 0.39
5.441 15.679 -1.021 0.38
5.385 15.675 -1.02 0.34
5.329 15.673 -1.018 0.36
5.278 15.682 -1.018 0.36
5.226 15.693 -1.017 0.35
5.172 15.692 -1.016 0.39
5.12 15.701 -1.015 0.35
5.092 15.699 -1.015 0.36
5.038 15.702 -1.014 0.39
4.984 15.7 -1.012 0.34
4.939 15.731 -1.013 0.25
4.885 15.731 -1.012 0.52
4.833 15.737 -1.012 0.56
4.78 15.741 -1.011 0.63
4.715 15.706 -1.007 0.7
4.691 15.713 -1.007 0.72
4.631 15.694 -1.004 0.69
4.59 15.735 -1.006 0.21
4.54 15.749 -1.006 0.35
4.486 15.746 -1.005 0.46
4.434 15.752 -1.004 0.34
4.381 15.753 -1.003 0.46
4.358 15.765 -1.004 0.34
4.301 15.754 -1.002 0.47
4.253 15.773 -1.002 0.36
4.2 15.773 -1.001 0.46
4.147 15.773 -1.0 0.36
4.095 15.774 -0.999 0.46
4.047 15.795 -1.0 0.38
4.019 15.787 -0.999 0.52
3.968 15.796 -0.999 0.39
3.916 15.797 -0.998 0.51
3.866 15.809 -0.998 0.39
3.814 15.811 -0.997 0.42
3.756 15.786 -0.994 0.7
3.705 15.794 -0.994 0.38
3.679 15.794 -0.994 0.43
3.62 15.767 -0.991 0.36
3.573 15.786 -0.991 0.2
3.508 15.729 -0.986 0.69
3.456 15.73 -0.985 0.65
3.405 15.731 -0.985 0.68
3.356 15.744 -0.985 0.66
3.302 15.735 -0.983 0.68
3.278 15.74 -0.983 0.68
3.27 15.955 -0.999 0.62
3.182 15.776 -0.984 0.41
3.237 16.318 -1.024 0.18
3.357 17.213 -1.091 0.57
3.14 16.369 -1.027 0.18
3.125 16.571 -1.041 0.12
3.123 16.706 -1.051 0.23
3.085 16.794 -1.057 0.2
3.052 16.917 -1.065 0.22
3.011 16.996 -1.07 0.18
2.972 17.089 -1.077 0.29
2.928 17.154 -1.081 0.21
3.958 23.93 -1.586 0.39
3.958 24.409 -1.621 0.17
2.25 14.379 -0.871 0.15
2.198 14.34 -0.868 0.42
2.168 14.454 -0.875 0.35
2.112 14.381 -0.87 0.59
2.063 14.364 -0.868 0.32
2.023 14.245 -0.859 0.63
1.989 14.324 -0.864 0.24
1.934 14.257 -0.859 0.5
1.888 14.258 -0.858 0.35
1.851 14.323 -0.863 0.41
1.808 14.346 -0.864 0.5
1.766 14.376 -0.866 0.32
1.739 14.341 -0.863 0.41
1.688 14.295 -0.859 0.41
1.643 14.298 -0.859 0.5
1.601 14.333 -0.861 0.36
1.551 14.292 -0.858 0.55
1.507 14.303 -0.858 0.32
1.468 14.373 -0.863 0.57
1.449 14.405 -0.865 0.3
1.397 14.34 -0.86 0.48
1.349 14.319 -0.858 0.57
1.298 14.253 -0.853 0.41
1.259 14.317 -0.858 0.4
1.213 14.317 -0.857 0.36
1.164 14.273 -0.854 0.5
1.146 14.33 -0.858 0.43
1.117 14.537 -0.873 0.51
1.096 14.884 -0.898 0.3
1.05 14.898 -0.899 0.39
0.998 14.825 -0.893 0.35
0.949 14.784 -0.89 0.53
0.893 14.632 -0.879 0.14
0.836 14.446 -0.865 0.55
0.819 14.552 -0.873 0.22
0.77 14.475 -0.867 0.48
0.723 14.464 -0.866 0.53
0.677 14.44 -0.864 0.3
0.628 14.37 -0.858 0.57
0.585 14.408 -0.861 0.41
0.539 14.392 -0.86 0.31
0.517 14.405 -0.861 0.62
0.492 15.092 -0.911 0.2
0.451 15.323 -0.928 0.39
0.382 14.473 -0.865 0.25
0.337 14.468 -0.865 0.43
0.291 14.469 -0.865 0.46
0.246 14.476 -0.865 0.52
0.2 14.472 -0.865 0.46
0.178 14.479 -0.865 0.55
0.132 14.495 -0.867 0.66
0.087 14.483 -0.866 0.51
0.041 14.468 -0.865 0.46
-0.004 14.482 -0.866 0.36
-0.05 14.474 -0.865 0.54
-0.095 14.473 -0.865 0.37
-0.118 14.515 -0.868 0.63
-0.169 14.906 -0.897 0.15
-0.223 15.326 -0.928 0.35
-0.255 14.483 -0.866 0.3
-0.318 15.284 -0.925 0.29
-0.354 14.811 -0.89 0.7
-0.394 14.582 -0.873 0.16
-0.417 14.57 -0.873 0.32
-0.462 14.546 -0.871 0.34
-0.507 14.533 -0.87 0.44
-0.552 14.529 -0.87 0.38
-0.599 14.541 -0.871 0.39
-0.644 14.527 -0.87 0.55
-0.689 14.523 -0.87 0.63
-0.734 14.505 -0.869 0.64
-0.758 14.53 -0.871 0.4
-0.803 14.515 -0.87 0.46
-0.85 14.531 -0.871 0.57
-0.897 14.554 -0.873 0.25
-0.993 15.299 -0.928 0.4
-1.029 15.131 -0.916 0.26
-1.028 14.461 -0.867 0.27
-1.12 15.392 -0.936 0.25
-1.184 15.586 -0.95 0.68
-1.307 16.498 -1.018 0.2
-1.348 16.361 -1.008 0.22
-1.381 16.152 -0.993 0.64
-1.438 16.215 -0.998 0.43
-1.5 16.328 -1.007 0.32
-1.777 18.974 -1.203 0.33
-1.627 16.835 -1.045 0.19
-0.951 9.634 -0.512 0.0
-0.949 9.323 -0.489 0.07
-0.968 9.229 -0.482 0.08
-0.995 9.21 -0.481 0.2
-1.025 9.215 -0.482 0.24
-1.052 9.194 -0.48 0.1
-1.068 9.206 -0.481 0.14
-1.097 9.199 -0.481 0.09
-1.132 9.245 -0.485 0.0
-1.236 9.829 -0.528 0.12
-1.251 9.7 -0.519 0.31
-1.264 9.57 -0.51 0.19
-1.264 9.344 -0.493 0.1
-1.244 9.097 -0.475 0.15
-1.235 8.829 -0.455 0.19
-1.475 10.278 -0.563 0.0
-1.252 8.563 -0.436 0.0
-1.269 8.493 -0.431 0.07
-1.296 8.491 -0.431 0.19
-1.323 8.489 -0.431 0.0
-1.338 8.497 -0.432 0.0
-1.363 8.485 -0.432 0.0
-1.391 8.488 -0.432 0.0
-1.417 8.482 -0.432 0.1
-1.447 8.493 -0.433 0.28
-1.474 8.493 -0.434 0.21
-1.501 8.49 -0.434 0.34
-1.531 8.503 -0.435 0.19
-1.543 8.495 -0.435 0.32
-1.57 8.492 -0.435 0.19
-1.598 8.493 -0.435 0.1
-1.624 8.482 -0.435 0.08
-1.655 8.498 -0.436 0.11
-2.003 10.094 -0.557 0.29
-2.029 10.059 -0.555 0.17
-1.891 9.309 -0.498 0.4
-1.92 9.301 -0.498 0.3
-1.948 9.291 -0.498 0.4
-1.983 9.308 -0.5 0.34
-2.015 9.318 -0.501 0.39
-2.044 9.311 -0.501 0.36
-2.075 9.313 -0.501 0.44
-2.106 9.31 -0.502 0.4
-2.125 9.326 -0.503 0.29
-1.984 8.591 -0.448 0.62
-1.988 8.49 -0.441 0.0
-2.013 8.478 -0.44 0.07
-2.044 8.489 -0.442 0.08
-2.076 8.502 -0.443 0.14
-2.103 8.497 -0.443 0.23
-2.115 8.49 -0.443 0.11
-2.383 9.307 -0.506 0.22
-2.413 9.299 -0.506 0.36
-2.447 9.313 -0.508 0.33
-2.478 9.311 -0.508 0.39
-2.511 9.316 -0.509 0.41
-2.527 9.316 -0.51 0.39
-2.558 9.314 -0.51 0.4
-2.595 9.335 -0.512 0.28
-2.622 9.319 -0.512 0.47
-2.654 9.318 -0.512 0.4
-2.685 9.316 -0.513 0.43
-2.715 9.311 -0.513 0.41
-2.75 9.323 -0.515 0.38
-2.765 9.317 -0.515 0.48
-2.798 9.322 -0.516 0.39
-2.827 9.313 -0.516 0.41
-2.865 9.331 -0.518 0.3
-2.909 9.371 -0.521 0.67
-2.902 9.244 -0.512 0.21
-2.88 9.077 -0.5 0.51
-2.705 8.484 -0.455 0.21
-2.732 8.478 -0.455 0.16
-2.757 8.463 -0.454 0.09
-2.792 8.481 -0.456 0.14
-2.826 8.495 -0.458 0.0
-2.847 8.467 -0.457 0.0
-2.872 8.454 -0.456 0.0
-2.889 8.461 -0.457 0.0
-2.922 8.469 -0.459 0.0
-2.95 8.463 -0.459 0.0
-2.977 8.458 -0.459 0.0
-3.007 8.456 -0.46 0.0
-3.036 8.454 -0.46 0.07
-3.068 8.459 -0.461 0.17
-3.093 8.446 -0.461 0.11
-3.111 8.452 -0.462 0.14
-3.163 8.512 -0.467 0.0
-3.2 8.53 -0.47 0.0
-6.364 16.573 -1.107 0.27
-6.428 16.585 -1.109 0.3
-6.485 16.577 -1.11 0.28
-6.548 16.583 -1.112 0.15
-3.988 9.991 -0.591 0.28
-4.116 10.215 -0.61 0.0
-6.82 16.583 -1.12 0.32
-6.885 16.592 -1.122 0.0
-3.758 9.008 -0.518 0.0
-3.807 9.083 -0.524 0.0
-7.053 16.626 -1.129 0.11
-7.118 16.633 -1.132 0.0
-3.903 9.072 -0.526 0.0
-3.765 8.68 -0.496 0.0
-3.899 8.909 -0.515 0.0
-3.903 8.842 -0.511 0.0
-3.878 8.75 -0.504 0.0
-3.837 8.585 -0.491 0.0
-3.724 8.264 -0.466 0.0
-3.928 8.642 -0.498 0.07
-7.698 16.599 -1.147 0.17
-3.984 8.481 -0.489 0.32
-3.995 8.471 -0.488 0.34
-7.982 16.593 -1.155 0.42
-8.046 16.593 -1.157 0.41
-8.116 16.604 -1.16 0.41
-8.177 16.596 -1.162 0.58
-8.336 16.786 -1.18 0.58
-8.633 17.313 -1.224 0.11
-8.7 17.311 -1.226 0.0
-8.77 17.314 -1.229 0.0
-8.83 17.297 -1.23 0.0
-8.919 17.337 -1.235 0.0
-8.982 17.326 -1.237 0.0
-9.052 17.328 -1.239 0.0
-9.084 17.322 -1.24 0.0
-9.144 17.304 -1.241 0.12
-9.327 17.517 -1.261 0.12
-9.3 17.334 -1.248 0.23
-9.279 17.167 -1.237 0.21
-9.193 16.88 -1.215 0.49
-9.219 16.802 -1.211 0.36
-9.194 16.634 -1.199 0.28
-9.155 16.502 -1.189 0.57
-9.186 16.435 -1.186 0.25
-9.221 16.379 -1.184 0.55
-9.285 16.37 -1.185 0.3
-9.253 16.196 -1.173 0.28
-9.245 16.065 -1.164 0.34
-9.26 15.975 -1.159 0.57
-9.3 15.986 -1.161 0.54
-9.297 15.866 -1.154 0.21
-9.314 15.782 -1.149 0.13
-9.464 15.92 -1.163 0.37
-9.372 15.655 -1.143 0.19
-9.438 15.652 -1.145 0.23
-9.385 15.456 -1.131 0.16
-9.412 15.39 -1.128 0.38
-9.388 15.297 -1.121 0.2
-9.399 15.209 -1.116 0.18
-9.365 15.049 -1.105 0.18
-9.349 14.918 -1.096 0.12
-9.337 14.796 -1.088 0.23
-9.353 14.719 -1.084 0.48
-9.354 14.619 -1.077 0.42
-9.348 14.559 -1.073 0.3
-9.304 14.391 -1.061 0.57
-9.357 14.373 -1.062 0.28
-9.413 14.361 -1.064 0.51
-9.485 14.372 -1.067 0.4
-9.549 14.371 -1.07 0.46
-9.724 14.535 -1.087 0.37
-9.91 14.71 -1.106 0.16
-9.811 14.515 -1.09 0.63
-10.106 14.85 -1.122 0.35
-10.152 14.818 -1.122 0.2
-9.976 14.465 -1.093 0.27
-10.008 14.413 -1.092 0.32
-10.06 14.392 -1.092 0.41
-10.214 14.513 -1.106 0.54
-10.213 14.465 -1.103 0.2
-10.237 14.402 -1.101 0.28
-10.387 14.515 -1.114 0.43
-10.368 14.394 -1.106 0.26
-10.403 14.346 -1.104 0.27
-10.436 14.298 -1.103 0.51
-10.483 14.268 -1.103 0.45
-10.546 14.259 -1.105 0.31
-10.574 14.25 -1.106 0.47
-10.671 14.287 -1.113 0.39
-10.711 14.247 -1.112 0.55
-10.852 14.341 -1.124 0.29
-10.919 14.335 -1.126 0.61
-11.018 14.37 -1.133 0.33
-11.047 14.315 -1.131 0.27
-11.065 14.291 -1.13 0.54
-11.134 14.288 -1.133 0.3
-11.216 14.3 -1.138 0.37
-11.341 14.366 -1.147 0.54
-11.436 14.393 -1.153 0.25
-11.417 14.278 -1.146 0.27
-11.539 14.336 -1.155 0.36
-11.552 14.307 -1.154 0.44
-11.593 14.266 -1.153 0.26
-11.688 14.29 -1.159 0.62
-11.759 14.286 -1.162 0.22
-11.814 14.261 -1.163 0.55
-11.923 14.3 -1.171 0.32
-12.001 14.302 -1.174 0.32
-12.057 14.323 -1.178 0.39
-12.207 14.408 -1.19 0.59
-12.468 14.623 -1.215 0.24
-12.403 14.455 -1.202 0.19
-12.354 14.306 -1.191 0.44
-12.423 14.296 -1.194 0.4
-14.659 16.755 -1.439 0.5
-14.755 16.758 -1.444 0.26
-12.728 14.416 -1.216 0.14
-12.719 14.315 -1.21 0.38
-12.779 14.291 -1.211 0.53
-13.073 14.528 -1.239 0.36
-13.059 14.42 -1.232 0.23
-13.485 14.796 -1.274 0.35
-13.42 14.633 -1.262 0.19
-13.351 14.466 -1.249 0.4
-13.356 14.426 -1.247 0.45
-13.346 14.325 -1.241 0.29
-13.513 14.413 -1.254 0.2
-13.515 14.324 -1.25 0.27
-13.579 14.302 -1.252 0.45
-14.092 14.748 -1.302 0.39
-14.16 14.726 -1.304 0.18
-14.316 14.842 -1.318 0.18
-16.344 16.832 -1.527 0.31
-16.262 16.644 -1.513 0.37
-14.125 14.371 -1.283 0.13
-14.135 14.291 -1.28 0.44
-14.322 14.389 -1.295 0.26
-14.521 14.497 -1.311 0.46
-14.391 14.323 -1.295 0.31
-14.845 14.681 -1.337 0.18
-14.602 14.351 -1.307 0.5
-14.534 14.195 -1.296 0.35
-14.722 14.288 -1.31 0.24
-14.632 14.112 -1.297 0.44
-14.752 14.139 -1.304 0.34
-14.814 14.109 -1.306 0.43
-15.279 14.505 -1.351 0.2
-15.14 14.283 -1.332 0.46
-16.623 15.58 -1.477 0.26
-15.86 14.773 -1.396 0.23
-15.819 14.643 -1.387 0.29
-15.491 14.25 -1.35 0.22
-15.674 14.327 -1.363 0.39
-16.707 15.222 -1.464 0.18
-16.219 14.685 -1.411 0.19
-16.062 14.452 -1.391 0.29
-15.887 14.205 -1.369 0.33
-15.805 14.042 -1.356 0.33
-16.009 14.134 -1.372 0.52
-16.614 14.574 -1.427 0.27
-16.35 14.298 -1.399 0.32
-16.368 14.223 -1.396 0.31
-16.763 14.473 -1.431 0.32
-16.822 14.432 -1.432 0.42
-16.951 14.451 -1.44 0.27
-16.727 14.169 -1.414 0.36
-16.611 13.982 -1.399 0.41
-16.883 14.12 -1.42 0.33
-16.868 14.063 -1.417 0.2
-18.508 15.329 -1.57 0.29
-18.518 15.239 -1.566 0.4
-18.569 15.183 -1.566 0.35
-18.666 15.165 -1.571 0.16
-18.797 15.174 -1.579 0.19
-19.117 15.333 -1.605 0.13
-18.541 14.728 -1.543 0.41
-18.582 14.666 -1.543 0.25
-18.636 14.614 -1.544 0.6
-19.039 14.833 -1.577 0.2
-18.702 14.477 -1.541 0.43
-18.637 14.333 -1.531 0.33
-18.851 14.451 -1.549 0.2
-18.766 14.293 -1.537 0.41
-18.811 14.234 -1.537 0.14
-18.698 14.056 -1.522 0.36
-18.727 13.986 -1.521 0.36
-18.766 13.924 -1.521 0.4
-18.778 13.841 -1.518 0.34
-18.931 13.862 -1.528 0.35
-18.98 13.852 -1.53 0.43
-19.041 13.806 -1.532 0.31
-19.261 13.873 -1.548 0.32
-19.366 13.856 -1.553 0.36
-19.479 13.845 -1.56 0.27
-19.471 13.747 -1.555 0.38
-20.189 14.158 -1.616 0.17
-19.921 13.924 -1.59 0.22
-19.934 13.84 -1.587 0.43
-20.5 14.137 -1.634 0.27
-20.126 13.786 -1.596 0.16
-20.189 13.736 -1.598 0.46
-20.29 13.712 -1.603 0.24
-20.351 13.66 -1.605 0.36
-20.392 13.642 -1.607 0.34
-20.545 13.65 -1.616 0.44
-20.651 13.627 -1.622 0.29
-20.787 13.624 -1.63 0.26
-20.93 13.623 -1.639 0.37
-20.959 13.549 -1.638 0.29
-21.155 13.581 -1.651 0.33
-21.26 13.554 -1.657 0.3
-21.382 13.585 -1.665 0.35
-21.446 13.531 -1.667 0.34
-21.797 13.656 -1.694 0.18
-21.741 13.527 -1.686 0.34
-21.977 13.578 -1.702 0.36
-22.038 13.52 -1.704 0.26
-22.241 13.548 -1.718 0.43
-22.593 13.713 -1.746 0.27
-22.645 13.648 -1.747 0.21
-22.521 13.477 -1.733 0.23
-22.771 13.529 -1.75 0.19
-23.486 13.853 -1.808 0.18
-23.102 13.53 -1.772 0.21
-23.169 13.471 -1.774 0.22
-23.171 13.424 -1.772 0.41
-23.735 13.651 -1.816 0.32
-23.728 13.548 -1.812 0.3
-23.866 13.527 -1.82 0.19
-26.223 14.752 -2.016 0.29
-26.285 14.678 -2.017 0.41
-26.317 14.588 -2.016 0.24
-26.273 14.456 -2.009 0.21
-26.452 14.5 -2.022 0.5
-26.425 14.378 -2.016 0.23
-27.029 14.595 -2.062 0.16
-26.67 14.294 -2.029 0.28
-26.88 14.298 -2.042 0.48
-26.985 14.245 -2.047 0.23
-26.897 14.091 -2.036 0.23
-26.742 13.957 -2.022 0.33
-26.876 13.919 -2.029 0.27
-26.886 13.817 -2.026 0.23
-26.729 13.631 -2.01 0.25
-26.711 13.516 -2.005 0.32
-26.71 13.411 -2.001 0.31
-26.72 13.311 -1.999 0.29
-26.732 13.264 -1.998 0.33
-27.058 13.32 -2.021 0.25
-27.122 13.245 -2.023 0.37
-27.326 13.239 -2.036 0.29
-27.515 13.224 -2.048 0.25
-27.659 13.186 -2.057 0.16
-27.836 13.163 -2.068 0.5
-28.104 13.236 -2.088 0.22
-28.183 13.165 -2.091 0.29
-28.409 13.162 -2.106 0.25
-28.525 13.107 -2.112 0.29
-28.744 13.098 -2.126 0.3
-28.959 13.086 -2.141 0.29
-29.155 13.064 -2.153 0.3
-29.353 13.042 -2.166 0.28
-29.565 13.081 -2.181 0.27
-29.763 13.056 -2.194 0.29
-29.99 13.044 -2.209 0.3
-30.194 13.02 -2.222 0.26
-30.439 13.012 -2.238 0.24
-30.641 12.984 -2.251 0.21
-30.822 12.947 -2.262 0.29
-30.945 12.941 -2.27 0.21
-31.118 12.899 -2.281 0.3
-31.212 12.823 -2.285 0.0
-31.282 12.737 -2.288 0.0
-31.344 12.647 -2.289 0.0
-31.424 12.565 -2.293 0.0
-31.508 12.484 -2.296 0.0
-31.575 12.396 -2.298 0.0
-31.589 12.344 -2.298 0.0
-31.637 12.248 -2.299 0.0
-31.692 12.155 -2.3 0.0
-31.776 12.073 -2.304 0.0
-31.85 11.987 -2.307 0.0
-31.917 11.898 -2.309 0.0
-31.96 11.8 -2.309 0.0
-31.997 11.756 -2.311 0.0
-32.143 11.695 -2.319 0.0
-32.172 11.591 -2.319 0.0
-32.276 11.514 -2.324 0.0
-32.336 11.421 -2.326 0.0
-32.396 11.328 -2.328 0.0
-32.507 11.253 -2.334 0.0
-32.574 11.218 -2.338 0.0
-32.62 11.12 -2.338 0.0
-32.651 11.016 -2.338 0.0
-32.724 10.926 -2.341 0.0
-32.754 10.822 -2.341 0.0
-32.812 10.727 -2.343 0.0
-32.863 10.629 -2.344 0.0
-32.893 10.582 -2.345 0.0
-32.934 10.481 -2.346 0.0
-28.504 7.857 -1.977 0.0
-28.888 7.428 -1.997 0.0
-29.207 7.412 -2.019 0.0
-31.116 7.325 -2.154 0.0
-31.3 7.265 -2.167 0.0
-31.383 7.232 -2.172 0.0
-31.645 7.187 -2.19 0.0
-35.236 7.884 -2.46 0.0
-35.206 7.761 -2.455 0.0
-35.166 7.636 -2.451 0.0
-35.11 7.509 -2.445 0.0
-35.057 7.382 -2.439 0.0
-35.016 7.259 -2.434 0.0
-34.966 7.192 -2.429 0.0
-34.932 7.07 -2.425 0.0
-34.911 6.952 -2.422 0.0
-34.845 6.825 -2.415 0.0
-34.801 6.703 -2.41 0.0
-34.791 6.588 -2.408 0.0
-34.798 6.476 -2.407 0.0
-34.8 6.42 -2.406 0.0
-34.802 6.307 -2.405 0.0
-34.749 6.185 -2.4 0.0
-34.745 6.072 -2.398 0.0
-34.681 5.949 -2.392 0.0
-34.615 5.825 -2.385 0.0
-34.558 5.704 -2.38 0.0
-34.513 5.586 -2.375 0.0
-34.455 5.521 -2.37 0.0
-34.407 5.402 -2.365 0.0
-34.361 5.284 -2.361 0.0
-34.324 5.168 -2.357 0.0
-34.291 5.053 -2.353 0.0
-34.279 4.942 -2.351 0.0
-34.221 4.824 -2.345 0.0
-34.144 4.758 -2.339 0.0
-34.115 4.645 -2.336 0.0
-34.06 4.529 -2.331 0.0
-34.025 4.415 -2.327 0.0
-33.975 4.3 -2.322 0.0
-33.923 4.186 -2.318 0.0
-33.871 4.071 -2.313 0.0
-33.856 3.962 -2.311 0.0
-33.784 3.9 -2.305 0.0
-33.761 3.789 -2.302 0.0
-33.747 3.68 -2.3 0.0
-33.711 3.569 -2.297 0.0
-33.668 3.458 -2.293 0.0
-33.603 3.345 -2.287 0.0
-33.522 3.231 -2.28 0.0
-33.454 3.171 -2.275 0.0
-33.372 3.058 -2.268 0.0
-33.189 2.936 -2.254 0.12
-33.23 2.834 -2.256 0.16
-33.169 2.724 -2.251 0.0
-33.191 2.621 -2.252 0.0
-33.203 2.517 -2.253 0.0
-33.247 2.415 -2.255 0.0
-33.289 2.366 -2.258 0.0
-33.326 2.263 -2.26 0.0
-33.372 2.161 -2.263 0.0
-33.399 2.057 -2.265 0.0
-33.425 1.954 -2.266 0.0
-33.453 1.85 -2.268 0.0
-33.469 1.745 -2.268 0.0
-33.475 1.693 -2.269 0.0
-33.49 1.588 -2.269 0.0
-33.507 1.483 -2.27 0.0
-33.512 1.378 -2.27 0.0
-33.518 1.273 -2.27 0.0
-33.512 1.167 -2.27 0.0
-33.543 1.063 -2.272 0.0
-33.549 1.01 -2.272 0.0
-33.562 0.905 -2.273 0.0
-33.58 0.8 -2.274 0.0
-33.587 0.695 -2.274 0.0
-33.609 0.589 -2.276 0.0
-33.618 0.484 -2.276 0.0
-33.638 0.378 -2.278 0.0
-33.648 0.326 -2.278 0.0
-33.679 0.22 -2.281 0.0
-33.687 0.114 -2.281 0.0
-33.698 0.009 -2.282 0.0
-33.707 -0.097 -2.283 0.0
-33.717 -0.203 -2.283 0.0
-33.714 -0.309 -2.283 0.0
-33.651 -0.414 -2.279 0.0
-33.712 -0.521 -2.283 0.0
-33.736 -0.627 -2.285 0.0
-33.769 -0.734 -2.288 0.0
-33.783 -0.841 -2.289 0.0
-33.811 -0.895 -2.291 0.0
-33.818 -1.001 -2.292 0.0
-33.797 -1.107 -2.291 0.0
-33.774 -1.212 -2.289 0.0
-33.746 -1.317 -2.287 0.0
-33.735 -1.423 -2.287 0.0
-33.759 -1.53 -2.289 0.0
-33.77 -1.637 -2.29 0.0
-33.789 -1.691 -2.292 0.0
-33.799 -1.798 -2.293 0.0
-33.778 -1.904 -2.292 0.0
-33.779 -2.01 -2.292 0.0
-33.793 -2.118 -2.294 0.0
-33.83 -2.227 -2.297 0.0
-33.853 -2.335 -2.299 0.0
-33.897 -2.392 -2.303 0.0
-33.913 -2.5 -2.305 0.0
-33.903 -2.606 -2.304 0.0
-33.882 -2.712 -2.304 0.0
-33.87 -2.818 -2.303 0.0
-33.906 -2.928 -2.307 0.0
-33.996 -3.044 -2.314 0.0
-34.137 -3.11 -2.325 0.0
-34.2 -3.225 -2.33 0.1
-34.172 -3.33 -2.329 0.15
-34.064 -3.428 -2.322 0.0
-32.192 -3.34 -2.184 0.0
-32.011 -3.423 -2.171 0.0
-32.315 -3.558 -2.194 0.0
-32.562 -3.638 -2.213 0.0
-32.93 -3.784 -2.241 0.0
-33.437 -3.949 -2.28 0.0
-33.5 -4.063 -2.285 0.0
-33.6 -4.183 -2.294 0.0
-33.66 -4.297 -2.299 0.0
-33.128 -4.335 -2.261 0.0
-32.976 -4.42 -2.25 0.0
-33.504 -4.652 -2.291 0.0
-33.659 -4.782 -2.304 0.0
-33.732 -4.901 -2.311 0.0
-33.705 -5.005 -2.31 0.0
-33.671 -5.108 -2.308 0.0
-33.699 -5.22 -2.312 0.0
-33.724 -5.279 -2.314 0.0
-33.77 -5.395 -2.319 0.0
-33.771 -5.504 -2.32 0.0
-33.739 -5.607 -2.319 0.0
-33.647 -5.701 -2.314 0.0
-33.493 -5.783 -2.303 0.0
-33.251 -5.848 -2.287 0.0
-32.808 -5.823 -2.254 0.0
-32.267 -5.832 -2.215 0.0
-30.974 -5.697 -2.12 0.0
-33.134 -6.204 -2.283 0.0
-33.014 -6.289 -2.275 0.0
-32.64 -6.324 -2.249 0.0
-32.475 -6.398 -2.238 0.0
-32.167 -6.442 -2.216 0.07
-31.85 -6.43 -2.193 0.14
-31.664 -6.496 -2.181 0.09
-31.557 -6.577 -2.174 0.0
-31.531 -6.675 -2.174 0.0
-31.751 -6.827 -2.192 0.13
-31.815 -6.945 -2.198 0.0
-32.212 -7.138 -2.23 0.07
-32.178 -7.183 -2.228 0.0
-32.155 -7.284 -2.228 0.0
-31.591 -7.261 -2.187 0.0
-31.438 -7.33 -2.178 0.0
-30.751 -7.271 -2.127 0.0
-29.982 -7.188 -2.071 0.0
-32.697 -7.95 -2.278 0.09
-32.592 -7.978 -2.271 0.23
-32.506 -8.066 -2.267 0.11
-32.485 -8.169 -2.267 0.17
-32.399 -8.255 -2.263 0.12
-32.448 -8.377 -2.268 0.16
-32.366 -8.464 -2.264 0.12
-32.355 -8.57 -2.265 0.13
-32.331 -8.672 -2.265 0.0
-32.273 -8.711 -2.262 0.0
-32.034 -8.754 -2.246 0.0
-31.922 -8.832 -2.239 0.0
-31.385 -8.789 -2.201 0.0
-31.112 -8.818 -2.182 0.0
-30.622 -8.782 -2.146 0.0
-30.024 -8.712 -2.102 0.0
-29.528 -8.618 -2.065 0.0
-31.862 -9.411 -2.247 0.08
-31.649 -9.456 -2.233 0.15
-31.507 -9.521 -2.224 0.34
-31.295 -9.564 -2.21 0.0
-31.046 -9.595 -2.193 0.0
-30.534 -9.541 -2.156 0.0
-30.12 -9.463 -2.125 0.0
-29.632 -9.412 -2.09 0.0
-29.152 -9.36 -2.055 0.0
-28.975 -9.404 -2.043 0.11
-29.165 -9.567 -2.061 0.24
-28.97 -9.604 -2.048 0.18
-28.845 -9.663 -2.04 0.45
-28.669 -9.654 -2.028 0.23
-28.552 -9.714 -2.021 0.31
-28.455 -9.781 -2.016 0.24
-28.357 -9.847 -2.011 0.32
-28.145 -9.873 -1.997 0.31
-27.993 -9.918 -1.987 0.29
-27.787 -9.943 -1.974 0.31
-27.413 -9.906 -1.947 0.29
-27.266 -9.902 -1.936 0.27
-27.139 -9.952 -1.929 0.28
-27.005 -9.999 -1.921 0.29
-26.798 -10.018 -1.907 0.21
-26.828 -10.126 -1.912 0.22
-26.925 -10.259 -1.922 0.32
-26.715 -10.275 -1.908 0.3
-26.569 -10.267 -1.898 0.27
-26.537 -10.35 -1.898 0.27
-26.484 -10.425 -1.896 0.22
-26.264 -10.434 -1.881 0.35
-26.21 -10.508 -1.88 0.28
-26.21 -10.604 -1.882 0.3
-26.064 -10.64 -1.873 0.27
-25.941 -10.637 -1.865 0.3
-25.894 -10.713 -1.864 0.29
-25.794 -10.767 -1.858 0.14
-25.979 -10.94 -1.876 0.58
-25.207 -10.708 -1.817 0.19
-25.481 -10.919 -1.841 0.16
-25.392 -10.975 -1.837 0.52
-25.542 -11.136 -1.852 0.23
-25.308 -11.081 -1.835 0.32
-25.182 -11.12 -1.827 0.25
-25.251 -11.246 -1.836 0.14
-24.277 -10.902 -1.76 0.0
-24.993 -11.319 -1.82 0.0
-24.42 -11.152 -1.777 0.07
-24.119 -11.106 -1.755 0.16
-24.306 -11.238 -1.772 0.12
-24.186 -11.275 -1.765 0.15
-23.86 -11.214 -1.741 0.16
-23.203 -10.994 -1.691 0.0
-22.609 -10.798 -1.645 0.11
-23.365 -11.251 -1.71 0.14
-22.93 -11.13 -1.677 0.0
-25.71 -12.532 -1.906 0.13
-25.629 -12.593 -1.903 0.1
-25.57 -12.664 -1.901 0.16
-25.503 -12.73 -1.899 0.2
-25.415 -12.786 -1.895 0.27
-25.321 -12.839 -1.891 0.32
-25.226 -12.89 -1.886 0.36
-25.07 -12.91 -1.877 0.26
-24.986 -12.916 -1.871 0.38
-24.805 -12.922 -1.86 0.31
-24.683 -12.957 -1.853 0.35
-24.581 -13.002 -1.848 0.34
-24.441 -13.026 -1.84 0.33
-24.225 -13.008 -1.825 0.31
-24.107 -13.043 -1.818 0.3
-24.0 -13.034 -1.811 0.35
-23.907 -13.08 -1.807 0.33
-23.783 -13.11 -1.8 0.36
-23.658 -13.138 -1.793 0.14
-23.457 -13.123 -1.779 0.18
-23.471 -13.228 -1.784 0.15
-23.23 -13.188 -1.767 0.23
-23.305 -13.279 -1.775 0.25
-23.539 -13.511 -1.799 0.1
-23.474 -13.572 -1.797 0.16
-23.389 -13.621 -1.793 0.16
-23.313 -13.675 -1.79 0.16
-23.237 -13.729 -1.788 0.16
-23.175 -13.79 -1.786 0.16
-23.114 -13.803 -1.783 0.1
-23.047 -13.861 -1.78 0.16
-22.959 -13.907 -1.777 0.23
-22.884 -13.96 -1.774 0.24
-22.795 -14.004 -1.77 0.25
-22.727 -14.06 -1.768 0.25
-22.654 -14.114 -1.765 0.26
-22.577 -14.165 -1.763 0.11
-22.523 -14.18 -1.76 0.16
-22.46 -14.239 -1.758 0.11
-22.356 -14.272 -1.753 0.18
-22.283 -14.324 -1.751 0.29
-22.197 -14.367 -1.747 0.2
-22.119 -14.415 -1.744 0.17
-22.03 -14.456 -1.74 0.32
-21.967 -14.464 -1.737 0.19
-21.887 -14.51 -1.734 0.15
-19.547 -13.044 -1.53 0.36
-21.722 -14.598 -1.727 0.19
-21.657 -14.653 -1.725 0.18
-21.581 -14.701 -1.723 0.3
-21.508 -14.75 -1.721 0.2
-21.472 -14.775 -1.719 0.17
-21.412 -14.833 -1.718 0.31
-21.325 -14.872 -1.714 0.2
-21.234 -14.908 -1.711 0.19
-21.166 -14.96 -1.709 0.21
-21.083 -15.001 -1.705 0.2
-21.021 -15.056 -1.704 0.2
-20.946 -15.102 -1.702 0.38
-20.895 -15.115 -1.699 0.23
-20.812 -15.155 -1.696 0.27
-20.718 -15.186 -1.692 0.23
-20.635 -15.225 -1.688 0.32
-20.571 -15.278 -1.687 0.31
-20.497 -15.323 -1.684 0.3
-20.45 -15.389 -1.685 0.35
-20.434 -15.427 -1.685 0.26
-20.363 -15.474 -1.683 0.29
-20.28 -15.511 -1.68 0.32
-20.18 -15.536 -1.675 0.36
-20.083 -15.561 -1.671 0.3
-19.964 -15.57 -1.664 0.32
-19.837 -15.571 -1.657 0.29
-19.77 -15.569 -1.653 0.48
-19.651 -15.575 -1.646 0.29
-19.558 -15.602 -1.642 0.32
-19.43 -15.6 -1.635 0.27
-19.316 -15.608 -1.629 0.32
-19.199 -15.613 -1.622 0.27
-18.971 -15.527 -1.605 0.29
-18.889 -15.51 -1.6 0.33
-18.759 -15.501 -1.592 0.25
-18.652 -15.512 -1.586 0.33
-18.545 -15.522 -1.581 0.28
-18.435 -15.528 -1.575 0.26
-18.324 -15.533 -1.569 0.29
-18.321 -15.63 -1.573 0.29
-18.242 -15.612 -1.568 0.29
-18.131 -15.615 -1.562 0.3
-18.03 -15.628 -1.557 0.32
-17.927 -15.637 -1.552 0.32
-17.809 -15.633 -1.545 0.33
-17.715 -15.649 -1.54 0.35
-17.603 -15.649 -1.534 0.3
-17.487 -15.644 -1.528 0.31
-17.415 -15.629 -1.523 0.31
-17.304 -15.627 -1.517 0.34
-17.195 -15.628 -1.511 0.32
-17.102 -15.641 -1.506 0.36
-17.012 -15.657 -1.502 0.32
-16.833 -15.59 -1.489 0.25
-16.689 -15.554 -1.48 0.39
-16.734 -15.646 -1.487 0.3
-16.614 -15.631 -1.48 0.27
-16.524 -15.645 -1.475 0.39
-16.426 -15.65 -1.47 0.29
-16.319 -15.646 -1.465 0.34
-16.225 -15.654 -1.46 0.29
-16.13 -15.661 -1.455 0.31
-16.067 -15.648 -1.451 0.32
-15.989 -15.671 -1.448 0.28
-15.905 -15.686 -1.445 0.33
-15.812 -15.692 -1.44 0.32
-15.727 -15.706 -1.436 0.37
-15.668 -15.746 -1.435 0.32
-15.568 -15.744 -1.43 0.37
-15.482 -15.756 -1.426 0.39
-15.404 -15.726 -1.421 0.31
-15.306 -15.724 -1.416 0.14
-9.026 -9.316 -0.754 0.51
-8.979 -9.326 -0.752 0.33
-8.915 -9.318 -0.749 0.64
-8.87 -9.328 -0.747 0.18
-8.843 -9.329 -0.746 0.71
-8.802 -9.345 -0.744 0.23
-8.871 -9.478 -0.755 0.66
-14.587 -15.709 -1.378 0.21
-8.825 -9.548 -0.757 0.2
-8.783 -9.563 -0.755 0.46
-8.722 -9.556 -0.752 0.53
-8.672 -9.561 -0.75 0.31
-8.721 -9.646 -0.757 0.29
-8.656 -9.635 -0.753 0.46
-8.596 -9.629 -0.75 0.57
-8.571 -9.662 -0.75 0.5
-8.534 -9.682 -0.749 0.53
-8.5 -9.704 -0.749 0.59
-8.482 -9.746 -0.75 0.36
-8.45 -9.739 -0.749 0.65
-8.584 -9.958 -0.767 0.25
-8.21 -9.583 -0.728 0.46
-8.17 -9.596 -0.727 0.38
-8.133 -9.614 -0.726 0.47
-8.199 -9.755 -0.737 0.42
-8.206 -9.826 -0.742 0.43
-8.256 -9.917 -0.749 0.41
-8.249 -9.973 -0.752 0.39
-8.244 -10.031 -0.755 0.38
-8.214 -10.058 -0.755 0.44
-8.207 -10.115 -0.758 0.51
-8.198 -10.169 -0.761 0.22
-8.162 -10.19 -0.76 0.61
-12.495 -15.722 -1.278 0.35
-12.465 -15.736 -1.278 0.42
-12.382 -15.732 -1.274 0.34
-12.305 -15.735 -1.27 0.19
-12.233 -15.745 -1.268 0.41
-12.154 -15.746 -1.264 0.33
-12.079 -15.75 -1.261 0.35
-12.007 -15.758 -1.258 0.25
-11.956 -15.742 -1.255 0.54
-11.873 -15.735 -1.251 0.29
-11.27 -15.032 -1.183 0.25
-11.207 -15.047 -1.181 0.3
-11.157 -15.077 -1.181 0.35
-11.101 -15.101 -1.18 0.56
-11.078 -15.17 -1.183 0.47
-11.312 -15.542 -1.215 0.22
-11.385 -15.748 -1.23 0.29
-11.305 -15.739 -1.227 0.22
-11.241 -15.755 -1.225 0.3
-11.173 -15.765 -1.222 0.35
-11.1 -15.765 -1.219 0.45
-11.024 -15.762 -1.216 0.27
-10.979 -15.75 -1.213 0.29
-10.917 -15.767 -1.212 0.26
-10.847 -15.771 -1.209 0.51
-10.769 -15.764 -1.205 0.33
-10.689 -15.753 -1.201 0.29
-10.624 -15.764 -1.199 0.3
-10.561 -15.777 -1.198 0.23
-10.519 -15.767 -1.195 0.58
-10.442 -15.758 -1.192 0.25
-10.372 -15.761 -1.189 0.32
-10.301 -15.76 -1.186 0.3
-10.246 -15.784 -1.185 0.44
-10.168 -15.772 -1.181 0.2
-10.098 -15.772 -1.179 0.4
-10.038 -15.787 -1.177 0.29
-9.992 -15.769 -1.174 0.5
-9.931 -15.782 -1.173 0.26
-9.867 -15.791 -1.171 0.39
-9.797 -15.788 -1.168 0.43
-9.722 -15.778 -1.164 0.51
-9.65 -15.771 -1.161 0.32
-9.589 -15.782 -1.159 0.34
-9.552 -15.777 -1.158 0.4
-9.498 -15.8 -1.157 0.42
-9.422 -15.785 -1.153 0.21
-9.357 -15.789 -1.151 0.32
-9.29 -15.789 -1.148 0.35
-9.222 -15.787 -1.146 0.36
-9.15 -15.776 -1.142 0.3
-9.123 -15.787 -1.142 0.41
-9.054 -15.783 -1.139 0.23
-8.99 -15.785 -1.137 0.36
-8.933 -15.8 -1.136 0.32
-8.865 -15.796 -1.133 0.27
-8.801 -15.798 -1.131 0.39
-8.737 -15.799 -1.129 0.3
-8.701 -15.792 -1.127 0.25
-8.637 -15.793 -1.125 0.36
-8.572 -15.792 -1.123 0.27
-8.517 -15.808 -1.122 0.22
-8.427 -15.761 -1.116 0.55
-8.403 -15.835 -1.119 0.23
-8.332 -15.821 -1.116 0.24
-8.258 -15.801 -1.112 0.27
-8.224 -15.796 -1.111 0.24
-8.182 -15.836 -1.112 0.51
-8.107 -15.812 -1.108 0.26
-8.043 -15.81 -1.106 0.3
-7.989 -15.827 -1.105 0.36
-7.922 -15.816 -1.102 0.26
-7.861 -15.819 -1.1 0.2
-7.822 -15.803 -1.098 0.3
-7.763 -15.808 -1.096 0.35
-7.7 -15.805 -1.094 0.26
-7.643 -15.813 -1.093 0.33
-7.578 -15.805 -1.09 0.36
-7.522 -15.816 -1.089 0.36
-7.471 -15.836 -1.089 0.41
-7.431 -15.817 -1.086 0.34
-7.37 -15.815 -1.084 0.27
-7.313 -15.823 -1.083 0.21
-7.259 -15.835 -1.082 0.37
-7.187 -15.811 -1.078 0.17
-7.133 -15.822 -1.077 0.3
-7.073 -15.821 -1.076 0.33
-7.042 -15.819 -1.075 0.48
-6.984 -15.821 -1.073 0.3
-6.924 -15.821 -1.071 0.25
-6.867 -15.827 -1.07 0.46
-6.804 -15.817 -1.067 0.29
-6.749 -15.825 -1.066 0.34
-6.691 -15.826 -1.065 0.34
-6.661 -15.826 -1.064 0.37
-6.604 -15.828 -1.062 0.36
-6.547 -15.832 -1.061 0.45
-6.48 -15.81 -1.058 0.26
-6.427 -15.821 -1.057 0.29
-6.372 -15.828 -1.056 0.41
-6.319 -15.841 -1.055 0.34
-6.288 -15.834 -1.054 0.33
-6.231 -15.835 -1.052 0.52
-3.507 -8.965 -0.508 0.21
-3.469 -8.95 -0.506 0.41
-3.424 -8.918 -0.502 0.29
-3.391 -8.914 -0.501 0.59
-3.36 -8.917 -0.501 0.27
-3.354 -8.945 -0.502 0.56
-3.321 -8.94 -0.501 0.34
-3.33 -9.054 -0.509 0.36
-3.33 -9.143 -0.515 0.46
-3.257 -9.029 -0.506 0.28
-3.211 -8.991 -0.502 0.48
-3.188 -9.014 -0.503 0.32
-3.17 -9.008 -0.502 0.49
-3.199 -9.185 -0.515 0.42
-3.205 -9.295 -0.523 0.47
-5.388 -15.847 -1.032 0.14
-5.334 -15.85 -1.031 0.45
-5.279 -15.85 -1.03 0.36
-5.224 -15.851 -1.028 0.34
-5.169 -15.852 -1.027 0.3
-5.141 -15.851 -1.026 0.48
-5.085 -15.848 -1.025 0.37
-5.031 -15.849 -1.024 0.37
-2.908 -9.225 -0.511 0.25
-2.872 -9.212 -0.509 0.29
-2.837 -9.203 -0.508 0.45
-2.808 -9.21 -0.508 0.45
-2.8 -9.238 -0.51 0.26
-2.745 -9.157 -0.503 0.48
-2.723 -9.19 -0.505 0.42
-2.706 -9.239 -0.508 0.48
-2.696 -9.312 -0.513 0.18
-2.643 -9.238 -0.506 0.61
-4.465 -15.862 -1.013 0.29
-2.576 -9.166 -0.5 0.27
-2.547 -9.174 -0.5 0.29
-2.522 -9.196 -0.501 0.61
-4.277 -15.86 -1.009 0.16
-4.224 -15.862 -1.008 0.41
-4.173 -15.871 -1.008 0.39
-4.121 -15.876 -1.007 0.3
-4.092 -15.867 -1.006 0.41
-4.038 -15.865 -1.005 0.39
-3.985 -15.864 -1.004 0.36
-3.926 -15.837 -1.001 0.29
-3.858 -15.774 -0.995 0.41
-3.806 -15.776 -0.994 0.38
-3.755 -15.783 -0.994 0.39
-3.701 -15.775 -0.992 0.41
-3.677 -15.784 -0.993 0.36
-3.623 -15.778 -0.991 0.45
-3.577 -15.805 -0.993 0.31
-3.521 -15.789 -0.991 0.59
-3.467 -15.781 -0.989 0.32
-3.415 -15.776 -0.988 0.41
-3.363 -15.779 -0.987 0.31
-3.339 -15.784 -0.987 0.27
-3.309 -15.892 -0.995 0.5
-3.257 -15.891 -0.994 0.32
-3.203 -15.883 -0.992 0.4
-3.154 -15.895 -0.993 0.39
-3.102 -15.897 -0.992 0.38
-3.05 -15.893 -0.991 0.37
-3.023 -15.89 -0.99 0.38
-2.977 -15.919 -0.992 0.25
-2.921 -15.895 -0.989 0.55
-2.868 -15.89 -0.988 0.28
-2.815 -15.878 -0.987 0.44
-2.765 -15.888 -0.987 0.38
-2.715 -15.895 -0.987 0.38
-2.687 -15.882 -0.985 0.33
-2.639 -15.9 -0.986 0.39
-2.587 -15.9 -0.986 0.27
-2.534 -15.889 -0.984 0.48
-2.486 -15.906 -0.985 0.38
-2.433 -15.894 -0.983 0.2
-2.38 -15.878 -0.982 0.46
-2.355 -15.888 -0.982 0.33
-2.308 -15.909 -0.983 0.3
-2.254 -15.888 -0.981 0.45
-2.206 -15.909 -0.982 0.39
-2.156 -15.918 -0.982 0.44
-2.103 -15.905 -0.981 0.34
-2.054 -15.917 -0.981 0.37
-2.004 -15.924 -0.981 0.43
-1.977 -15.909 -0.98 0.43
-1.926 -15.911 -0.98 0.41
-1.874 -15.898 -0.978 0.44
-1.824 -15.899 -0.978 0.41
-1.774 -15.909 -0.978 0.44
-1.723 -15.907 -0.977 0.34
-1.672 -15.898 -0.976 0.43
-1.647 -15.905 -0.977 0.39
-1.597 -15.908 -0.977 0.35
-1.548 -15.917 -0.977 0.38
-1.497 -15.911 -0.976 0.37
-1.446 -15.908 -0.976 0.42
-1.396 -15.915 -0.976 0.34
-1.346 -15.921 -0.976 0.38
-1.32 -15.911 -0.975 0.43
-1.27 -15.913 -0.975 0.36
-1.219 -15.899 -0.974 0.38
-1.169 -15.907 -0.974 0.48
-1.119 -15.9 -0.973 0.3
-1.069 -15.904 -0.973 0.43
-1.019 -15.915 -0.974 0.33
-0.994 -15.915 -0.974 0.42
-0.944 -15.916 -0.973 0.39
-0.894 -15.915 -0.973 0.34
-0.844 -15.917 -0.973 0.43
-0.793 -15.914 -0.973 0.36
-0.743 -15.916 -0.973 0.37
-0.693 -15.921 -0.973 0.48
-0.668 -15.914 -0.972 0.38
-0.618 -15.912 -0.972 0.37
-0.568 -15.916 -0.972 0.34
-0.518 -15.915 -0.972 0.37
-0.468 -15.909 -0.971 0.39
-0.418 -15.92 -0.972 0.32
-0.369 -15.955 -0.975 0.3
-0.343 -15.916 -0.972 0.46
-0.293 -15.921 -0.972 0.32
-0.243 -15.912 -0.971 0.46
-0.193 -15.921 -0.972 0.35
-0.143 -15.931 -0.972 0.37
-0.093 -15.932 -0.972 0.39
-0.043 -15.94 -0.973 0.34
-0.018 -15.92 -0.972 0.48
0.032 -15.942 -0.973 0.27
0.082 -15.934 -0.973 0.52
0.132 -15.931 -0.972 0.34
0.182 -15.921 -0.972 0.41
0.232 -15.93 -0.972 0.38
0.283 -15.929 -0.972 0.36
0.332 -15.924 -0.972 0.38
0.358 -15.924 -0.972 0.29
0.408 -15.939 -0.973 0.46
0.458 -15.923 -0.972 0.43
0.508 -15.924 -0.972 0.39
0.558 -15.932 -0.973 0.39
0.609 -15.94 -0.974 0.41
0.659 -15.94 -0.974 0.25
0.684 -15.941 -0.974 0.4
0.734 -15.937 -0.974 0.48
0.785 -15.952 -0.975 0.36
0.835 -15.948 -0.975 0.45
0.885 -15.947 -0.975 0.4
0.935 -15.936 -0.975 0.45
0.985 -15.937 -0.975 0.32
1.009 -15.928 -0.975 0.47
1.06 -15.934 -0.975 0.43
1.113 -15.965 -0.978 0.21
1.162 -15.945 -0.977 0.57
1.211 -15.928 -0.976 0.37
1.262 -15.938 -0.977 0.27
1.313 -15.954 -0.978 0.38
1.338 -15.95 -0.978 0.38
1.389 -15.949 -0.978 0.43
1.439 -15.945 -0.978 0.39
1.491 -15.96 -0.98 0.4
1.541 -15.959 -0.98 0.34
1.591 -15.95 -0.98 0.43
1.643 -15.959 -0.981 0.31
1.666 -15.945 -0.98 0.5
1.718 -15.949 -0.981 0.38
1.768 -15.948 -0.981 0.39
1.82 -15.96 -0.982 0.33
1.872 -15.97 -0.983 0.38
1.92 -15.946 -0.982 0.41
1.971 -15.944 -0.982 0.39
1.999 -15.963 -0.984 0.32
2.049 -15.956 -0.984 0.36
2.101 -15.962 -0.985 0.34
2.153 -15.975 -0.986 0.39
2.203 -15.966 -0.986 0.39
2.252 -15.949 -0.985 0.41
2.306 -15.97 -0.987 0.38
2.331 -15.964 -0.987 0.49
2.385 -15.98 -0.989 0.24
2.434 -15.967 -0.989 0.49
2.486 -15.971 -0.99 0.35
2.537 -15.969 -0.99 0.43
2.587 -15.961 -0.99 0.36
2.64 -15.968 -0.991 0.38
2.69 -15.96 -0.991 0.48
2.717 -15.968 -0.992 0.29
2.767 -15.959 -0.992 0.54
2.821 -15.972 -0.994 0.36
2.874 -15.975 -0.995 0.32
2.925 -15.971 -0.995 0.21
2.976 -15.968 -0.995 0.46
3.028 -15.966 -0.996 0.37
3.056 -15.975 -0.997 0.36
3.106 -15.966 -0.997 0.38
3.159 -15.973 -0.998 0.43
3.212 -15.977 -0.999 0.33
3.266 -15.983 -1.001 0.29
3.314 -15.962 -1.0 0.53
3.371 -15.985 -1.002 0.32
3.395 -15.974 -1.002 0.45
3.451 -15.992 -1.004 0.36
3.504 -15.991 -1.005 0.43
3.558 -15.998 -1.006 0.35
3.606 -15.977 -1.005 0.45
3.663 -15.994 -1.008 0.41
3.715 -15.991 -1.008 0.36
3.74 -15.983 -1.008 0.46
3.796 -15.998 -1.01 0.36
3.845 -15.98 -1.01 0.45
3.901 -15.993 -1.012 0.24
3.989 -16.13 -1.023 0.68
4.009 -15.996 -1.014 0.36
4.06 -15.989 -1.014 0.4
4.091 -16.002 -1.016 0.41
4.141 -15.991 -1.016 0.38
4.196 -15.995 -1.017 0.44
4.253 -16.007 -1.019 0.18
4.303 -15.993 -1.019 0.57
4.358 -15.997 -1.02 0.34
4.412 -15.995 -1.021 0.43
4.463 -15.985 -1.021 0.36
4.489 -15.981 -1.022 0.33
4.55 -16.004 -1.025 0.24
4.601 -15.993 -1.025 0.51
4.661 -16.011 -1.027 0.37
4.715 -16.01 -1.028 0.35
4.765 -15.995 -1.028 0.28
4.799 -16.014 -1.03 0.33
4.854 -16.014 -1.032 0.25
4.905 -16.003 -1.032 0.29
4.961 -16.004 -1.033 0.3
5.023 -16.029 -1.036 0.48
5.072 -16.007 -1.036 0.3
5.127 -16.006 -1.037 0.3
5.155 -16.006 -1.038 0.24
5.21 -16.005 -1.039 0.41
5.266 -16.007 -1.04 0.29
5.324 -16.013 -1.042 0.35
5.382 -16.017 -1.044 0.27
5.438 -16.019 -1.045 0.46
5.494 -16.019 -1.046 0.36
5.546 -16.005 -1.047 0.45
5.582 -16.029 -1.049 0.36
5.639 -16.028 -1.051 0.39
5.696 -16.029 -1.052 0.39
5.75 -16.022 -1.053 0.43
5.807 -16.023 -1.054 0.36
5.86 -16.012 -1.055 0.42
5.92 -16.018 -1.057 0.41
5.957 -16.042 -1.06 0.3
6.01 -16.029 -1.06 0.57
6.074 -16.045 -1.063 0.24
6.13 -16.041 -1.064 0.49
6.187 -16.039 -1.065 0.35
6.241 -16.03 -1.066 0.43
6.303 -16.04 -1.068 0.37
6.338 -16.054 -1.07 0.39
6.39 -16.038 -1.071 0.39
6.449 -16.04 -1.072 0.31
6.504 -16.031 -1.073 0.46
6.568 -16.044 -1.076 0.39
6.621 -16.028 -1.076 0.34
6.681 -16.031 -1.078 0.39
6.72 -16.054 -1.081 0.36
6.772 -16.037 -1.081 0.36
6.841 -16.057 -1.085 0.36
6.9 -16.056 -1.086 0.42
6.956 -16.049 -1.087 0.47
7.008 -16.031 -1.088 0.28
7.068 -16.03 -1.09 0.26
7.109 -16.054 -1.092 0.42
7.164 -16.042 -1.093 0.33
7.224 -16.04 -1.095 0.34
7.288 -16.048 -1.097 0.36
7.344 -16.037 -1.098 0.34
7.413 -16.054 -1.102 0.28
7.478 -16.062 -1.104 0.47
7.506 -16.057 -1.105 0.36
7.567 -16.055 -1.106 0.36
7.631 -16.06 -1.109 0.34
7.691 -16.056 -1.11 0.36
7.755 -16.058 -1.113 0.34
7.822 -16.068 -1.115 0.48
7.877 -16.052 -1.116 0.23
7.923 -16.083 -1.12 0.36
7.988 -16.086 -1.122 0.41
8.05 -16.084 -1.124 0.34
8.115 -16.087 -1.126 0.36
8.189 -16.108 -1.13 0.27
8.267 -16.135 -1.134 0.39
8.315 -16.104 -1.134 0.43
8.342 -16.095 -1.134 0.4
8.418 -16.118 -1.138 0.33
8.499 -16.148 -1.143 0.4
8.564 -16.149 -1.146 0.39
8.617 -16.126 -1.146 0.39
8.675 -16.112 -1.147 0.43
8.728 -16.089 -1.147 0.46
8.768 -16.044 -1.146 0.43
8.802 -16.046 -1.147 0.3
8.862 -16.035 -1.149 0.42
8.931 -16.04 -1.151 0.38
8.996 -16.038 -1.154 0.39
9.071 -16.053 -1.157 0.39
9.127 -16.035 -1.158 0.37
9.199 -16.043 -1.161 0.37
9.233 -16.044 -1.163 0.34
9.295 -16.035 -1.164 0.37
9.365 -16.039 -1.167 0.33
9.439 -16.051 -1.171 0.35
9.5 -16.038 -1.172 0.39
9.573 -16.046 -1.175 0.38
9.641 -16.045 -1.178 0.36
9.68 -16.053 -1.18 0.36
9.755 -16.062 -1.183 0.36
9.823 -16.06 -1.186 0.34
9.885 -16.048 -1.187 0.39
9.948 -16.037 -1.189 0.36
10.029 -16.055 -1.193 0.35
10.092 -16.044 -1.195 0.36
10.133 -16.053 -1.197 0.36
10.216 -16.071 -1.202 0.38
10.274 -16.051 -1.203 0.34
10.352 -16.062 -1.207 0.35
10.422 -16.06 -1.209 0.38
10.486 -16.047 -1.211 0.34
10.569 -16.064 -1.215 0.36
10.619 -16.085 -1.219 0.35
10.693 -16.087 -1.222 0.35
10.765 -16.085 -1.225 0.37
10.835 -16.081 -1.227 0.35
10.912 -16.084 -1.231 0.38
10.985 -16.083 -1.234 0.37
11.048 -16.066 -1.235 0.33
11.122 -16.066 -1.238 0.43
11.152 -16.055 -1.239 0.33
11.171 -15.976 -1.235 0.34
11.252 -15.985 -1.239 0.26
11.322 -15.977 -1.242 0.42
11.39 -15.966 -1.244 0.43
11.462 -15.96 -1.247 0.38
11.542 -15.966 -1.25 0.4
11.597 -15.989 -1.254 0.32
11.674 -15.989 -1.257 0.3
11.773 -16.018 -1.263 0.25
11.836 -15.999 -1.265 0.58
11.954 -16.052 -1.273 0.34
12.025 -16.042 -1.276 0.4
12.086 -16.018 -1.277 0.38
12.126 -16.018 -1.279 0.42
12.188 -15.996 -1.28 0.45
12.235 -15.953 -1.28 0.39
12.265 -15.889 -1.278 0.35
12.315 -15.851 -1.278 0.32
12.361 -15.807 -1.277 0.39
12.41 -15.767 -1.277 0.37
12.452 -15.769 -1.279 0.36
12.516 -15.749 -1.281 0.36
12.565 -15.709 -1.281 0.3
12.63 -15.688 -1.283 0.42
12.688 -15.659 -1.284 0.39
12.733 -15.615 -1.283 0.31
12.783 -15.576 -1.283 0.36
12.814 -15.564 -1.284 0.34
12.878 -15.542 -1.286 0.32
12.926 -15.5 -1.286 0.29
12.98 -15.465 -1.286 0.28
13.041 -15.44 -1.288 0.29
13.092 -15.402 -1.288 0.29
13.144 -15.365 -1.289 0.28
13.171 -15.347 -1.289 0.29
13.23 -15.318 -1.29 0.29
13.289 -15.29 -1.291 0.29
13.341 -15.253 -1.292 0.3
13.385 -15.206 -1.291 0.3
13.44 -15.171 -1.292 0.29
13.489 -15.131 -1.292 0.29
13.54 -15.093 -1.293 0.29
13.576 -15.085 -1.294 0.29
13.635 -15.055 -1.295 0.27
13.696 -15.027 -1.297 0.27
13.748 -14.99 -1.297 0.29
13.797 -14.948 -1.298 0.29
13.844 -14.905 -1.298 0.29
13.862 -14.877 -1.297 0.32
13.901 -14.826 -1.296 0.29
13.948 -14.782 -1.296 0.21
13.996 -14.74 -1.296 0.41
14.029 -14.683 -1.295 0.24
14.076 -14.639 -1.295 0.18
14.138 -14.612 -1.297 0.39
14.143 -14.571 -1.295 0.23
14.194 -14.532 -1.295 0.18
14.251 -14.499 -1.297 0.4
14.295 -14.452 -1.297 0.23
14.347 -14.415 -1.297 0.19
14.414 -14.39 -1.299 0.39
14.462 -14.348 -1.3 0.19
14.508 -14.304 -1.3 0.38
14.528 -14.278 -1.3 0.23
14.573 -14.233 -1.3 0.18
14.634 -14.203 -1.301 0.39
14.672 -14.15 -1.301 0.23
14.716 -14.104 -1.301 0.19
14.785 -14.081 -1.303 0.42
14.828 -14.033 -1.303 0.25
14.856 -14.016 -1.304 0.24
14.879 -13.95 -1.302 0.3
14.964 -13.941 -1.306 0.27
15.01 -13.897 -1.306 0.26
15.053 -13.848 -1.306 0.19
15.046 -13.755 -1.301 0.29
15.101 -13.718 -1.302 0.27
15.133 -13.704 -1.303 0.41
15.214 -13.691 -1.307 0.41
15.286 -13.668 -1.31 0.38
15.387 -13.672 -1.315 0.35
15.401 -13.598 -1.313 0.38
15.469 -13.572 -1.315 0.38
15.521 -13.531 -1.316 0.46
15.587 -13.546 -1.32 0.34
15.695 -13.553 -1.327 0.5
15.842 -13.593 -1.337 0.37
15.936 -13.587 -1.342 0.4
16.021 -13.573 -1.346 0.3
16.076 -13.533 -1.347 0.42
16.14 -13.5 -1.349 0.34
16.138 -13.456 -1.347 0.31
16.176 -13.401 -1.346 0.28
16.216 -13.349 -1.346 0.28
16.241 -13.284 -1.345 0.26
16.312 -13.257 -1.348 0.23
16.329 -13.186 -1.345 0.18
16.387 -13.148 -1.347 0.43
16.41 -13.124 -1.347 0.24
16.452 -13.073 -1.347 0.19
16.506 -13.031 -1.348 0.42
16.545 -12.978 -1.348 0.22
16.595 -12.934 -1.349 0.34
16.628 -12.875 -1.348 0.22
16.694 -12.842 -1.351 0.19
16.723 -12.823 -1.351 0.29
16.751 -12.761 -1.35 0.21
16.827 -12.736 -1.354 0.27
16.888 -12.699 -1.356 0.24
16.159 -12.072 -1.285 0.36
16.216 -12.036 -1.287 0.19
16.141 -11.902 -1.276 0.31
16.297 -11.938 -1.287 0.21
16.139 -11.784 -1.271 0.3
16.227 -11.77 -1.276 0.43
16.349 -11.78 -1.283 0.31
16.355 -11.706 -1.281 0.41
16.416 -11.672 -1.283 0.38
16.482 -11.641 -1.285 0.35
16.463 -11.551 -1.28 0.38
16.448 -11.502 -1.278 0.36
16.551 -11.497 -1.284 0.36
16.576 -11.437 -1.283 0.37
16.6 -11.377 -1.282 0.36
16.596 -11.298 -1.278 0.39
16.608 -11.23 -1.276 0.34
16.637 -11.173 -1.275 0.38
16.65 -11.144 -1.275 0.41
16.714 -11.111 -1.278 0.39
16.741 -11.053 -1.277 0.43
16.786 -11.007 -1.278 0.38
16.85 -10.974 -1.28 0.34
16.885 -10.921 -1.28 0.32
16.939 -10.881 -1.282 0.4
16.941 -10.844 -1.281 0.32
16.975 -10.791 -1.281 0.48
17.027 -10.749 -1.282 0.4
17.101 -10.721 -1.286 0.39
17.101 -10.646 -1.283 0.39
17.165 -10.611 -1.286 0.38
17.214 -10.567 -1.287 0.26
17.157 -10.495 -1.281 0.49
17.216 -10.457 -1.283 0.32
17.199 -10.373 -1.279 0.48
17.248 -10.329 -1.28 0.39
17.318 -10.297 -1.283 0.39
17.375 -10.257 -1.285 0.34
17.398 -10.197 -1.285 0.38
17.407 -10.166 -1.284 0.37
17.448 -10.116 -1.285 0.42
17.507 -10.077 -1.287 0.43
17.554 -10.031 -1.288 0.36
17.569 -9.966 -1.287 0.35
17.6 -9.91 -1.287 0.39
17.566 -9.819 -1.282 0.38
17.625 -9.779 -1.284 0.39
17.691 -9.78 -1.288 0.33
17.795 -9.764 -1.294 0.41
17.791 -9.689 -1.291 0.4
17.925 -9.689 -1.3 0.3
18.043 -9.68 -1.307 0.46
18.165 -9.672 -1.315 0.34
18.247 -9.679 -1.321 0.36
18.295 -9.631 -1.322 0.36
18.233 -9.525 -1.314 0.39
18.325 -9.5 -1.32 0.37
18.463 -9.498 -1.329 0.35
18.605 -9.497 -1.338 0.33
18.659 -9.451 -1.34 0.39
18.718 -9.406 -1.342 0.43
18.731 -9.376 -1.342 0.38
18.769 -9.322 -1.343 0.34
18.78 -9.254 -1.341 0.39
18.854 -9.217 -1.345 0.39
18.917 -9.174 -1.348 0.29
19.009 -9.145 -1.353 0.44
19.046 -9.089 -1.354 0.38
19.106 -9.08 -1.357 0.38
19.23 -9.065 -1.365 0.4
19.282 -9.016 -1.367 0.43
19.409 -9.001 -1.375 0.38
19.503 -8.97 -1.38 0.35
19.68 -8.977 -1.393 0.34
19.793 -8.953 -1.399 0.37
19.791 -8.915 -1.398 0.35
19.875 -8.878 -1.403 0.38
20.051 -8.88 -1.415 0.4
20.241 -8.889 -1.428 0.32
20.299 -8.838 -1.43 0.34
20.343 -8.781 -1.431 0.34
20.333 -8.701 -1.428 0.4
20.246 -8.627 -1.42 0.33
20.065 -8.475 -1.404 0.28
20.04 -8.391 -1.4 0.27
20.181 -8.375 -1.409 0.29
20.353 -8.371 -1.42 0.22
20.569 -8.385 -1.435 0.41
20.764 -8.388 -1.449 0.23
20.962 -8.429 -1.464 0.25
21.159 -8.431 -1.477 0.2
21.34 -8.425 -1.489 0.16
21.53 -8.422 -1.502 0.44
21.524 -8.342 -1.5 0.21
21.791 -8.366 -1.519 0.28
21.819 -8.299 -1.519 0.22
21.968 -8.316 -1.53 0.29
22.063 -8.273 -1.535 0.1
20.452 -7.597 -1.406 0.14
20.641 -7.594 -1.419 0.18
20.912 -7.619 -1.439 0.21
21.178 -7.64 -1.458 0.18
21.397 -7.643 -1.473 0.13
21.588 -7.672 -1.487 0.18
21.845 -7.686 -1.505 0.12
21.973 -7.654 -1.513 0.15
22.037 -7.598 -1.516 0.3
22.221 -7.584 -1.529 0.14
22.49 -7.596 -1.548 0.39
22.516 -7.526 -1.548 0.2
22.551 -7.459 -1.549 0.2
22.534 -7.415 -1.547 0.22
22.55 -7.341 -1.546 0.14
22.478 -7.24 -1.539 0.37
22.5 -7.169 -1.539 0.18
22.58 -7.116 -1.543 0.37
22.705 -7.077 -1.551 0.23
22.546 -6.95 -1.537 0.21
22.515 -6.902 -1.534 0.19
22.584 -6.846 -1.538 0.0
22.642 -6.786 -1.54 0.06
20.557 -6.093 -1.379 0.17
20.823 -6.1 -1.398 0.25
21.17 -6.13 -1.423 0.26
21.454 -6.138 -1.443 0.27
21.667 -6.162 -1.459 0.26
21.964 -6.172 -1.48 0.25
22.107 -6.137 -1.489 0.25
22.116 -6.065 -1.489 0.11
22.189 -6.01 -1.493 0.16
22.385 -5.987 -1.506 0.09
22.352 -5.903 -1.502 0.14
22.301 -5.853 -1.498 0.22
22.169 -5.744 -1.486 0.25
22.113 -5.655 -1.481 0.27
22.274 -5.622 -1.491 0.25
22.147 -5.516 -1.48 0.18
22.191 -5.453 -1.482 0.28
22.254 -5.394 -1.486 0.2
22.385 -5.389 -1.495 0.25
22.503 -5.342 -1.503 0.18
22.603 -5.291 -1.509 0.39
22.765 -5.253 -1.52 0.16
22.912 -5.211 -1.53 0.37
23.045 -5.165 -1.539 0.18
23.264 -5.137 -1.554 0.37
23.284 -5.065 -1.555 0.0
21.476 -4.639 -1.418 0.09
21.801 -4.637 -1.441 0.25
22.376 -4.685 -1.483 0.2
22.803 -4.699 -1.514 0.14
22.77 -4.618 -1.511 0.38
23.358 -4.66 -1.554 0.22
23.394 -4.591 -1.555 0.21
23.405 -4.555 -1.556 0.18
23.459 -4.489 -1.559 0.12
23.49 -4.418 -1.56 0.17
23.557 -4.354 -1.564 0.31
23.549 -4.276 -1.562 0.2
23.568 -4.203 -1.563 0.17
23.571 -4.128 -1.562 0.31
23.598 -4.094 -1.563 0.19
23.567 -4.013 -1.56 0.33
23.591 -3.94 -1.561 0.2
23.58 -3.862 -1.559 0.19
23.557 -3.783 -1.557 0.22
23.537 -3.704 -1.554 0.19
23.515 -3.625 -1.552 0.21
23.485 -3.582 -1.549 0.18
23.482 -3.507 -1.548 0.0
21.906 -3.132 -1.429 0.13
22.803 -3.187 -1.495 0.14
22.856 -3.121 -1.499 0.36
23.133 -3.084 -1.518 0.22
23.27 -3.065 -1.528 0.25
23.201 -2.982 -1.522 0.24
23.248 -2.914 -1.525 0.32
23.179 -2.831 -1.519 0.24
23.065 -2.744 -1.51 0.27
22.763 -2.636 -1.487 0.21
22.888 -2.577 -1.496 0.25
22.809 -2.532 -1.49 0.25
22.694 -2.448 -1.481 0.29
22.646 -2.37 -1.476 0.35
22.542 -2.288 -1.468 0.23
22.493 -2.212 -1.464 0.19
22.665 -2.157 -1.476 0.0
23.891 -2.196 -1.567 0.12
24.501 -2.213 -1.611 0.21
24.491 -2.135 -1.61 0.18
24.363 -2.046 -1.6 0.21
24.306 -1.965 -1.596 0.17
24.26 -1.884 -1.592 0.13
24.216 -1.805 -1.588 0.17
24.176 -1.725 -1.585 0.27
24.163 -1.648 -1.583 0.26
24.184 -1.611 -1.585 0.25
24.171 -1.534 -1.583 0.1
24.207 -1.46 -1.586 0.15
24.184 -1.382 -1.584 0.1
24.202 -1.307 -1.585 0.14
24.198 -1.231 -1.584 0.23
24.156 -1.153 -1.581 0.24
24.13 -1.113 -1.579 0.25
24.093 -1.036 -1.576 0.26
24.059 -0.959 -1.573 0.11
24.016 -0.882 -1.57 0.15
23.994 -0.805 -1.568 0.12
23.979 -0.729 -1.566 0.16
23.951 -0.653 -1.564 0.3
23.938 -0.615 -1.563 0.2
23.924 -0.54 -1.562 0.17
23.888 -0.464 -1.559 0.13
23.853 -0.388 -1.557 0.17
23.838 -0.313 -1.555 0.3
23.821 -0.238 -1.554 0.19
23.828 -0.163 -1.555 0.17
23.85 -0.126 -1.556 0.16
23.866 -0.051 -1.557 0.16
22.072 0.001 -1.57 0.27
22.084 0.036 -1.571 0.25
22.113 0.105 -1.573 0.26
22.111 0.175 -1.573 0.25
22.112 0.244 -1.573 0.26
22.117 0.314 -1.574 0.26
22.112 0.383 -1.573 0.25
22.069 0.452 -1.57 0.11
22.05 0.486 -1.568 0.15
22.027 0.555 -1.567 0.28
22.007 0.623 -1.565 0.19
21.957 0.691 -1.561 0.15
21.913 0.759 -1.558 0.3
21.875 0.826 -1.555 0.4
21.854 0.894 -1.554 0.23
21.829 0.928 -1.552 0.2
21.832 0.996 -1.552 0.23
21.81 1.064 -1.551 0.2
21.821 1.133 -1.552 0.22
21.803 1.201 -1.551 0.2
21.811 1.27 -1.552 0.23
21.813 1.339 -1.552 0.18
21.795 1.373 -1.551 0.33
21.781 1.44 -1.55 0.18
21.76 1.508 -1.549 0.35
21.734 1.574 -1.547 0.2
21.717 1.642 -1.546 0.25
21.683 1.708 -1.544 0.21
21.652 1.774 -1.542 0.17
21.651 1.808 -1.542 0.39
21.64 1.876 -1.542 0.23
21.608 1.941 -1.54 0.17
21.59 2.008 -1.539 0.39
21.557 2.073 -1.537 0.23
21.517 2.138 -1.534 0.18
21.518 2.206 -1.534 0.39
21.499 2.273 -1.533 0.23
21.478 2.304 -1.532 0.18
21.484 2.373 -1.533 0.39
21.471 2.44 -1.533 0.19
21.441 2.505 -1.531 0.38
21.425 2.572 -1.53 0.18
21.423 2.64 -1.531 0.38
21.417 2.707 -1.531 0.18
21.405 2.74 -1.53 0.36
21.378 2.805 -1.529 0.19
21.379 2.873 -1.53 0.38
21.366 2.94 -1.529 0.18
21.345 3.005 -1.528 0.36
21.321 3.07 -1.527 0.2
21.288 3.134 -1.525 0.36
21.267 3.165 -1.524 0.21
21.245 3.23 -1.523 0.25
21.209 3.293 -1.521 0.21
