# .PCD v.7 - Point Cloud Data file format
VERSION .7
FIELDS x y z intensity
SIZE 4 4 4 4
TYPE F F F F
COUNT 1 1 1 1
WIDTH 1908
HEIGHT 1
VIEWPOINT 0 0 0 1 0 0 0
POINTS 1908
DATA ascii
-45.577 10.948 1.276 0.0
-49.298 11.512 1.361 0.0
-49.445 11.465 1.364 0.0
-49.426 11.297 1.363 0.0
-50.265 11.322 1.382 0.0
-50.088 11.117 1.377 0.0
-49.623 10.687 1.364 0.0
-49.402 10.478 1.358 0.0
-49.428 10.402 1.359 0.0
-49.427 10.24 1.358 0.0
-50.739 10.345 1.388 0.0
-50.838 10.199 1.389 0.0
-50.793 10.024 1.387 0.0
-79.044 11.494 2.028 0.0
-73.836 -21.711 1.961 0.0
-55.202 -16.887 1.523 0.0
-55.183 -17.071 1.524 0.0
-70.069 -21.925 1.88 0.0
-62.122 -20.08 1.695 0.0
-62.095 -20.287 1.696 0.0
-28.474 -9.735 0.894 0.0
-63.2 -22.087 1.733 0.0
-62.808 -22.171 1.725 0.0
-63.199 -22.421 1.736 0.0
-28.454 -10.281 0.897 0.1
-27.326 -9.97 0.871 0.26
-27.745 -10.222 0.882 0.19
-27.233 -10.13 0.87 0.29
-27.127 -10.187 0.868 0.21
-27.0 -10.188 0.866 0.38
-26.152 -9.961 0.846 0.21
-25.417 -9.772 0.828 0.17
-25.358 -9.841 0.828 0.0
-24.441 -9.573 0.806 0.13
-24.264 -9.591 0.803 0.24
-25.051 -9.994 0.823 0.27
-24.868 -9.967 0.818 0.18
-24.989 -10.106 0.822 0.19
-25.134 -10.257 0.827 0.42
-25.464 -10.486 0.835 0.14
-24.285 -10.088 0.807 0.34
-22.915 -9.602 0.774 0.36
-22.813 -9.644 0.772 0.27
-22.857 -9.705 0.774 0.26
-22.751 -9.744 0.772 0.3
-22.65 -9.785 0.77 0.3
-22.678 -9.882 0.772 0.18
-22.672 -9.964 0.772 0.39
-23.803 -10.552 0.801 0.27
-24.505 -10.956 0.82 0.16
-22.505 -10.145 0.771 0.33
-22.45 -10.163 0.77 0.31
-22.7 -10.362 0.777 0.29
-22.294 -10.261 0.767 0.14
-22.609 -10.493 0.776 0.33
-22.622 -10.585 0.777 0.23
-22.686 -10.702 0.78 0.11
-20.459 -9.728 0.724 0.14
-20.487 -9.78 0.725 0.25
-20.399 -9.817 0.724 0.38
-20.238 -9.818 0.721 0.22
-19.218 -9.396 0.696 0.36
-19.097 -9.412 0.693 0.29
-19.003 -9.439 0.692 0.27
-18.982 -9.504 0.692 0.29
-18.932 -9.515 0.691 0.33
-18.921 -9.585 0.691 0.46
-19.112 -9.757 0.697 0.34
-19.165 -9.86 0.699 0.23
-19.424 -10.072 0.707 0.3
-19.401 -10.137 0.707 0.43
-19.239 -10.206 0.704 0.51
-19.344 -10.302 0.707 0.35
-19.361 -10.389 0.709 0.29
-19.365 -10.47 0.71 0.23
-19.037 -10.369 0.702 0.0
-30.533 -16.773 1.002 0.13
-30.288 -16.763 0.997 0.3
-30.163 -16.818 0.995 0.24
-30.168 -16.883 0.996 0.11
-29.882 -16.846 0.99 0.13
-29.964 -17.017 0.993 0.13
-29.982 -17.151 0.995 0.0
-27.379 -15.774 0.928 0.07
-27.263 -15.822 0.926 0.15
-27.226 -15.914 0.927 0.0
-27.223 -15.97 0.927 0.1
-28.267 -16.704 0.956 0.16
-27.706 -16.489 0.943 0.22
-27.568 -16.525 0.94 0.26
-27.415 -16.55 0.938 0.11
-27.126 -16.492 0.931 0.12
-26.726 -16.364 0.922 0.13
-26.631 -16.363 0.92 0.14
-25.962 -16.064 0.904 0.15
-25.854 -16.109 0.902 0.47
-25.781 -16.176 0.901 0.21
-25.636 -16.198 0.899 0.18
-25.357 -16.133 0.893 0.45
-25.266 -16.187 0.892 0.23
-25.139 -16.217 0.89 0.24
-24.988 -16.175 0.886 0.24
-24.817 -16.175 0.883 0.2
-24.59 -16.137 0.878 0.3
-24.256 -16.027 0.87 0.24
-24.122 -16.047 0.868 0.27
-23.994 -16.071 0.866 0.29
-23.753 -16.017 0.861 0.2
-23.588 -15.96 0.857 0.18
-23.54 -16.035 0.857 0.48
-23.354 -16.016 0.853 0.25
-23.166 -15.994 0.849 0.28
-23.117 -16.068 0.849 0.26
-22.88 -16.01 0.844 0.27
-22.797 -16.058 0.843 0.27
-22.722 -16.06 0.842 0.23
-22.511 -16.016 0.837 0.28
-22.421 -16.059 0.836 0.27
-22.209 -16.012 0.832 0.27
-22.105 -16.043 0.83 0.31
-22.02 -16.087 0.829 0.23
-21.796 -16.028 0.824 0.26
-21.53 -15.884 0.818 0.29
-21.422 -15.909 0.816 0.32
-21.402 -15.999 0.817 0.33
-21.301 -16.027 0.815 0.26
-21.148 -16.017 0.812 0.29
-20.996 -16.006 0.81 0.32
-20.827 -15.98 0.806 0.35
-20.75 -16.025 0.805 0.27
-20.541 -15.915 0.8 0.32
-20.349 -15.869 0.796 0.29
-20.273 -15.911 0.795 0.27
-20.166 -15.93 0.794 0.33
-20.022 -15.919 0.791 0.29
-19.971 -15.981 0.791 0.33
-19.925 -16.047 0.791 0.34
-19.754 -15.96 0.787 0.25
-19.545 -15.893 0.782 0.36
-19.487 -15.948 0.782 0.34
-19.234 -15.841 0.776 0.25
-19.108 -15.839 0.774 0.35
-18.99 -15.841 0.772 0.28
-18.81 -15.791 0.768 0.34
-18.838 -15.866 0.769 0.3
-18.638 -15.797 0.765 0.34
-18.564 -15.835 0.764 0.37
-18.486 -15.869 0.763 0.29
-18.365 -15.866 0.761 0.31
-18.213 -15.834 0.758 0.35
-18.181 -15.907 0.758 0.29
-18.049 -15.891 0.756 0.35
-18.027 -15.922 0.756 0.35
-17.92 -15.928 0.754 0.26
-17.791 -15.914 0.752 0.32
-17.628 -15.868 0.748 0.39
-17.514 -15.865 0.747 0.32
-17.408 -15.869 0.745 0.33
-17.19 -15.769 0.74 0.26
-17.129 -15.763 0.738 0.38
-16.988 -15.732 0.736 0.28
-16.859 -15.71 0.733 0.39
-16.719 -15.678 0.73 0.26
-16.584 -15.65 0.728 0.32
-16.517 -15.685 0.727 0.35
-16.487 -15.755 0.728 0.34
-16.426 -15.746 0.727 0.34
-16.379 -15.8 0.727 0.32
-16.319 -15.842 0.726 0.37
-16.261 -15.885 0.726 0.26
-16.074 -15.801 0.722 0.4
-15.952 -15.78 0.719 0.29
-15.803 -15.731 0.716 0.36
-15.764 -15.742 0.716 0.31
-15.684 -15.76 0.715 0.3
-15.584 -15.758 0.713 0.32
-15.531 -15.804 0.713 0.34
-15.438 -15.808 0.712 0.33
-15.41 -15.878 0.712 0.32
-15.337 -15.903 0.711 0.3
-15.311 -15.926 0.711 0.45
-15.222 -15.933 0.71 0.32
-15.095 -15.9 0.708 0.3
-15.0 -15.899 0.706 0.34
-14.987 -15.986 0.707 0.38
-14.789 -15.875 0.702 0.27
-14.612 -15.783 0.698 0.35
-14.554 -15.82 0.698 0.31
-14.578 -15.896 0.7 0.3
-14.504 -15.915 0.699 0.39
-14.416 -15.919 0.697 0.29
-14.339 -15.934 0.697 0.36
-14.255 -15.94 0.695 0.34
-14.138 -15.91 0.693 0.3
-13.99 -15.844 0.69 0.36
-13.99 -15.894 0.691 0.3
-13.898 -15.89 0.689 0.32
-13.801 -15.879 0.687 0.35
-13.676 -15.834 0.685 0.25
-13.657 -15.914 0.686 0.34
-13.474 -15.8 0.681 0.38
-13.419 -15.836 0.681 0.25
-13.423 -15.892 0.682 0.48
-13.35 -15.907 0.681 0.31
-13.252 -15.89 0.68 0.29
-13.149 -15.868 0.678 0.32
-13.039 -15.835 0.675 0.33
-12.965 -15.847 0.675 0.34
-12.919 -15.892 0.675 0.43
-12.841 -15.847 0.673 0.32
-12.78 -15.873 0.672 0.32
-12.719 -15.899 0.672 0.35
-12.597 -15.848 0.669 0.31
-12.479 -15.802 0.667 0.3
-12.42 -15.83 0.667 0.4
-12.299 -15.777 0.664 0.32
-12.254 -15.769 0.663 0.35
-12.208 -15.813 0.663 0.39
-12.102 -15.778 0.661 0.3
-12.018 -15.77 0.66 0.35
-11.88 -15.691 0.657 0.3
-11.855 -15.76 0.657 0.46
-11.812 -15.807 0.658 0.28
-11.724 -15.792 0.656 0.36
-11.679 -15.783 0.655 0.39
-11.677 -15.885 0.657 0.32
-11.584 -15.861 0.656 0.32
-11.499 -15.849 0.654 0.34
-11.384 -15.796 0.652 0.37
-11.332 -15.828 0.652 0.32
-11.283 -15.864 0.652 0.38
-11.18 -15.772 0.649 0.34
-11.108 -15.774 0.648 0.32
-11.016 -15.749 0.646 0.39
-10.941 -15.747 0.645 0.27
-10.856 -15.729 0.644 0.39
-10.793 -15.743 0.643 0.36
-10.749 -15.785 0.643 0.31
-10.712 -15.783 0.643 0.38
-10.638 -15.782 0.642 0.39
-10.581 -15.804 0.641 0.36
-10.505 -15.797 0.64 0.32
-10.439 -15.805 0.64 0.4
-10.344 -15.769 0.638 0.37
-10.318 -15.838 0.639 0.38
-10.259 -15.856 0.638 0.36
-10.17 -15.772 0.636 0.37
-10.138 -15.831 0.636 0.38
-10.04 -15.787 0.634 0.38
-10.007 -15.846 0.635 0.27
-9.917 -15.813 0.633 0.38
-9.874 -15.854 0.634 0.39
-9.806 -15.856 0.633 0.33
-9.758 -15.834 0.632 0.41
-9.674 -15.808 0.63 0.37
-9.626 -15.842 0.63 0.34
-9.556 -15.838 0.63 0.33
-9.504 -15.864 0.629 0.36
-9.414 -15.827 0.628 0.39
-9.35 -15.832 0.627 0.41
-9.333 -15.859 0.627 0.34
-9.257 -15.843 0.626 0.37
-9.146 -15.767 0.623 0.36
-9.177 -15.936 0.627 0.29
-9.014 -15.766 0.622 0.34
-9.015 -15.885 0.624 0.39
-8.919 -15.832 0.622 0.31
-8.915 -15.882 0.623 0.3
-8.882 -15.94 0.624 0.4
-8.805 -15.92 0.623 0.36
-8.738 -15.916 0.622 0.3
-8.657 -15.886 0.62 0.44
-8.604 -15.908 0.62 0.34
-8.553 -15.933 0.62 0.45
-8.518 -15.929 0.62 0.38
-8.449 -15.918 0.619 0.34
-8.388 -15.925 0.618 0.43
-8.327 -15.93 0.618 0.37
-8.272 -15.946 0.617 0.33
-8.183 -15.897 0.615 0.4
-8.11 -15.876 0.614 0.37
-8.08 -15.941 0.615 0.34
-8.029 -15.903 0.614 0.38
-7.958 -15.886 0.613 0.33
-7.898 -15.891 0.612 0.47
-7.873 -15.966 0.614 0.33
-7.766 -15.874 0.611 0.31
-7.701 -15.867 0.61 0.37
-7.631 -15.85 0.609 0.39
-7.596 -15.84 0.608 0.32
-7.529 -15.828 0.607 0.37
-7.478 -15.848 0.607 0.43
-7.409 -15.831 0.606 0.39
-7.339 -15.811 0.605 0.32
-7.283 -15.819 0.605 0.36
-7.256 -15.891 0.606 0.26
-7.196 -15.826 0.604 0.48
-7.125 -15.801 0.603 0.34
-7.08 -15.835 0.603 0.4
-7.024 -15.842 0.603 0.36
-6.968 -15.85 0.603 0.32
-6.909 -15.851 0.602 0.45
-6.89 -15.944 0.604 0.31
-6.85 -15.92 0.603 0.46
-6.839 -16.034 0.605 0.24
-6.696 -15.834 0.6 0.43
-6.643 -15.849 0.6 0.25
-6.562 -15.794 0.598 0.47
-6.505 -15.797 0.597 0.27
-6.443 -15.787 0.597 0.45
-6.405 -15.764 0.596 0.41
-6.373 -15.827 0.597 0.26
-6.316 -15.83 0.596 0.47
-6.266 -15.848 0.596 0.35
-6.211 -15.854 0.596 0.23
-6.14 -15.82 0.595 0.55
-6.071 -15.789 0.594 0.35
-6.077 -15.953 0.597 0.3
-5.976 -15.763 0.592 0.39
-5.922 -15.77 0.592 0.32
-5.858 -15.749 0.591 0.36
-5.818 -15.794 0.592 0.4
-5.763 -15.795 0.591 0.33
-5.705 -15.793 0.591 0.4
-5.649 -15.792 0.59 0.34
-5.624 -15.8 0.59 0.45
-5.565 -15.79 0.59 0.35
-5.523 -15.83 0.59 0.35
-5.444 -15.762 0.588 0.36
-5.414 -15.838 0.589 0.35
-5.317 -15.712 0.586 0.42
-5.257 -15.699 0.585 0.45
-5.304 -15.921 0.59 0.27
-5.161 -15.655 0.584 0.39
-5.115 -15.681 0.584 0.38
-5.051 -15.653 0.583 0.34
-4.995 -15.646 0.582 0.48
-4.941 -15.646 0.582 0.3
-4.902 -15.694 0.583 0.45
-4.891 -15.748 0.584 0.38
-4.842 -15.765 0.584 0.35
-4.774 -15.719 0.582 0.29
-4.703 -15.659 0.581 0.4
-4.644 -15.641 0.58 0.44
-4.626 -15.763 0.582 0.21
-4.548 -15.677 0.58 0.43
-4.497 -15.688 0.58 0.39
-4.467 -15.676 0.58 0.36
-4.424 -15.713 0.58 0.47
-4.393 -15.792 0.582 0.31
-4.323 -15.732 0.58 0.38
-4.263 -15.703 0.579 0.27
-4.217 -15.73 0.579 0.52
-4.207 -15.793 0.581 0.33
-4.214 -16.023 0.586 0.36
-4.125 -15.885 0.582 0.3
-4.056 -15.824 0.58 0.38
-3.996 -15.798 0.579 0.33
-3.944 -15.799 0.579 0.48
-3.903 -15.848 0.58 0.37
-3.911 -15.99 0.583 0.3
-3.811 -15.792 0.578 0.36
-3.745 -15.734 0.577 0.32
-3.685 -15.701 0.576 0.45
-3.642 -15.742 0.576 0.37
-3.591 -15.747 0.576 0.39
-3.537 -15.737 0.576 0.34
-3.495 -15.783 0.576 0.41
-3.483 -15.847 0.578 0.38
-3.42 -15.798 0.576 0.34
-3.376 -15.832 0.577 0.38
-3.307 -15.75 0.575 0.36
-3.256 -15.753 0.575 0.38
-3.206 -15.763 0.575 0.38
-3.154 -15.759 0.574 0.28
-3.103 -15.633 0.571 0.46
-3.055 -15.644 0.571 0.31
-3.005 -15.654 0.571 0.4
-2.97 -15.736 0.573 0.34
-2.916 -15.722 0.572 0.38
-2.867 -15.731 0.572 0.44
-2.835 -15.84 0.575 0.34
-2.784 -15.695 0.571 0.32
-2.733 -15.696 0.571 0.36
-2.67 -15.619 0.569 0.41
-2.614 -15.588 0.568 0.34
-2.571 -15.636 0.569 0.28
-2.517 -15.61 0.568 0.48
-2.467 -15.614 0.568 0.39
-2.44 -15.6 0.568 0.42
-2.405 -15.699 0.57 0.25
-2.344 -15.627 0.568 0.47
-2.291 -15.609 0.568 0.28
-2.248 -15.659 0.569 0.46
-2.196 -15.65 0.568 0.38
-2.144 -15.63 0.568 0.35
-2.112 -15.577 0.566 0.48
-2.06 -15.566 0.566 0.29
-2.014 -15.596 0.566 0.45
-1.966 -15.609 0.567 0.32
-1.92 -15.642 0.567 0.38
-1.871 -15.648 0.567 0.39
-1.82 -15.636 0.567 0.39
-1.771 -15.646 0.567 0.45
-1.748 -15.663 0.567 0.38
-1.698 -15.656 0.567 0.32
-1.644 -15.616 0.566 0.41
-1.591 -15.581 0.565 0.41
-1.54 -15.562 0.564 0.27
-1.498 -15.642 0.566 0.41
-1.446 -15.617 0.565 0.36
-1.419 -15.587 0.565 0.4
-1.367 -15.564 0.564 0.4
-1.316 -15.546 0.564 0.34
-1.263 -15.494 0.562 0.33
-1.216 -15.522 0.563 0.41
-1.169 -15.54 0.563 0.39
-1.119 -15.538 0.563 0.4
-1.106 -15.699 0.567 0.29
-1.054 -15.666 0.566 0.39
-1.007 -15.698 0.567 0.41
-0.962 -15.777 0.568 0.27
-0.918 -15.887 0.571 0.46
-0.863 -15.794 0.569 0.36
-0.809 -15.705 0.566 0.45
-0.783 -15.67 0.566 0.29
-0.743 -15.882 0.57 0.36
-0.692 -15.867 0.57 0.4
-0.645 -15.937 0.572 0.31
-0.592 -15.841 0.569 0.38
-0.542 -15.863 0.57 0.37
-0.494 -15.898 0.571 0.45
-0.464 -15.727 0.567 0.43
-0.417 -15.85 0.569 0.3
-0.368 -15.854 0.569 0.4
-0.314 -15.629 0.564 0.38
-0.265 -15.662 0.565 0.34
-0.215 -15.606 0.564 0.4
-0.166 -15.629 0.564 0.41
-0.142 -15.705 0.566 0.19
-0.093 -15.718 0.566 0.6
-0.044 -15.884 0.57 0.18
0.006 -15.894 0.57 0.38
0.056 -15.87 0.57 0.4
0.105 -15.845 0.569 0.44
0.153 -15.683 0.565 0.43
0.177 -15.641 0.565 0.34
0.227 -15.654 0.565 0.34
0.279 -15.797 0.568 0.39
0.33 -15.88 0.57 0.41
0.379 -15.819 0.569 0.34
0.429 -15.832 0.569 0.39
0.48 -15.889 0.57 0.42
0.53 -15.883 0.57 0.36
0.554 -15.856 0.57 0.42
0.606 -15.912 0.571 0.32
0.655 -15.88 0.57 0.46
0.701 -15.786 0.568 0.36
0.751 -15.806 0.569 0.38
0.801 -15.804 0.569 0.34
0.854 -15.855 0.57 0.42
0.874 -15.782 0.568 0.38
0.923 -15.765 0.568 0.36
0.976 -15.812 0.569 0.32
1.031 -15.894 0.571 0.41
1.082 -15.907 0.571 0.32
1.133 -15.918 0.572 0.43
1.181 -15.892 0.571 0.38
1.203 -15.852 0.57 0.41
1.256 -15.878 0.571 0.29
1.306 -15.882 0.571 0.58
1.357 -15.89 0.571 0.23
0.914 -10.415 0.446 0.31
0.942 -10.367 0.445 0.26
0.974 -10.358 0.445 0.33
0.989 -10.344 0.445 0.35
1.022 -10.345 0.445 0.24
1.057 -10.361 0.445 0.4
1.091 -10.38 0.446 0.36
1.126 -10.398 0.446 0.29
1.166 -10.456 0.448 0.14
1.833 -15.864 0.572 0.38
1.881 -15.842 0.572 0.38
1.907 -15.849 0.572 0.38
1.96 -15.869 0.572 0.37
2.009 -15.851 0.572 0.42
2.061 -15.866 0.573 0.3
2.11 -15.85 0.572 0.48
2.16 -15.847 0.573 0.36
2.203 -15.795 0.571 0.33
2.234 -15.831 0.572 0.57
1.553 -10.82 0.457 0.17
1.581 -10.776 0.456 0.46
1.614 -10.763 0.456 0.28
1.648 -10.758 0.456 0.4
1.681 -10.75 0.456 0.34
1.704 -10.787 0.457 0.16
2.575 -15.893 0.575 0.41
2.623 -15.876 0.575 0.41
2.677 -15.89 0.575 0.38
2.723 -15.858 0.575 0.58
1.758 -10.105 0.442 0.23
1.779 -10.041 0.441 0.29
1.808 -10.017 0.44 0.32
1.822 -10.009 0.44 0.34
1.854 -10.007 0.44 0.36
1.887 -10.005 0.44 0.32
1.922 -10.019 0.441 0.3
3.114 -15.883 0.577 0.13
3.122 -15.662 0.572 0.43
3.176 -15.675 0.573 0.36
3.205 -15.692 0.573 0.35
3.258 -15.699 0.573 0.38
3.306 -15.683 0.573 0.43
3.365 -15.718 0.574 0.37
3.426 -15.764 0.576 0.36
3.484 -15.788 0.577 0.45
3.553 -15.865 0.579 0.3
3.563 -15.795 0.577 0.41
3.612 -15.78 0.577 0.37
3.664 -15.78 0.577 0.4
3.705 -15.729 0.576 0.33
3.76 -15.741 0.577 0.4
3.829 -15.809 0.579 0.36
3.885 -15.824 0.579 0.4
3.894 -15.754 0.578 0.3
3.948 -15.761 0.578 0.39
4.014 -15.814 0.58 0.45
4.072 -15.83 0.581 0.31
4.124 -15.829 0.581 0.46
4.186 -15.863 0.582 0.29
4.227 -15.815 0.581 0.47
4.244 -15.779 0.58 0.36
4.296 -15.775 0.581 0.22
4.355 -15.796 0.581 0.51
4.406 -15.786 0.582 0.36
4.462 -15.794 0.582 0.34
4.517 -15.799 0.583 0.4
4.562 -15.769 0.582 0.41
4.623 -15.795 0.583 0.36
4.645 -15.776 0.583 0.45
4.71 -15.813 0.584 0.27
4.758 -15.795 0.584 0.49
4.819 -15.818 0.585 0.32
4.874 -15.818 0.585 0.5
4.925 -15.808 0.585 0.32
4.934 -15.665 0.582 0.38
4.956 -15.648 0.582 0.38
5.035 -15.723 0.584 0.39
5.09 -15.726 0.585 0.39
5.159 -15.771 0.586 0.36
5.222 -15.793 0.587 0.39
5.274 -15.786 0.587 0.4
5.298 -15.693 0.586 0.34
5.304 -15.628 0.584 0.48
5.341 -15.578 0.583 0.31
5.471 -15.793 0.589 0.4
5.527 -15.795 0.589 0.34
5.577 -15.779 0.589 0.47
5.673 -15.889 0.593 0.34
5.699 -15.806 0.591 0.33
5.712 -15.765 0.59 0.32
5.754 -15.726 0.59 0.46
5.806 -15.715 0.59 0.3
5.903 -15.824 0.593 0.38
5.949 -15.796 0.593 0.43
6.008 -15.802 0.593 0.31
6.067 -15.807 0.594 0.38
6.099 -15.816 0.594 0.38
6.144 -15.784 0.594 0.41
6.201 -15.785 0.595 0.32
6.263 -15.795 0.595 0.41
6.302 -15.751 0.595 0.36
6.369 -15.774 0.596 0.41
6.416 -15.749 0.596 0.35
6.436 -15.725 0.595 0.43
6.483 -15.7 0.595 0.42
6.542 -15.703 0.596 0.38
6.574 -15.64 0.595 0.35
6.677 -15.746 0.598 0.33
6.739 -15.755 0.599 0.34
6.787 -15.73 0.598 0.5
6.843 -15.791 0.6 0.32
6.898 -15.782 0.601 0.32
6.935 -15.733 0.6 0.37
7.005 -15.756 0.601 0.41
7.074 -15.778 0.602 0.27
7.136 -15.783 0.603 0.49
7.19 -15.77 0.603 0.35
7.246 -15.827 0.605 0.29
7.282 -15.774 0.604 0.3
7.352 -15.794 0.605 0.39
7.391 -15.749 0.605 0.34
7.478 -15.806 0.607 0.44
7.514 -15.753 0.606 0.32
7.582 -15.769 0.607 0.36
7.671 -15.826 0.609 0.45
7.717 -15.857 0.61 0.23
7.771 -15.84 0.61 0.4
7.816 -15.807 0.61 0.31
7.859 -15.769 0.61 0.48
7.923 -15.773 0.61 0.29
8.009 -15.82 0.612 0.41
8.059 -15.796 0.612 0.37
8.102 -15.819 0.613 0.43
8.128 -15.747 0.612 0.31
8.195 -15.755 0.613 0.43
8.29 -15.816 0.615 0.23
8.33 -15.771 0.614 0.58
5.516 -10.383 0.476 0.17
5.538 -10.346 0.476 0.38
5.542 -10.314 0.475 0.27
5.57 -10.29 0.475 0.34
5.605 -10.278 0.475 0.37
5.641 -10.265 0.475 0.42
5.698 -10.293 0.476 0.36
8.824 -15.793 0.62 0.26
8.877 -15.771 0.62 0.36
8.929 -15.806 0.622 0.31
8.998 -15.812 0.623 0.36
9.073 -15.827 0.624 0.32
9.135 -15.819 0.624 0.27
9.113 -15.668 0.621 0.25
9.146 -15.612 0.62 0.57
9.214 -15.615 0.621 0.26
6.272 -10.607 0.489 0.34
6.293 -10.567 0.488 0.29
6.318 -10.533 0.488 0.46
6.352 -10.515 0.488 0.32
6.399 -10.519 0.489 0.36
6.455 -10.536 0.49 0.34
9.725 -15.737 0.63 0.38
9.791 -15.733 0.63 0.4
9.882 -15.823 0.633 0.29
9.959 -15.836 0.634 0.46
10.012 -15.809 0.634 0.23
10.081 -15.808 0.635 0.33
10.097 -15.724 0.634 0.34
10.161 -15.714 0.634 0.3
10.222 -15.701 0.635 0.27
10.275 -15.728 0.636 0.39
10.334 -15.711 0.637 0.3
10.41 -15.718 0.638 0.31
10.477 -15.712 0.638 0.32
10.548 -15.711 0.639 0.35
10.62 -15.711 0.64 0.29
10.694 -15.767 0.642 0.26
10.8 -15.815 0.644 0.33
10.871 -15.813 0.645 0.32
10.944 -15.813 0.646 0.28
11.023 -15.819 0.647 0.34
11.087 -15.806 0.648 0.34
11.151 -15.791 0.649 0.25
11.227 -15.793 0.65 0.31
11.279 -15.813 0.651 0.37
11.342 -15.797 0.651 0.32
11.415 -15.793 0.652 0.33
11.495 -15.799 0.653 0.31
11.563 -15.787 0.654 0.28
11.637 -15.785 0.655 0.36
11.718 -15.79 0.656 0.34
11.769 -15.807 0.657 0.28
11.849 -15.81 0.658 0.3
11.913 -15.791 0.659 0.22
11.991 -15.792 0.66 0.3
12.068 -15.789 0.661 0.33
12.154 -15.799 0.662 0.34
12.22 -15.783 0.663 0.31
12.266 -15.79 0.664 0.28
12.339 -15.782 0.665 0.24
12.417 -15.779 0.666 0.41
12.487 -15.765 0.666 0.14
7.82 -9.825 0.494 0.39
7.818 -9.76 0.493 0.21
7.808 -9.685 0.492 0.35
7.818 -9.667 0.491 0.33
7.856 -9.651 0.492 0.38
7.887 -9.627 0.492 0.45
7.998 -9.7 0.495 0.34
8.033 -9.68 0.495 0.32
8.084 -9.679 0.495 0.37
8.171 -9.721 0.497 0.35
8.151 -9.667 0.496 0.29
7.966 -9.389 0.489 0.38
7.936 -9.294 0.487 0.33
8.029 -9.343 0.489 0.22
8.108 -9.375 0.491 0.45
8.19 -9.41 0.492 0.28
8.315 -9.492 0.496 0.53
8.401 -9.56 0.498 0.32
13.979 -15.781 0.688 0.31
14.05 -15.761 0.689 0.3
8.523 -9.516 0.499 0.33
8.49 -9.419 0.497 0.31
8.572 -9.45 0.499 0.31
8.501 -9.314 0.495 0.35
8.621 -9.386 0.499 0.3
8.636 -9.372 0.499 0.21
8.709 -9.392 0.5 0.57
8.672 -9.293 0.498 0.22
8.542 -9.097 0.492 0.27
8.603 -9.105 0.494 0.33
8.64 -9.087 0.494 0.5
8.817 -9.214 0.499 0.24
8.981 -9.355 0.504 0.53
8.987 -9.303 0.503 0.25
8.952 -9.209 0.501 0.31
8.881 -9.079 0.498 0.38
9.208 -9.353 0.507 0.2
15.602 -15.723 0.713 0.19
15.708 -15.731 0.715 0.39
15.775 -15.748 0.716 0.22
15.853 -15.727 0.717 0.18
15.96 -15.734 0.719 0.39
16.063 -15.736 0.72 0.25
16.162 -15.734 0.722 0.26
16.258 -15.728 0.723 0.29
16.362 -15.729 0.725 0.3
16.42 -15.735 0.726 0.3
16.524 -15.736 0.728 0.27
16.626 -15.733 0.73 0.3
16.722 -15.725 0.731 0.29
16.825 -15.722 0.733 0.3
16.922 -15.713 0.734 0.3
17.027 -15.711 0.736 0.27
17.101 -15.73 0.737 0.25
17.207 -15.728 0.739 0.29
17.317 -15.729 0.741 0.27
17.395 -15.7 0.742 0.14
17.524 -15.717 0.744 0.46
17.609 -15.694 0.746 0.24
17.714 -15.687 0.747 0.19
17.808 -15.72 0.749 0.42
17.913 -15.713 0.751 0.25
18.018 -15.705 0.753 0.25
18.129 -15.702 0.755 0.31
18.19 -15.656 0.755 0.27
18.335 -15.68 0.758 0.26
18.317 -15.565 0.756 0.23
18.453 -15.581 0.758 0.38
18.528 -15.595 0.76 0.28
18.473 -15.449 0.757 0.29
18.531 -15.399 0.757 0.36
18.62 -15.375 0.758 0.33
18.765 -15.395 0.761 0.3
18.859 -15.374 0.762 0.34
19.034 -15.416 0.766 0.26
19.067 -15.394 0.766 0.35
19.137 -15.351 0.767 0.32
19.251 -15.343 0.769 0.32
19.412 -15.372 0.772 0.38
19.721 -15.516 0.78 0.19
19.809 -15.485 0.781 0.36
19.886 -15.444 0.782 0.28
19.889 -15.396 0.781 0.28
20.024 -15.4 0.784 0.41
20.179 -15.419 0.787 0.28
20.199 -15.333 0.786 0.36
20.323 -15.328 0.788 0.27
20.397 -15.283 0.789 0.33
20.567 -15.309 0.792 0.31
20.676 -15.34 0.795 0.4
20.953 -15.443 0.801 0.25
20.856 -15.271 0.797 0.25
21.032 -15.298 0.801 0.24
21.208 -15.325 0.804 0.45
21.316 -15.301 0.806 0.31
21.494 -15.327 0.81 0.27
21.553 -15.317 0.81 0.31
21.681 -15.306 0.813 0.19
21.797 -15.286 0.815 0.37
21.921 -15.27 0.817 0.32
22.005 -15.226 0.818 0.28
22.175 -15.24 0.821 0.29
22.335 -15.247 0.824 0.33
22.428 -15.259 0.826 0.27
22.597 -15.27 0.829 0.3
22.713 -15.245 0.831 0.3
22.949 -15.299 0.836 0.3
23.09 -15.288 0.839 0.32
23.188 -15.248 0.84 0.29
23.322 -15.231 0.843 0.29
23.45 -15.21 0.845 0.31
23.596 -15.252 0.848 0.34
23.819 -15.29 0.853 0.25
23.913 -15.244 0.854 0.32
24.087 -15.249 0.858 0.18
24.254 -15.248 0.861 0.34
24.447 -15.262 0.865 0.21
24.596 -15.248 0.867 0.27
24.727 -15.275 0.87 0.28
24.812 -15.22 0.871 0.2
24.973 -15.211 0.874 0.46
25.118 -15.191 0.877 0.23
25.246 -15.161 0.879 0.25
25.428 -15.161 0.883 0.27
25.62 -15.166 0.886 0.31
25.712 -15.167 0.888 0.25
25.912 -15.175 0.892 0.17
26.162 -15.211 0.898 0.46
26.313 -15.188 0.9 0.21
26.538 -15.207 0.905 0.3
26.798 -15.244 0.91 0.27
26.943 -15.214 0.913 0.27
27.054 -15.221 0.915 0.2
27.29 -15.241 0.92 0.41
27.489 -15.239 0.924 0.24
27.647 -15.213 0.927 0.18
27.896 -15.236 0.932 0.42
28.151 -15.26 0.938 0.19
28.559 -15.365 0.947 0.14
28.217 -15.011 0.936 0.39
28.268 -14.924 0.936 0.2
28.977 -15.181 0.953 0.22
29.156 -15.158 0.957 0.23
29.634 -15.288 0.968 0.17
29.685 -15.197 0.968 0.41
29.916 -15.256 0.973 0.17
30.162 -15.262 0.978 0.36
30.41 -15.267 0.983 0.18
30.571 -15.227 0.986 0.37
30.801 -15.222 0.991 0.21
30.998 -15.198 0.995 0.34
31.153 -15.153 0.997 0.21
31.508 -15.264 1.006 0.33
31.803 -15.283 1.012 0.2
31.885 -15.2 1.013 0.34
32.047 -15.153 1.016 0.2
32.214 -15.108 1.019 0.25
32.446 -15.093 1.023 0.18
32.664 -15.069 1.028 0.34
33.046 -15.182 1.037 0.2
33.312 -15.178 1.042 0.19
33.54 -15.154 1.047 0.29
33.728 -15.112 1.05 0.17
34.093 -15.147 1.058 0.15
34.406 -15.156 1.065 0.17
34.713 -15.162 1.071 0.21
34.886 -15.172 1.075 0.17
35.145 -15.153 1.08 0.32
35.468 -15.16 1.087 0.2
35.712 -15.132 1.092 0.18
36.049 -15.141 1.099 0.19
36.215 -15.077 1.102 0.22
36.628 -15.114 1.111 0.15
36.92 -15.098 1.117 0.13
37.18 -15.137 1.123 0.17
37.486 -15.124 1.129 0.29
37.834 -15.126 1.136 0.26
38.073 -15.083 1.141 0.25
38.453 -15.093 1.149 0.25
38.588 -15.007 1.151 0.25
39.042 -15.042 1.161 0.24
39.263 -15.056 1.166 0.26
39.514 -15.01 1.171 0.25
39.917 -15.019 1.18 0.26
40.042 -14.923 1.182 0.1
40.356 -14.895 1.188 0.14
40.712 -14.882 1.196 0.0
40.986 -14.836 1.201 0.0
41.638 -14.997 1.216 0.0
42.38 -15.114 1.233 0.0
42.998 -15.182 1.247 0.0
43.484 -15.2 1.257 0.0
44.337 -15.341 1.277 0.0
44.445 -15.223 1.278 0.0
45.474 -15.415 1.302 0.0
45.633 -15.389 1.305 0.0
45.887 -15.314 1.31 0.0
47.316 -15.625 1.343 0.0
47.853 -15.636 1.355 0.0
48.389 -15.642 1.367 0.0
48.899 -15.637 1.378 0.0
49.489 -15.655 1.39 0.0
50.103 -15.676 1.404 0.0
50.674 -15.767 1.417 0.0
51.295 -15.783 1.431 0.0
51.886 -15.786 1.444 0.0
52.53 -15.802 1.458 0.0
53.176 -15.814 1.472 0.0
53.876 -15.837 1.487 0.0
54.54 -15.846 1.502 0.0
55.22 -15.95 1.517 0.0
55.983 -15.979 1.534 0.0
56.703 -15.992 1.55 0.0
57.429 -16.002 1.566 0.0
58.238 -16.03 1.584 0.0
71.854 -17.602 1.893 0.0
71.835 -17.359 1.891 0.0
54.98 -10.938 1.485 0.0
78.651 -4.568 2.003 0.0
69.363 10.842 1.276 0.0
69.343 11.063 1.276 0.0
59.304 11.192 1.126 0.0
59.3 11.385 1.126 0.0
75.116 15.15 1.373 0.0
75.508 15.599 1.381 0.0
75.073 17.363 1.38 0.0
49.255 11.727 0.978 0.14
49.16 11.868 0.977 0.0
49.248 12.053 0.979 0.0
69.301 17.181 1.294 0.0
68.976 17.215 1.289 0.0
68.475 17.319 1.282 0.0
67.985 17.423 1.275 0.0
67.488 17.522 1.268 0.0
67.005 17.622 1.262 0.0
66.55 17.726 1.255 0.0
66.049 17.815 1.248 0.0
65.641 17.816 1.242 0.0
65.164 17.907 1.236 0.0
63.389 18.279 1.211 0.0
63.118 18.416 1.208 0.0
62.731 18.41 1.202 0.0
62.318 18.502 1.197 0.0
61.748 18.544 1.188 0.13
61.402 18.651 1.184 0.0
61.083 18.764 1.18 0.0
60.671 18.846 1.174 0.0
60.167 18.897 1.167 0.07
59.765 18.875 1.161 0.0
59.543 19.011 1.159 0.0
59.137 19.086 1.153 0.0
58.748 19.164 1.148 0.0
58.281 19.215 1.141 0.11
44.034 14.678 0.914 0.17
44.117 14.86 0.916 0.17
44.192 14.962 0.917 0.09
43.908 15.02 0.914 0.14
43.492 15.031 0.908 0.13
43.428 15.162 0.907 0.15
43.248 15.252 0.905 0.31
43.253 15.406 0.906 0.19
43.176 15.532 0.906 0.18
42.982 15.615 0.903 0.17
43.034 15.711 0.905 0.13
43.034 15.864 0.905 0.12
41.057 15.43 0.875 0.55
40.992 15.552 0.875 0.33
42.954 16.45 0.907 0.14
42.747 16.525 0.905 0.16
42.71 16.588 0.905 0.0
42.965 16.842 0.91 0.13
43.262 17.115 0.915 0.3
43.048 17.188 0.913 0.2
43.192 17.403 0.916 0.0
43.349 17.624 0.92 0.0
32.702 13.422 0.745 0.0
32.761 13.506 0.747 0.04
32.537 13.534 0.744 0.14
32.446 13.616 0.743 0.3
32.418 13.724 0.743 0.0
42.263 18.04 0.907 0.05
32.243 13.89 0.742 0.15
32.043 13.923 0.739 0.22
32.242 14.07 0.743 0.21
31.934 14.055 0.738 0.12
31.831 14.129 0.737 0.14
31.757 14.216 0.737 0.21
31.692 14.307 0.737 0.2
31.538 14.357 0.735 0.31
31.549 14.481 0.736 0.2
31.559 14.546 0.736 0.13
31.569 14.671 0.737 0.08
31.514 14.766 0.737 0.16
31.86 15.05 0.744 0.16
31.798 15.143 0.743 0.0
41.956 20.133 0.916 0.08
42.047 20.34 0.918 0.14
41.918 20.359 0.917 0.12
41.823 20.475 0.916 0.18
41.936 20.694 0.919 0.0
41.943 20.861 0.92 0.0
41.906 21.007 0.921 0.0
59.468 30.034 1.221 0.05
59.529 30.299 1.224 0.18
59.544 30.543 1.226 0.25
59.634 30.707 1.228 0.27
28.484 14.796 0.696 0.11
28.292 14.81 0.693 0.17
28.104 14.824 0.691 0.12
27.907 14.832 0.688 0.16
27.73 14.85 0.686 0.12
27.53 14.855 0.684 0.17
27.378 14.829 0.681 0.3
27.191 14.838 0.679 0.19
27.006 14.847 0.677 0.18
26.789 14.838 0.674 0.12
26.432 14.749 0.668 0.3
26.39 14.835 0.668 0.5
26.328 14.909 0.668 0.22
26.162 14.87 0.665 0.19
26.009 14.891 0.664 0.21
25.827 14.895 0.661 0.2
25.73 14.947 0.66 0.25
25.717 15.048 0.661 0.18
25.746 15.173 0.662 0.44
25.736 15.276 0.663 0.25
25.76 15.345 0.664 0.26
25.761 15.456 0.665 0.26
25.762 15.567 0.666 0.27
25.761 15.677 0.666 0.26
25.771 15.794 0.668 0.24
25.754 15.895 0.668 0.18
25.775 16.02 0.669 0.43
25.798 16.09 0.67 0.25
25.808 16.209 0.671 0.24
25.791 16.312 0.672 0.18
25.817 16.442 0.673 0.43
25.809 16.551 0.674 0.25
25.801 16.66 0.675 0.2
25.822 16.789 0.676 0.42
25.836 16.856 0.677 0.24
25.843 16.976 0.678 0.21
25.853 17.099 0.679 0.28
25.724 17.131 0.678 0.23
25.826 17.316 0.681 0.22
25.72 17.362 0.68 0.17
25.694 17.462 0.68 0.32
25.55 17.482 0.679 0.31
25.418 17.451 0.677 0.3
25.261 17.46 0.675 0.32
25.109 17.472 0.673 0.32
24.956 17.482 0.671 0.29
24.819 17.503 0.67 0.41
21.604 15.341 0.611 0.2
21.516 15.381 0.61 0.28
21.508 15.427 0.61 0.38
24.238 17.495 0.662 0.25
24.103 17.514 0.661 0.32
23.953 17.52 0.659 0.34
23.814 17.534 0.658 0.34
23.681 17.551 0.656 0.33
23.532 17.555 0.654 0.35
23.421 17.53 0.653 0.29
23.289 17.546 0.651 0.35
23.139 17.547 0.649 0.3
23.008 17.562 0.648 0.35
22.872 17.572 0.646 0.29
22.728 17.575 0.645 0.36
22.596 17.588 0.643 0.3
22.498 17.568 0.642 0.35
22.353 17.568 0.64 0.3
22.244 17.596 0.639 0.37
22.1 17.595 0.637 0.31
21.974 17.608 0.636 0.37
21.836 17.611 0.634 0.31
21.692 17.607 0.633 0.27
21.598 17.587 0.631 0.37
21.483 17.607 0.63 0.38
21.357 17.616 0.629 0.38
21.226 17.62 0.627 0.38
21.106 17.633 0.626 0.38
20.98 17.64 0.625 0.38
20.854 17.647 0.623 0.38
20.769 17.63 0.622 0.38
20.652 17.644 0.621 0.39
20.524 17.646 0.619 0.39
20.417 17.666 0.618 0.29
20.299 17.676 0.617 0.54
20.182 17.686 0.616 0.22
17.273 15.237 0.558 0.39
17.18 15.252 0.557 0.39
17.096 15.226 0.556 0.35
16.997 15.234 0.555 0.33
16.903 15.246 0.554 0.37
16.802 15.251 0.553 0.38
16.705 15.259 0.552 0.34
16.604 15.263 0.551 0.34
16.512 15.274 0.55 0.34
16.44 15.255 0.549 0.39
16.346 15.264 0.548 0.36
16.247 15.268 0.547 0.3
16.158 15.28 0.546 0.39
16.06 15.283 0.545 0.38
15.974 15.297 0.544 0.35
15.885 15.309 0.543 0.38
15.812 15.286 0.542 0.37
15.717 15.29 0.541 0.35
15.63 15.301 0.54 0.32
15.521 15.29 0.539 0.39
15.323 15.191 0.536 0.35
15.275 15.239 0.536 0.41
15.253 15.313 0.536 0.32
15.189 15.345 0.536 0.41
15.123 15.326 0.535 0.32
15.031 15.329 0.534 0.36
14.948 15.341 0.534 0.39
14.864 15.35 0.533 0.33
14.77 15.349 0.532 0.39
14.683 15.355 0.531 0.4
14.601 15.367 0.53 0.41
14.576 15.388 0.53 0.32
14.581 15.491 0.531 0.35
14.588 15.596 0.533 0.34
14.589 15.696 0.534 0.37
14.585 15.79 0.535 0.32
14.583 15.887 0.536 0.34
14.587 15.992 0.537 0.34
14.619 16.079 0.538 0.37
14.621 16.182 0.539 0.33
14.624 16.288 0.541 0.32
14.623 16.39 0.542 0.36
14.626 16.497 0.543 0.38
14.626 16.602 0.544 0.36
14.628 16.709 0.546 0.35
14.655 16.794 0.547 0.32
14.656 16.902 0.548 0.36
14.661 17.014 0.549 0.36
14.662 17.124 0.551 0.36
14.66 17.231 0.552 0.35
14.663 17.344 0.553 0.33
14.676 17.471 0.555 0.48
14.662 17.509 0.555 0.25
14.582 17.526 0.555 0.13
14.716 17.8 0.559 0.48
14.617 17.793 0.558 0.18
14.568 17.848 0.558 0.16
14.521 17.905 0.558 0.43
14.438 17.918 0.558 0.35
14.347 17.919 0.557 0.43
14.29 17.906 0.556 0.36
14.201 17.91 0.555 0.44
14.119 17.922 0.555 0.36
14.034 17.93 0.554 0.43
13.951 17.939 0.553 0.36
13.861 17.94 0.553 0.45
13.779 17.95 0.552 0.36
13.717 17.927 0.551 0.44
13.635 17.937 0.55 0.37
13.551 17.943 0.55 0.45
13.473 17.957 0.549 0.36
13.38 17.951 0.548 0.45
13.305 17.967 0.548 0.37
13.216 17.965 0.547 0.45
13.139 17.978 0.546 0.38
13.082 17.96 0.546 0.45
13.002 17.968 0.545 0.38
12.917 17.97 0.544 0.45
12.838 17.978 0.544 0.38
12.752 17.978 0.543 0.45
12.676 17.99 0.542 0.37
12.593 17.992 0.542 0.38
12.544 17.982 0.541 0.39
12.468 17.994 0.541 0.39
12.387 17.996 0.54 0.46
12.311 18.007 0.54 0.33
12.227 18.006 0.539 0.62
10.424 15.462 0.491 0.27
10.362 15.475 0.491 0.31
10.352 15.513 0.491 0.48
11.929 17.99 0.536 0.14
11.866 18.017 0.536 0.46
11.788 18.022 0.535 0.38
11.712 18.029 0.535 0.4
11.632 18.031 0.534 0.39
11.556 18.037 0.534 0.38
11.482 18.046 0.533 0.38
11.432 18.03 0.532 0.4
11.359 18.039 0.532 0.39
11.283 18.044 0.531 0.4
11.204 18.044 0.531 0.39
11.126 18.045 0.53 0.4
11.058 18.061 0.53 0.41
10.98 18.062 0.529 0.4
10.938 18.057 0.529 0.4
10.859 18.053 0.528 0.4
10.791 18.068 0.528 0.4
10.712 18.066 0.527 0.4
10.633 18.062 0.527 0.4
10.56 18.067 0.526 0.39
10.485 18.069 0.526 0.45
10.446 18.067 0.525 0.37
10.37 18.067 0.525 0.43
10.303 18.082 0.524 0.36
10.227 18.079 0.524 0.44
10.157 18.089 0.523 0.37
10.083 18.089 0.523 0.45
10.008 18.089 0.522 0.36
9.965 18.079 0.522 0.43
9.898 18.091 0.521 0.36
9.825 18.092 0.521 0.45
9.756 18.1 0.52 0.37
9.685 18.106 0.52 0.45
9.614 18.108 0.52 0.36
9.54 18.106 0.519 0.44
9.474 18.12 0.519 0.36
9.43 18.105 0.518 0.45
9.361 18.111 0.518 0.37
9.293 18.119 0.517 0.45
9.225 18.125 0.517 0.37
9.156 18.131 0.517 0.38
9.085 18.133 0.516 0.38
9.014 18.132 0.516 0.46
8.975 18.125 0.515 0.36
8.907 18.132 0.515 0.44
8.841 18.14 0.515 0.37
8.772 18.144 0.514 0.38
8.701 18.141 0.514 0.39
8.636 18.152 0.513 0.48
8.57 18.161 0.513 0.38
8.525 18.138 0.513 0.45
8.462 18.152 0.512 0.38
8.392 18.151 0.512 0.46
8.332 18.172 0.512 0.3
8.258 18.16 0.511 0.48
8.193 18.17 0.511 0.38
8.122 18.164 0.51 0.46
8.09 18.168 0.51 0.37
8.024 18.173 0.51 0.39
7.954 18.169 0.509 0.39
7.893 18.186 0.509 0.38
7.825 18.185 0.509 0.39
7.759 18.19 0.509 0.39
7.689 18.185 0.508 0.46
7.625 18.192 0.508 0.38
7.59 18.187 0.507 0.38
7.522 18.185 0.507 0.39
7.456 18.188 0.507 0.47
7.397 18.206 0.507 0.33
7.331 18.209 0.506 0.63
6.253 15.683 0.465 0.24
6.2 15.691 0.464 0.36
6.167 15.681 0.464 0.36
6.117 15.698 0.464 0.36
6.057 15.691 0.464 0.36
6.004 15.699 0.463 0.36
5.946 15.695 0.463 0.36
5.892 15.703 0.463 0.37
5.837 15.706 0.463 0.35
5.778 15.698 0.462 0.34
5.752 15.702 0.462 0.36
5.697 15.705 0.462 0.36
5.644 15.713 0.462 0.37
5.589 15.716 0.461 0.37
5.535 15.72 0.461 0.36
5.48 15.72 0.461 0.37
5.427 15.728 0.461 0.35
5.394 15.714 0.46 0.37
5.342 15.721 0.46 0.36
5.289 15.728 0.46 0.36
5.234 15.728 0.46 0.38
5.178 15.725 0.46 0.36
5.126 15.732 0.459 0.37
5.073 15.736 0.459 0.38
5.018 15.735 0.459 0.33
4.991 15.737 0.459 0.39
4.938 15.74 0.459 0.35
4.883 15.74 0.458 0.38
4.831 15.747 0.458 0.38
4.778 15.749 0.458 0.37
4.723 15.747 0.458 0.38
4.671 15.754 0.458 0.34
4.643 15.748 0.457 0.38
4.591 15.757 0.457 0.38
4.538 15.757 0.457 0.34
4.486 15.762 0.457 0.39
4.433 15.764 0.457 0.36
4.382 15.773 0.457 0.34
4.327 15.769 0.456 0.39
4.301 15.768 0.456 0.33
4.247 15.768 0.456 0.39
4.197 15.779 0.456 0.35
4.145 15.783 0.456 0.35
4.092 15.784 0.456 0.39
4.039 15.781 0.456 0.33
3.988 15.79 0.455 0.4
3.961 15.785 0.455 0.33
3.91 15.793 0.455 0.38
3.857 15.794 0.455 0.39
3.806 15.798 0.455 0.37
3.753 15.796 0.455 0.38
3.702 15.802 0.455 0.35
3.651 15.806 0.454 0.37
3.6 15.811 0.454 0.36
3.574 15.813 0.454 0.33
3.533 15.863 0.455 0.55
3.481 15.864 0.455 0.27
3.498 16.184 0.46 0.23
3.509 16.482 0.464 0.18
3.518 16.781 0.469 0.24
3.525 17.078 0.473 0.18
3.569 17.426 0.478 0.22
3.579 17.759 0.483 0.19
3.556 17.934 0.486 0.27
3.495 18.225 0.49 0.31
3.459 18.348 0.492 0.3
3.403 18.367 0.492 0.41
3.374 18.368 0.492 0.4
3.314 18.369 0.492 0.4
3.255 18.373 0.492 0.41
3.195 18.37 0.491 0.41
3.136 18.374 0.491 0.41
3.078 18.378 0.491 0.41
3.019 18.379 0.491 0.41
2.96 18.385 0.491 0.41
2.931 18.387 0.491 0.41
2.872 18.387 0.491 0.41
2.813 18.388 0.491 0.41
2.753 18.383 0.49 0.41
2.694 18.387 0.49 0.4
2.637 18.396 0.49 0.41
2.578 18.398 0.49 0.4
2.549 18.4 0.49 0.41
2.491 18.406 0.49 0.41
2.432 18.41 0.49 0.4
2.374 18.411 0.49 0.4
2.315 18.409 0.49 0.4
2.257 18.418 0.49 0.39
2.198 18.419 0.49 0.4
2.169 18.42 0.49 0.4
2.111 18.423 0.49 0.4
2.052 18.418 0.49 0.41
1.993 18.42 0.49 0.41
1.936 18.426 0.49 0.41
1.878 18.432 0.49 0.41
1.819 18.43 0.489 0.41
1.762 18.444 0.49 0.41
1.732 18.436 0.489 0.41
1.674 18.438 0.489 0.41
1.615 18.437 0.489 0.4
1.557 18.44 0.489 0.4
1.499 18.443 0.489 0.41
1.441 18.451 0.489 0.41
1.383 18.452 0.489 0.41
1.354 18.454 0.489 0.41
1.296 18.454 0.489 0.42
1.238 18.462 0.489 0.41
1.179 18.456 0.489 0.4
1.122 18.466 0.489 0.39
1.064 18.471 0.489 0.4
1.006 18.472 0.489 0.41
0.948 18.475 0.489 0.41
0.919 18.475 0.489 0.41
0.86 18.472 0.489 0.42
0.802 18.468 0.489 0.41
0.744 18.479 0.489 0.41
0.686 18.479 0.489 0.41
0.628 18.483 0.489 0.41
0.57 18.483 0.489 0.39
0.541 18.482 0.489 0.39
0.483 18.481 0.489 0.43
0.425 18.493 0.489 0.58
0.303 15.489 0.443 0.25
0.254 15.474 0.443 0.34
0.206 15.493 0.443 0.39
0.157 15.517 0.444 0.35
0.163 18.481 0.489 0.25
0.106 18.515 0.489 0.32
0.047 18.498 0.489 0.48
-0.011 18.522 0.489 0.3
-0.069 18.505 0.489 0.5
-0.127 18.519 0.489 0.32
-0.185 18.509 0.489 0.48
-0.244 18.52 0.489 0.31
-0.272 18.508 0.489 0.49
-0.331 18.529 0.49 0.31
-0.389 18.516 0.489 0.49
-0.448 18.54 0.49 0.3
-0.506 18.527 0.49 0.48
-0.564 18.541 0.49 0.33
-0.622 18.531 0.49 0.62
-0.659 18.754 0.493 0.0
-2.632 65.091 1.199 0.0
-2.84 65.146 1.2 0.0
-1.654 30.033 0.665 0.23
-1.706 29.291 0.654 0.32
-1.747 28.433 0.641 0.31
-1.785 27.619 0.629 0.28
-1.82 26.851 0.617 0.3
-1.853 26.111 0.606 0.32
-1.884 25.409 0.595 0.29
-1.915 24.761 0.586 0.37
-1.905 24.128 0.576 0.3
-1.933 23.528 0.567 0.32
-1.962 22.99 0.559 0.32
-1.988 22.457 0.551 0.34
-2.013 21.947 0.543 0.35
-2.036 21.453 0.536 0.32
-2.058 20.973 0.528 0.34
-2.047 20.524 0.521 0.34
-2.071 20.117 0.515 0.34
-2.09 19.697 0.509 0.34
-2.11 19.298 0.503 0.35
-2.13 18.924 0.497 0.36
-2.148 18.556 0.492 0.38
-2.163 18.177 0.486 0.41
-2.176 17.809 0.481 0.28
-2.182 17.627 0.478 0.33
-2.237 17.616 0.478 0.53
-2.296 17.639 0.478 0.34
-2.351 17.626 0.478 0.44
-2.408 17.63 0.478 0.34
-2.463 17.624 0.478 0.52
-2.547 17.815 0.481 0.33
-2.584 17.878 0.482 0.48
-2.645 17.897 0.483 0.38
-2.7 17.881 0.483 0.48
-2.758 17.89 0.483 0.38
-2.817 17.893 0.483 0.48
-2.874 17.894 0.483 0.38
-2.931 17.891 0.483 0.49
-2.963 17.91 0.484 0.38
-3.02 17.901 0.484 0.49
-3.079 17.909 0.484 0.39
-3.137 17.911 0.484 0.48
-3.194 17.905 0.484 0.39
-3.252 17.903 0.484 0.49
-3.313 17.92 0.485 0.38
-3.369 17.906 0.485 0.48
-3.4 17.92 0.485 0.38
-3.46 17.927 0.485 0.47
-3.519 17.928 0.486 0.37
-3.575 17.916 0.486 0.48
-3.636 17.929 0.486 0.37
-3.692 17.917 0.486 0.47
-3.754 17.929 0.486 0.38
-3.785 17.937 0.487 0.48
-3.844 17.94 0.487 0.38
-3.903 17.94 0.487 0.5
-3.965 17.953 0.487 0.37
-4.019 17.929 0.487 0.48
-4.083 17.949 0.488 0.36
-4.141 17.944 0.488 0.48
-4.173 17.955 0.488 0.36
-4.231 17.95 0.488 0.49
-4.295 17.967 0.489 0.38
-4.353 17.96 0.489 0.48
-4.413 17.963 0.489 0.37
-4.473 17.963 0.489 0.48
-4.533 17.962 0.49 0.37
-4.592 17.96 0.49 0.47
-4.63 17.987 0.49 0.36
-4.686 17.973 0.49 0.47
-4.75 17.985 0.491 0.36
-4.808 17.978 0.491 0.47
-4.869 17.98 0.491 0.38
-4.927 17.97 0.491 0.48
-4.992 17.986 0.492 0.37
-5.051 17.978 0.492 0.47
-5.087 17.997 0.492 0.35
-5.145 17.986 0.492 0.47
-5.207 17.989 0.493 0.36
-5.268 17.99 0.493 0.47
-5.333 18.002 0.493 0.38
-5.392 17.993 0.493 0.47
-5.456 17.999 0.494 0.36
-5.489 18.008 0.494 0.46
-5.551 18.007 0.494 0.36
-5.612 18.003 0.495 0.47
-5.678 18.016 0.495 0.35
-5.738 18.01 0.495 0.47
-5.804 18.022 0.496 0.37
-5.864 18.015 0.496 0.47
-5.9 18.027 0.496 0.36
-5.962 18.027 0.497 0.46
-6.027 18.033 0.497 0.36
-6.086 18.022 0.497 0.46
-6.155 18.038 0.498 0.36
-6.217 18.034 0.498 0.46
-6.282 18.037 0.498 0.36
-6.345 18.036 0.499 0.46
-6.383 18.054 0.499 0.35
-6.44 18.034 0.499 0.45
-6.511 18.055 0.5 0.35
-6.573 18.048 0.5 0.46
-6.638 18.052 0.5 0.35
-6.7 18.044 0.501 0.63
-6.759 18.028 0.501 0.39
-6.757 17.939 0.499 0.2
-6.868 18.062 0.502 0.42
-6.935 18.066 0.502 0.35
-7.0 18.065 0.502 0.45
-7.071 18.08 0.503 0.34
-7.133 18.071 0.503 0.45
-7.197 18.067 0.504 0.44
-7.265 18.074 0.504 0.35
-7.302 18.083 0.504 0.46
-7.372 18.091 0.505 0.36
-7.434 18.083 0.505 0.55
-7.508 18.1 0.506 0.34
-7.568 18.084 0.506 0.45
-7.643 18.102 0.507 0.36
-7.705 18.091 0.507 0.46
-7.748 18.114 0.507 0.36
-7.811 18.104 0.508 0.55
-7.886 18.12 0.508 0.34
-7.945 18.101 0.508 0.55
-6.807 15.368 0.463 0.45
-6.864 15.366 0.464 0.27
-6.941 15.408 0.465 0.29
-6.973 15.414 0.465 0.2
-8.265 18.13 0.511 0.31
-8.327 18.115 0.511 0.54
-8.403 18.131 0.512 0.34
-8.471 18.128 0.512 0.53
-8.549 18.144 0.513 0.32
-8.612 18.13 0.513 0.44
-8.684 18.135 0.514 0.35
-8.725 18.149 0.514 0.46
-8.799 18.156 0.515 0.34
-8.864 18.144 0.515 0.51
-8.941 18.157 0.516 0.32
-9.007 18.147 0.516 0.53
-9.088 18.167 0.517 0.34
-9.15 18.147 0.517 0.52
-9.201 18.179 0.518 0.32
-9.267 18.166 0.518 0.51
-9.345 18.178 0.519 0.34
-9.414 18.172 0.519 0.51
-9.494 18.186 0.52 0.32
-9.556 18.167 0.52 0.5
-9.635 18.178 0.521 0.33
-9.675 18.184 0.521 0.62
-9.729 18.148 0.521 0.32
-9.82 18.181 0.522 0.31
-9.899 18.19 0.523 0.56
-9.892 18.041 0.521 0.25
-10.001 18.105 0.522 0.09
-10.089 18.129 0.523 0.14
-10.169 18.139 0.524 0.0
-10.173 18.08 0.523 0.1
-10.287 18.149 0.525 0.1
-10.296 18.033 0.524 0.14
-10.369 18.028 0.524 0.21
-10.527 18.172 0.527 0.24
-10.599 18.165 0.528 0.11
-10.665 18.145 0.528 0.0
-10.688 18.12 0.528 0.12
-10.723 18.05 0.527 0.11
-10.715 17.907 0.525 0.14
-10.751 17.84 0.525 0.37
-10.756 17.723 0.523 0.45
-10.762 17.607 0.522 0.36
-10.772 17.5 0.52 0.38
-10.773 17.377 0.519 0.39
-10.763 17.301 0.518 0.47
-10.732 17.131 0.515 0.0
-10.844 17.189 0.517 0.11
-10.915 17.182 0.517 0.14
-11.031 17.245 0.519 0.38
-13.287 20.638 0.581 0.29
-13.289 20.498 0.579 0.23
-10.77 16.547 0.508 0.23
-10.783 16.453 0.507 0.39
-10.796 16.361 0.506 0.38
-10.798 16.253 0.505 0.39
-10.802 16.148 0.503 0.4
-10.808 16.047 0.502 0.41
-10.821 15.959 0.501 0.41
-10.799 15.872 0.5 0.4
-10.807 15.777 0.499 0.41
-10.813 15.679 0.497 0.4
-10.814 15.576 0.496 0.41
-10.819 15.479 0.495 0.41
-10.827 15.386 0.494 0.4
-10.871 15.347 0.494 0.52
-10.762 15.091 0.49 0.0
-10.755 15.032 0.489 0.0
-10.879 15.005 0.49 0.12
-11.186 15.328 0.496 0.14
-11.264 15.333 0.497 0.23
-11.339 15.335 0.498 0.1
-11.398 15.313 0.498 0.08
-11.461 15.348 0.499 0.14
-11.553 15.37 0.5 0.17
-11.594 15.324 0.5 0.11
-11.462 15.05 0.495 0.4
-11.783 15.373 0.502 0.25
-11.865 15.379 0.503 0.27
-11.941 15.378 0.504 0.0
-11.962 15.305 0.503 0.09
-12.065 15.387 0.505 0.17
-12.133 15.375 0.506 0.11
-11.999 15.106 0.501 0.16
-12.238 15.309 0.506 0.2
-12.378 15.384 0.508 0.25
-12.456 15.383 0.509 0.11
-12.521 15.364 0.509 0.08
-12.597 15.408 0.51 0.15
-12.674 15.404 0.511 0.12
-12.557 15.163 0.507 0.0
-12.753 15.302 0.511 0.13
-12.921 15.406 0.514 0.09
-13.008 15.411 0.514 0.0
-13.075 15.392 0.515 0.08
-13.152 15.434 0.516 0.14
-13.224 15.42 0.517 0.12
-13.11 15.19 0.513 0.0
-13.387 15.413 0.518 0.0
-13.496 15.441 0.52 0.0
-13.56 15.416 0.52 0.0
-13.618 15.384 0.52 0.0
-13.656 15.329 0.52 0.0
-13.597 15.119 0.517 0.0
-16.916 18.466 0.589 0.32
-17.022 18.464 0.59 0.44
-17.13 18.465 0.591 0.36
-17.215 18.498 0.592 0.38
-17.322 18.496 0.593 0.38
-17.429 18.494 0.594 0.38
-17.542 18.497 0.596 0.37
-17.654 18.499 0.597 0.4
-17.769 18.502 0.598 0.34
-17.884 18.506 0.599 0.48
-17.961 18.528 0.6 0.39
-18.006 18.457 0.6 0.18
-18.189 18.529 0.603 0.39
-18.302 18.527 0.604 0.38
-18.415 18.525 0.605 0.38
-18.54 18.533 0.606 0.38
-18.66 18.537 0.608 0.39
-18.777 18.536 0.609 0.38
-18.866 18.566 0.61 0.38
-18.982 18.564 0.612 0.38
-19.095 18.557 0.613 0.38
-19.219 18.561 0.614 0.38
-19.341 18.561 0.615 0.36
-19.47 18.568 0.617 0.38
-19.594 18.569 0.618 0.36
-19.685 18.597 0.62 0.36
-19.808 18.595 0.621 0.39
-19.935 18.597 0.622 0.35
-20.068 18.604 0.624 0.36
-20.195 18.605 0.625 0.39
-20.326 18.607 0.627 0.34
-20.45 18.604 0.628 0.35
-20.558 18.643 0.63 0.39
-20.682 18.637 0.631 0.37
-20.812 18.636 0.633 0.38
-20.949 18.642 0.634 0.37
-21.077 18.637 0.636 0.37
-21.215 18.64 0.637 0.38
-21.354 18.645 0.639 0.37
-21.488 18.643 0.64 0.37
-21.593 18.675 0.642 0.37
-21.734 18.677 0.644 0.38
-21.874 18.679 0.645 0.35
-22.017 18.682 0.647 0.32
-22.168 18.691 0.649 0.51
-22.29 18.674 0.65 0.21
-18.125 15.082 0.566 0.25
-22.31 18.513 0.649 0.29
-22.323 18.405 0.648 0.36
-22.33 18.293 0.647 0.37
-22.341 18.185 0.646 0.37
-22.353 18.078 0.645 0.37
-22.353 17.963 0.644 0.37
-22.36 17.853 0.643 0.36
-22.344 17.783 0.642 0.41
-22.594 17.866 0.646 0.0
-22.49 17.669 0.643 0.06
-24.93 19.463 0.689 0.14
-24.936 19.342 0.688 0.18
-24.927 19.21 0.686 0.18
-24.941 19.096 0.686 0.12
-22.399 17.035 0.636 0.34
-22.376 16.962 0.635 0.36
-22.381 16.856 0.634 0.35
-22.386 16.749 0.633 0.36
-22.392 16.644 0.632 0.36
-22.396 16.538 0.631 0.36
-22.404 16.436 0.63 0.37
-22.411 16.332 0.63 0.36
-22.385 16.259 0.629 0.37
-22.398 16.162 0.628 0.31
-22.421 16.072 0.627 0.52
-22.359 15.921 0.625 0.25
-22.308 15.779 0.623 0.0
-22.377 15.723 0.624 0.0
-22.586 15.763 0.627 0.0
-22.783 15.848 0.63 0.0
-22.926 15.841 0.632 0.0
-23.086 15.845 0.634 0.0
-23.288 15.876 0.636 0.07
-23.465 15.889 0.639 0.09
-23.619 15.886 0.641 0.0
-23.803 15.902 0.643 0.0
-23.971 15.96 0.646 0.11
-24.153 15.972 0.648 0.0
-24.35 15.993 0.651 0.0
-24.546 16.011 0.654 0.07
-24.709 16.007 0.656 0.0
-24.888 16.013 0.658 0.0
-25.095 16.035 0.661 0.0
-25.25 16.078 0.663 0.0
-25.336 16.021 0.664 0.0
-30.513 19.167 0.756 0.0
-30.798 19.077 0.759 0.23
-31.179 19.179 0.765 0.0
-31.389 19.173 0.767 0.0
-31.778 19.273 0.773 0.0
-31.856 19.252 0.774 0.12
-31.914 19.151 0.774 0.24
-32.098 19.124 0.776 0.33
-32.332 19.126 0.779 0.32
-32.564 19.126 0.782 0.31
-32.81 19.133 0.785 0.32
-33.055 19.137 0.789 0.31
-33.264 19.188 0.792 0.27
-33.501 19.185 0.795 0.33
-33.54 19.068 0.795 0.35
-33.575 18.948 0.794 0.38
-33.764 18.915 0.796 0.25
-35.264 19.612 0.822 0.32
-35.28 19.476 0.821 0.33
-35.291 19.337 0.82 0.33
-35.267 19.252 0.819 0.32
-35.288 19.12 0.818 0.36
-35.33 18.999 0.818 0.28
-35.556 18.977 0.821 0.41
-35.884 19.008 0.825 0.19
-36.131 18.994 0.829 0.22
-36.446 19.013 0.833 0.31
-36.653 19.048 0.836 0.21
-27.308 14.076 0.675 0.21
-27.333 13.98 0.675 0.29
-27.305 13.858 0.674 0.27
-27.232 13.713 0.672 0.33
-27.279 13.629 0.672 0.29
-27.3 13.533 0.671 0.36
-27.363 13.51 0.672 0.38
-27.469 13.456 0.673 0.28
-39.475 19.196 0.875 0.13
-39.78 19.19 0.88 0.46
-40.096 19.188 0.884 0.25
-40.436 19.195 0.889 0.2
-40.756 19.191 0.893 0.0
-40.834 19.149 0.894 0.0
-41.321 19.22 0.901 0.0
-40.231 18.558 0.882 0.0
-40.236 18.407 0.881 0.0
-40.217 18.246 0.88 0.0
-42.891 19.299 0.923 0.0
-43.23 19.289 0.928 0.0
-40.217 17.866 0.877 0.0
-45.802 20.179 0.969 0.0
-45.804 20.009 0.968 0.0
-43.377 18.785 0.927 0.0
-45.834 19.679 0.967 0.0
-45.833 19.509 0.965 0.07
-45.846 19.344 0.965 0.08
-43.28 18.1 0.921 0.15
-43.229 17.999 0.92 0.12
-43.265 17.855 0.92 0.0
-43.461 17.776 0.922 0.0
-44.31 17.962 0.935 0.0
-44.838 18.012 0.943 0.0
-45.239 18.009 0.948 0.0
-45.766 18.052 0.956 0.07
-36.419 14.294 0.803 0.16
-36.232 14.089 0.799 0.18
-36.342 14.0 0.8 0.21
-36.43 13.903 0.801 0.1
-47.807 18.082 0.985 0.15
-48.015 17.988 0.988 0.21
-48.268 17.91 0.991 0.09
-48.311 17.84 0.991 0.0
-48.637 17.787 0.996 0.0
-49.208 17.821 1.004 0.0
-50.0 17.931 1.016 0.0
-50.508 17.935 1.023 0.0
-50.828 17.869 1.027 0.0
-51.139 17.798 1.031 0.0
-74.643 25.728 1.409 0.0
-74.189 24.662 1.397 0.0
-75.964 24.328 1.421 0.0
-75.43 23.896 1.411 0.0
-75.161 23.551 1.406 0.0
-75.568 23.158 1.41 0.0
-75.661 22.927 1.41 0.0
-75.639 22.661 1.409 0.0
-45.084 13.342 0.923 0.08
-45.193 13.297 0.924 0.09
-45.225 13.152 0.924 0.0
-45.316 13.024 0.925 0.0
-45.368 12.885 0.925 0.0
-45.426 12.747 0.925 0.0
-51.726 14.169 1.024 0.0
-51.53 14.029 1.02 0.0
-51.643 13.885 1.021 0.0
-51.737 13.736 1.022 0.0
-51.146 13.407 1.012 0.0
-49.273 12.75 0.982 0.0
-49.28 12.587 0.981 0.0
-51.012 12.859 1.008 0.0
-49.575 12.414 0.985 0.0
-52.487 12.969 1.03 0.0
-51.01 12.434 1.006 0.0
-52.464 12.614 1.029 0.0
-50.401 11.95 0.996 0.0
-50.438 11.791 0.996 0.0
-50.293 11.591 0.993 0.0
-50.171 11.48 0.991 0.0
-50.673 11.427 0.998 0.0
-52.296 11.622 1.023 0.0
-52.342 11.459 1.023 0.0
-52.366 11.292 1.023 0.0
-50.148 10.648 0.988 0.0
-50.21 10.497 0.988 0.0
-78.154 14.949 1.418 0.0
-78.989 11.535 1.422 0.0
-55.265 -16.79 1.086 0.0
-55.128 -16.937 1.085 0.0
-55.12 -17.125 1.086 0.0
-61.668 -20.116 1.194 0.0
-61.384 -20.237 1.191 0.0
-69.685 -23.213 1.325 0.0
-62.453 -20.915 1.21 0.0
-62.232 -21.059 1.207 0.0
-69.782 -23.855 1.33 0.0
-70.913 -24.491 1.349 0.0
-49.327 -17.218 1.002 0.0
-63.218 -22.282 1.227 0.07
-49.269 -17.545 1.003 0.0
-49.509 -17.718 1.008 0.0
-27.359 -9.998 0.651 0.26
-26.12 -9.733 0.632 0.48
-26.745 -10.157 0.643 0.18
-26.114 -9.965 0.633 0.14
-26.827 -10.333 0.645 0.23
-26.888 -10.453 0.647 0.13
-25.278 -9.92 0.621 0.32
-25.146 -9.96 0.619 0.25
-25.105 -10.035 0.619 0.36
-25.001 -10.085 0.618 0.34
-24.993 -10.173 0.618 0.27
-24.937 -10.196 0.618 0.49
-24.263 -10.01 0.607 0.23
-25.027 -10.417 0.62 0.16
-24.662 -10.356 0.615 0.43
-22.977 -9.736 0.587 0.16
-22.606 -9.663 0.582 0.33
-22.747 -9.807 0.585 0.31
-22.562 -9.77 0.582 0.16
-22.469 -9.814 0.581 0.55
-23.839 -10.499 0.604 0.13
-23.621 -10.492 0.601 0.35
-22.756 -10.195 0.587 0.27
-19.945 -9.014 0.541 0.19
-19.953 -9.093 0.541 0.48
-19.871 -9.094 0.54 0.27
-19.912 -9.188 0.541 0.22
-20.106 -9.354 0.545 0.43
-20.169 -9.46 0.547 0.27
-20.117 -9.514 0.546 0.29
-19.93 -9.502 0.544 0.23
-19.884 -9.557 0.543 0.41
-20.266 -9.818 0.55 0.38
-19.426 -9.451 0.536 0.23
-19.652 -9.636 0.541 0.19
-19.117 -9.45 0.532 0.52
-19.238 -9.584 0.535 0.24
-19.521 -9.801 0.54 0.16
-18.961 -9.596 0.531 0.39
-19.04 -9.711 0.533 0.21
-19.124 -9.792 0.535 0.51
-20.673 -10.664 0.562 0.2
-19.226 -10.073 0.538 0.35
-19.117 -10.093 0.537 0.25
-19.118 -10.17 0.537 0.53
-19.167 -10.274 0.539 0.23
-18.964 -10.204 0.535 0.33
-18.975 -10.286 0.536 0.32
-19.048 -10.403 0.538 0.41
-19.039 -10.476 0.538 0.29
-29.268 -16.208 0.717 0.45
-29.168 -16.273 0.716 0.25
-29.083 -16.346 0.715 0.23
-28.733 -16.209 0.71 0.38
-28.651 -16.281 0.709 0.18
-28.381 -16.246 0.705 0.26
-27.3 -15.743 0.687 0.14
-27.188 -15.792 0.686 0.26
-27.171 -15.897 0.687 0.26
-27.416 -16.156 0.692 0.18
-27.288 -16.196 0.69 0.16
-27.056 -16.116 0.687 0.44
-26.883 -16.128 0.685 0.23
-26.658 -16.107 0.682 0.25
-26.46 -16.101 0.679 0.24
-26.065 -15.974 0.673 0.3
-25.996 -16.044 0.672 0.26
-25.808 -16.04 0.67 0.25
-25.801 -16.092 0.67 0.36
-25.564 -16.056 0.667 0.27
-25.375 -16.049 0.664 0.28
-25.264 -16.09 0.663 0.3
-24.91 -15.975 0.658 0.3
-24.863 -16.056 0.658 0.31
-24.814 -16.135 0.658 0.32
-24.507 -15.99 0.653 0.3
-24.388 -16.022 0.652 0.32
-24.169 -15.988 0.649 0.23
-24.015 -15.995 0.647 0.32
-23.958 -16.066 0.647 0.35
-23.82 -16.082 0.645 0.3
-23.615 -16.052 0.642 0.29
-23.468 -16.006 0.64 0.3
-23.401 -16.068 0.64 0.41
-23.189 -16.03 0.637 0.3
-23.076 -16.06 0.635 0.31
-22.845 -16.006 0.632 0.25
-22.78 -16.068 0.632 0.35
-22.601 -16.048 0.629 0.29
-22.496 -16.08 0.628 0.35
-22.409 -16.071 0.627 0.34
-22.226 -16.046 0.625 0.29
