# .PCD v.7 - Point Cloud Data file format
VERSION .7
FIELDS x y z intensity
SIZE 4 4 4 4
TYPE F F F F
COUNT 1 1 1 1
WIDTH 1863
HEIGHT 1
VIEWPOINT 0 0 0 1 0 0 0
POINTS 1863
DATA ascii
-11.141 15.567 -1.209 0.48
-11.218 15.571 -1.213 0.47
-11.291 15.568 -1.216 0.48
-11.355 15.553 -1.218 0.7
-13.624 18.529 -1.493 0.22
-13.669 18.53 -1.495 0.67
-12.373 16.668 -1.328 0.38
-12.417 16.618 -1.327 0.31
-12.624 16.784 -1.346 0.19
-12.3 16.247 -1.3 0.18
-12.374 16.239 -1.303 0.18
-12.837 16.736 -1.353 0.0
-7.488 9.748 -0.704 0.0
-7.467 9.658 -0.698 0.0
-7.466 9.595 -0.694 0.0
-7.451 9.514 -0.689 0.0
-7.457 9.461 -0.686 0.0
-7.426 8.726 -0.643 0.0
-7.438 8.684 -0.641 0.0
-7.44 8.632 -0.638 0.0
-7.449 8.588 -0.636 0.0
-7.493 8.584 -0.638 0.0
-7.524 8.591 -0.64 0.0
-7.603 8.572 -0.643 0.0
-7.682 8.552 -0.646 0.0
-8.154 8.523 -0.668 0.0
-8.213 8.53 -0.671 0.0
-8.357 8.518 -0.678 0.0
-9.028 8.479 -0.711 0.0
-9.083 8.476 -0.714 0.0
-9.133 8.469 -0.716 0.0
-10.335 9.108 -0.814 0.0
-9.765 8.499 -0.752 0.0
-9.793 8.47 -0.753 0.05
-16.331 13.923 -1.38 0.24
-16.422 13.912 -1.385 0.3
-16.515 13.901 -1.389 0.23
-16.52 13.861 -1.388 0.52
-16.561 13.808 -1.388 0.41
-16.782 13.902 -1.404 0.26
-16.75 13.787 -1.397 0.41
-16.929 13.845 -1.41 0.33
-17.048 13.854 -1.417 0.34
-17.076 13.788 -1.416 0.49
-17.092 13.756 -1.415 0.41
-17.192 13.748 -1.421 0.22
-17.307 13.751 -1.427 0.46
-17.437 13.764 -1.436 0.42
-17.772 13.938 -1.463 0.31
-17.902 13.95 -1.471 0.31
-17.932 13.882 -1.47 0.4
-17.968 13.865 -1.471 0.36
-18.067 13.851 -1.476 0.42
-18.077 13.769 -1.473 0.39
-18.279 13.832 -1.488 0.25
-18.366 13.807 -1.492 0.38
-18.487 13.808 -1.499 0.48
-18.736 13.901 -1.518 0.2
-18.73 13.806 -1.513 0.52
-18.701 13.74 -1.509 0.18
-22.145 16.157 -1.819 0.43
-22.276 16.146 -1.826 0.25
-22.432 16.151 -1.836 0.22
-22.551 16.13 -1.842 0.2
-22.639 16.085 -1.845 0.35
-22.732 16.044 -1.849 0.28
-22.803 16.04 -1.853 0.38
-24.592 17.181 -2.009 0.18
-24.5 17.003 -1.996 0.25
-23.965 16.521 -1.944 0.25
-23.976 16.418 -1.94 0.41
-23.955 16.293 -1.934 0.24
-23.95 16.18 -1.929 0.29
-23.882 16.08 -1.92 0.27
-23.908 15.988 -1.918 0.5
-24.043 15.969 -1.926 0.21
-23.919 15.779 -1.91 0.39
-24.086 15.781 -1.921 0.2
-23.901 15.553 -1.9 0.53
-24.035 15.533 -1.908 0.17
-23.912 15.4 -1.895 0.0
-23.959 15.324 -1.894 0.0
-23.991 15.239 -1.893 0.0
-27.105 17.093 -2.16 0.0
-26.588 16.651 -2.111 0.0
-15.613 9.723 -1.154 0.07
-15.384 9.513 -1.131 0.17
-15.371 9.439 -1.128 0.11
-15.386 9.415 -1.128 0.36
-15.446 9.385 -1.13 0.26
-15.506 9.355 -1.133 0.28
-15.541 9.309 -1.133 0.46
-15.525 9.234 -1.13 0.34
-15.515 9.162 -1.126 0.21
-15.731 9.223 -1.142 0.39
-15.356 8.971 -1.109 0.09
-15.35 8.903 -1.106 0.09
-15.367 8.849 -1.105 0.09
-15.603 8.854 -1.121 0.31
-15.631 8.805 -1.121 0.35
-15.629 8.74 -1.118 0.31
-15.604 8.661 -1.114 0.26
-15.605 8.63 -1.113 0.15
-15.589 8.557 -1.109 0.99
-15.545 8.47 -1.103 0.99
-15.533 8.4 -1.1 0.99
-15.554 8.349 -1.099 0.99
-15.557 8.288 -1.097 0.99
-15.545 8.218 -1.094 0.99
-15.711 8.274 -1.107 0.77
-15.817 8.267 -1.114 0.0
-15.683 8.134 -1.1 0.0
-15.81 8.137 -1.109 0.0
-15.883 8.112 -1.113 0.0
-15.999 8.108 -1.12 0.13
-16.114 8.102 -1.128 0.29
-16.212 8.119 -1.135 0.21
-16.325 8.112 -1.142 0.28
-16.442 8.105 -1.149 0.27
-16.555 8.096 -1.157 0.34
-16.676 8.09 -1.164 0.32
-16.787 8.079 -1.171 0.31
-16.906 8.071 -1.179 0.36
-17.015 8.09 -1.187 0.36
-17.137 8.082 -1.195 0.35
-17.251 8.07 -1.202 0.35
-17.374 8.061 -1.21 0.34
-17.507 8.055 -1.219 0.41
-17.617 8.039 -1.225 0.34
-17.755 8.034 -1.235 0.35
-17.875 8.054 -1.243 0.35
-17.999 8.042 -1.251 0.33
-18.137 8.035 -1.26 0.34
-18.275 8.028 -1.269 0.33
-18.408 8.017 -1.278 0.33
-18.54 8.005 -1.287 0.38
-18.671 7.992 -1.295 0.3
-18.816 7.984 -1.305 0.35
-19.229 8.123 -1.337 0.33
-19.409 8.127 -1.349 0.27
-19.584 8.128 -1.361 0.23
-19.493 8.019 -1.352 0.38
-19.577 7.982 -1.356 0.2
-33.176 13.385 -2.435 0.26
-33.221 13.282 -2.435 0.31
-33.168 13.2 -2.429 0.32
-33.204 13.094 -2.429 0.23
-33.22 12.98 -2.427 0.21
-33.293 12.888 -2.43 0.48
-33.465 12.834 -2.44 0.25
-33.619 12.772 -2.449 0.23
-33.921 12.764 -2.47 0.26
-34.116 12.777 -2.483 0.21
-34.369 12.748 -2.5 0.21
-34.535 12.686 -2.51 0.0
-34.616 12.593 -2.513 0.0
-34.664 12.487 -2.514 0.0
-34.732 12.388 -2.516 0.0
-34.787 12.285 -2.517 0.0
-34.865 12.251 -2.522 0.0
-34.932 12.151 -2.524 0.0
-35.009 12.055 -2.527 0.0
-35.083 11.957 -2.53 0.0
-35.179 11.867 -2.535 0.0
-35.259 11.771 -2.538 0.0
-35.351 11.678 -2.542 0.0
-35.446 11.586 -2.547 0.0
-35.485 11.537 -2.548 0.0
-35.552 11.435 -2.551 0.0
-35.601 11.328 -2.552 0.0
-35.695 11.234 -2.556 0.0
-35.75 11.128 -2.558 0.0
-35.882 11.045 -2.565 0.0
-35.977 10.951 -2.57 0.0
-35.994 10.895 -2.57 0.0
-36.074 10.795 -2.574 0.0
-36.121 10.686 -2.575 0.0
-36.161 10.574 -2.575 0.0
-36.194 10.46 -2.575 0.0
-36.219 10.344 -2.575 0.0
-36.284 10.24 -2.577 0.0
-36.34 10.194 -2.58 0.0
-36.403 10.088 -2.582 0.0
-36.457 9.98 -2.584 0.0
-36.511 9.872 -2.586 0.0
-36.585 9.768 -2.589 0.0
-36.66 9.665 -2.593 0.0
-36.73 9.56 -2.596 0.0
-36.816 9.459 -2.6 0.0
-36.877 9.413 -2.603 0.0
-36.93 9.303 -2.605 0.0
-36.971 9.19 -2.606 0.0
-36.957 9.063 -2.603 0.0
-36.938 8.936 -2.599 0.0
-36.916 8.808 -2.596 0.0
-37.013 8.708 -2.601 0.09
-37.266 8.706 -2.619 0.12
-37.48 8.632 -2.633 0.17
-37.833 8.588 -2.658 0.0
-38.033 8.507 -2.671 0.0
-38.044 8.384 -2.67 0.0
-37.495 8.14 -2.626 0.0
-37.302 7.976 -2.61 0.0
-37.155 7.884 -2.598 0.0
-37.029 7.736 -2.586 0.0
-36.932 7.594 -2.577 0.0
-36.854 7.458 -2.57 0.0
-36.766 7.32 -2.561 0.0
-36.712 7.189 -2.556 0.0
-36.648 7.058 -2.549 0.0
-36.598 6.929 -2.544 0.0
-36.542 6.859 -2.539 0.0
-36.483 6.729 -2.533 0.0
-36.435 6.602 -2.527 0.0
-36.391 6.476 -2.523 0.0
-36.403 6.36 -2.522 0.0
-36.388 6.24 -2.519 0.0
-36.362 6.118 -2.516 0.0
-36.308 6.05 -2.511 0.0
-36.237 5.922 -2.505 0.0
-36.151 5.791 -2.497 0.0
-36.066 5.661 -2.489 0.0
-36.009 5.537 -2.484 0.0
-35.977 5.416 -2.48 0.0
-35.911 5.291 -2.474 0.0
-35.834 5.222 -2.467 0.0
-35.825 5.106 -2.465 0.0
-35.754 4.981 -2.459 0.0
-35.694 4.859 -2.453 0.0
-35.642 4.738 -2.448 0.0
-35.558 4.613 -2.441 0.0
-35.485 4.49 -2.435 0.0
-35.41 4.368 -2.428 0.0
-35.335 4.302 -2.422 0.0
-35.281 4.183 -2.417 0.0
-35.217 4.064 -2.411 0.0
-35.137 3.943 -2.404 0.0
-35.121 3.829 -2.402 0.0
-35.085 3.714 -2.399 0.0
-35.049 3.599 -2.395 0.0
-35.001 3.538 -2.391 0.0
-34.907 3.418 -2.383 0.0
-34.802 3.298 -2.375 0.0
-34.707 3.179 -2.367 0.0
-34.51 3.052 -2.352 0.05
-34.456 2.938 -2.347 0.16
-34.449 2.828 -2.346 0.0
-34.428 2.718 -2.344 0.0
-34.317 2.655 -2.335 0.0
-34.341 2.548 -2.336 0.0
-34.381 2.442 -2.339 0.0
-34.432 2.337 -2.342 0.0
-34.457 2.23 -2.343 0.0
-34.502 2.124 -2.346 0.0
-34.54 2.018 -2.348 0.0
-34.561 1.965 -2.35 0.0
-34.577 1.856 -2.35 0.0
-34.595 1.748 -2.351 0.0
-34.59 1.639 -2.351 0.0
-34.595 1.531 -2.351 0.0
-34.606 1.422 -2.351 0.0
-34.612 1.314 -2.351 0.0
-34.626 1.26 -2.352 0.0
-34.632 1.151 -2.352 0.0
-34.653 1.043 -2.354 0.0
-34.672 0.934 -2.355 0.0
-34.679 0.825 -2.355 0.0
-34.715 0.717 -2.358 0.0
-34.745 0.608 -2.36 0.0
-34.762 0.554 -2.361 0.0
-34.768 0.445 -2.361 0.0
-34.803 0.336 -2.364 0.0
-34.81 0.227 -2.364 0.0
-34.82 0.117 -2.365 0.0
-34.821 0.008 -2.365 0.0
-34.832 -0.101 -2.366 0.0
-34.828 -0.211 -2.365 0.0
-34.822 -0.266 -2.365 0.0
-35.011 -0.432 -2.379 0.0
-35.034 -0.543 -2.381 0.0
-35.053 -0.598 -2.382 0.0
-35.073 -0.708 -2.384 0.0
-35.098 -0.819 -2.386 0.0
-35.091 -0.929 -2.386 0.0
-35.025 -1.038 -2.381 0.0
-34.983 -1.147 -2.378 0.0
-34.985 -1.257 -2.379 0.0
-35.013 -1.313 -2.381 0.0
-35.027 -1.423 -2.382 0.0
-35.036 -1.534 -2.383 0.0
-35.041 -1.645 -2.384 0.0
-35.052 -1.756 -2.385 0.0
-35.056 -1.866 -2.386 0.0
-35.048 -1.976 -2.386 0.0
-35.072 -2.088 -2.388 0.0
-35.114 -2.146 -2.391 0.0
-35.149 -2.259 -2.394 0.0
-35.156 -2.37 -2.395 0.0
-35.154 -2.481 -2.396 0.0
-35.166 -2.593 -2.397 0.0
-35.144 -2.703 -2.396 0.0
-35.165 -2.815 -2.398 0.0
-35.196 -2.874 -2.401 0.0
-35.342 -2.997 -2.413 0.0
-35.436 -3.118 -2.42 0.05
-31.793 -2.895 -2.151 0.19
-31.694 -2.986 -2.145 0.19
-31.665 -3.084 -2.143 0.37
-31.641 -3.182 -2.142 0.11
-31.793 -3.248 -2.154 0.0
-33.385 -3.518 -2.273 0.0
-33.523 -3.639 -2.284 0.0
-33.86 -3.784 -2.309 0.0
-34.097 -3.919 -2.328 0.0
-34.002 -4.016 -2.322 0.0
-33.53 -4.067 -2.288 0.0
-34.42 -4.45 -2.356 0.0
-34.481 -4.568 -2.362 0.0
-34.536 -4.686 -2.367 0.0
-34.561 -4.8 -2.37 0.0
-34.431 -4.892 -2.361 0.0
-34.449 -5.005 -2.364 0.0
-34.646 -5.09 -2.379 0.0
-34.527 -5.183 -2.372 0.0
-34.462 -5.284 -2.368 0.0
-34.372 -5.381 -2.363 0.0
-34.31 -5.481 -2.359 0.0
-34.214 -5.576 -2.353 0.0
-33.562 -5.578 -2.306 0.0
-33.235 -5.577 -2.282 0.0
-31.877 -5.451 -2.182 0.0
-33.655 -5.865 -2.316 0.0
-33.691 -5.981 -2.32 0.0
-33.441 -6.045 -2.303 0.0
-33.135 -6.097 -2.282 0.0
-32.728 -6.128 -2.252 0.0
-32.364 -6.112 -2.226 0.0
-32.103 -6.167 -2.208 0.0
-31.888 -6.23 -2.193 0.0
-31.606 -6.277 -2.173 0.0
-31.729 -6.406 -2.184 0.0
-31.896 -6.544 -2.198 0.0
-32.387 -6.751 -2.237 0.0
-32.499 -6.828 -2.246 0.0
-32.38 -6.909 -2.239 0.0
-31.957 -6.923 -2.208 0.0
-31.881 -7.012 -2.204 0.0
-31.327 -6.993 -2.164 0.0
-30.577 -6.926 -2.109 0.0
-29.86 -6.861 -2.056 0.0
-32.644 -7.612 -2.269 0.07
-32.572 -7.649 -2.264 0.09
-32.744 -7.798 -2.279 0.13
-32.667 -7.888 -2.275 0.09
-32.534 -7.964 -2.267 0.0
-32.605 -8.09 -2.274 0.0
-32.525 -8.179 -2.27 0.0
-32.513 -8.285 -2.271 0.0
-32.479 -8.33 -2.27 0.0
-32.391 -8.416 -2.265 0.0
-32.034 -8.431 -2.24 0.0
-31.813 -8.479 -2.225 0.0
-31.409 -8.477 -2.196 0.0
-31.08 -8.493 -2.173 0.0
-30.565 -8.455 -2.136 0.0
-29.958 -8.388 -2.091 0.0
-29.527 -8.317 -2.059 0.04
-31.773 -9.06 -2.233 0.19
-31.603 -9.118 -2.223 0.11
-31.409 -9.169 -2.21 0.14
-31.244 -9.228 -2.199 0.0
-30.942 -9.244 -2.178 0.0
-30.47 -9.207 -2.144 0.07
-30.028 -9.125 -2.111 0.09
-29.601 -9.096 -2.081 0.13
-29.18 -9.067 -2.05 0.1
-28.817 -9.053 -2.025 0.14
-28.613 -9.088 -2.011 0.21
-28.516 -9.155 -2.006 0.19
-28.931 -9.389 -2.04 0.33
-28.884 -9.424 -2.038 0.23
-28.839 -9.51 -2.036 0.28
-28.531 -9.508 -2.015 0.23
-28.344 -9.544 -2.003 0.3
-28.172 -9.585 -1.992 0.29
-27.967 -9.613 -1.978 0.28
-27.729 -9.629 -1.962 0.3
-27.503 -9.598 -1.945 0.29
-27.345 -9.64 -1.935 0.26
-27.136 -9.662 -1.921 0.31
-26.911 -9.677 -1.906 0.28
-26.766 -9.719 -1.897 0.33
-26.615 -9.759 -1.888 0.34
-26.523 -9.82 -1.883 0.27
-26.249 -9.812 -1.864 0.23
-26.136 -9.817 -1.856 0.29
-25.94 -9.836 -1.843 0.33
-25.849 -9.894 -1.838 0.28
-25.786 -9.963 -1.836 0.32
-25.645 -10.001 -1.827 0.32
-25.491 -10.034 -1.817 0.24
-25.545 -10.148 -1.824 0.32
-25.349 -10.116 -1.81 0.28
-25.293 -10.186 -1.808 0.34
-25.246 -10.259 -1.807 0.31
-25.16 -10.316 -1.803 0.28
-25.008 -10.346 -1.793 0.25
-24.801 -10.351 -1.779 0.36
-24.759 -10.425 -1.778 0.31
-24.53 -10.419 -1.763 0.31
-24.748 -10.558 -1.781 0.25
-24.68 -10.621 -1.779 0.3
-24.575 -10.667 -1.773 0.29
-24.32 -10.647 -1.755 0.27
-23.934 -10.658 -1.729 0.58
-24.023 -10.788 -1.739 0.25
-22.975 -10.359 -1.656 0.17
-22.594 -10.273 -1.628 0.25
-22.46 -10.297 -1.619 0.3
-22.426 -10.367 -1.619 0.46
-22.411 -10.446 -1.621 0.28
-22.371 -10.512 -1.62 0.37
-22.349 -10.588 -1.621 0.35
-22.359 -10.636 -1.623 0.32
-22.442 -10.762 -1.633 0.43
-22.719 -10.983 -1.658 0.29
-22.858 -11.139 -1.672 0.3
-22.868 -11.233 -1.676 0.32
-22.797 -11.287 -1.673 0.29
-22.824 -11.39 -1.678 0.32
-22.893 -11.47 -1.686 0.27
-22.981 -11.605 -1.696 0.22
-22.692 -11.638 -1.678 0.58
-22.855 -11.812 -1.694 0.25
-22.848 -11.9 -1.697 0.18
-22.569 -11.844 -1.677 0.39
-22.593 -11.948 -1.682 0.23
-22.579 -11.986 -1.682 0.31
-22.361 -11.96 -1.667 0.0
-22.302 -12.019 -1.666 0.0
-23.991 -13.029 -1.81 0.11
-17.29 -9.523 -1.253 0.33
-17.186 -9.535 -1.247 0.29
-16.972 -9.452 -1.23 0.39
-16.923 -9.494 -1.228 0.38
-16.891 -9.546 -1.228 0.31
-16.829 -9.58 -1.225 0.57
-23.275 -13.359 -1.776 0.25
-23.191 -13.408 -1.773 0.11
-23.111 -13.459 -1.769 0.14
-23.057 -13.524 -1.768 0.28
-22.987 -13.532 -1.764 0.23
-22.883 -13.567 -1.759 0.25
-22.77 -13.597 -1.753 0.27
-22.683 -13.642 -1.749 0.36
-22.533 -13.648 -1.74 0.28
-22.353 -13.635 -1.728 0.39
-22.31 -13.657 -1.726 0.33
-22.192 -13.681 -1.72 0.37
-22.049 -13.688 -1.711 0.34
-21.932 -13.711 -1.705 0.34
-21.806 -13.728 -1.697 0.32
-21.71 -13.763 -1.693 0.36
-21.607 -13.792 -1.688 0.33
-21.441 -13.781 -1.677 0.38
-21.297 -13.736 -1.666 0.32
-21.16 -13.742 -1.658 0.34
-21.093 -13.793 -1.656 0.36
-20.942 -13.788 -1.646 0.34
-20.759 -13.761 -1.634 0.34
-20.609 -13.755 -1.624 0.34
-20.44 -13.735 -1.613 0.44
-20.338 -13.712 -1.606 0.3
-20.285 -13.769 -1.605 0.35
-20.172 -13.786 -1.599 0.31
-20.127 -13.848 -1.599 0.39
-20.051 -13.888 -1.596 0.19
-19.884 -13.865 -1.585 0.5
-19.945 -14.001 -1.594 0.22
-19.596 -13.801 -1.565 0.21
-19.417 -13.767 -1.553 0.28
-19.356 -13.815 -1.551 0.41
-19.346 -13.9 -1.554 0.37
-20.167 -14.587 -1.633 0.25
-18.743 -13.645 -1.507 0.18
-18.822 -13.794 -1.518 0.18
-18.671 -13.774 -1.508 0.2
-18.555 -13.733 -1.5 0.18
-18.611 -13.865 -1.509 0.16
-19.786 -14.839 -1.621 0.12
-19.728 -14.893 -1.62 0.17
-19.678 -14.952 -1.62 0.12
-18.025 -13.784 -1.471 0.43
-19.544 -15.045 -1.616 0.19
-19.489 -15.051 -1.613 0.33
-19.389 -15.072 -1.608 0.19
-19.307 -15.106 -1.605 0.35
-19.218 -15.133 -1.601 0.18
-19.145 -15.173 -1.599 0.35
-19.072 -15.214 -1.596 0.2
-19.012 -15.263 -1.595 0.24
-18.954 -15.266 -1.592 0.2
-18.887 -15.31 -1.59 0.18
-18.833 -15.364 -1.59 0.39
-18.748 -15.393 -1.586 0.19
-18.685 -15.44 -1.585 0.36
-18.612 -15.479 -1.582 0.18
-18.54 -15.518 -1.58 0.36
-18.483 -15.519 -1.577 0.2
-18.39 -15.539 -1.573 0.24
-18.284 -15.549 -1.567 0.21
-18.205 -15.58 -1.564 0.18
-18.14 -15.623 -1.563 0.39
-18.051 -15.646 -1.559 0.25
-17.979 -15.683 -1.557 0.27
-17.909 -15.721 -1.555 0.27
-17.838 -15.708 -1.55 0.26
-17.747 -15.727 -1.546 0.26
-17.675 -15.763 -1.544 0.33
-17.581 -15.778 -1.539 0.32
-17.506 -15.811 -1.537 0.28
-17.433 -15.844 -1.535 0.34
-17.352 -15.87 -1.531 0.31
-17.307 -15.879 -1.529 0.37
-17.214 -15.894 -1.525 0.3
-17.122 -15.908 -1.521 0.36
-17.048 -15.94 -1.518 0.27
-16.987 -15.983 -1.517 0.44
-14.406 -13.635 -1.26 0.25
-16.915 -16.117 -1.52 0.19
-16.861 -16.116 -1.517 0.45
-16.757 -16.117 -1.512 0.29
-16.696 -16.16 -1.511 0.36
-16.612 -16.181 -1.507 0.32
-16.485 -16.157 -1.5 0.4
-16.42 -16.195 -1.498 0.38
-16.325 -16.203 -1.494 0.35
-16.226 -16.206 -1.489 0.34
-16.157 -16.188 -1.484 0.32
-16.044 -16.176 -1.477 0.33
-15.944 -16.176 -1.472 0.32
-15.854 -16.187 -1.468 0.36
-15.769 -16.2 -1.465 0.38
-15.662 -16.193 -1.459 0.32
-15.566 -16.194 -1.454 0.33
-15.494 -16.17 -1.449 0.34
-15.395 -16.168 -1.444 0.33
-15.309 -16.18 -1.44 0.36
-15.215 -16.181 -1.435 0.32
-15.126 -16.188 -1.431 0.32
-15.034 -16.191 -1.427 0.34
-14.935 -16.186 -1.421 0.35
-14.865 -16.161 -1.417 0.28
-14.776 -16.166 -1.413 0.36
-14.68 -16.162 -1.408 0.33
-14.586 -16.161 -1.403 0.32
-14.512 -16.18 -1.4 0.37
-14.409 -16.167 -1.394 0.32
-14.328 -16.178 -1.391 0.32
-14.263 -16.155 -1.387 0.3
-14.175 -16.158 -1.383 0.34
-14.093 -16.167 -1.379 0.4
-13.998 -16.159 -1.374 0.31
-13.911 -16.161 -1.37 0.29
-13.836 -16.177 -1.367 0.44
-13.744 -16.172 -1.363 0.3
-13.66 -16.175 -1.359 0.31
-13.592 -16.146 -1.354 0.28
-13.515 -16.157 -1.351 0.32
-13.424 -16.152 -1.346 0.32
-13.337 -16.149 -1.342 0.3
-13.262 -16.162 -1.339 0.3
-13.181 -16.166 -1.336 0.45
-13.097 -16.167 -1.332 0.33
-13.042 -16.15 -1.328 0.38
-12.956 -16.148 -1.324 0.32
-12.881 -16.157 -1.321 0.35
-12.796 -16.155 -1.317 0.36
-12.714 -16.154 -1.313 0.32
-12.638 -16.163 -1.31 0.4
-12.557 -16.163 -1.307 0.29
-12.494 -16.134 -1.302 0.32
-12.42 -16.143 -1.299 0.32
-12.342 -16.147 -1.296 0.35
-12.256 -16.138 -1.292 0.32
-12.18 -16.143 -1.289 0.33
-12.107 -16.152 -1.286 0.32
-12.024 -16.147 -1.282 0.38
-11.974 -16.132 -1.279 0.34
-11.893 -16.128 -1.275 0.32
-11.82 -16.135 -1.272 0.39
-11.74 -16.131 -1.269 0.4
-11.664 -16.134 -1.266 0.35
-11.591 -16.14 -1.263 0.34
-11.522 -16.15 -1.26 0.33
-11.471 -16.133 -1.257 0.39
-11.399 -16.138 -1.254 0.36
-11.322 -16.136 -1.251 0.32
-11.257 -16.152 -1.249 0.27
-11.22 -16.207 -1.251 0.35
-11.14 -16.199 -1.247 0.48
-11.052 -16.179 -1.242 0.36
-11.01 -16.172 -1.24 0.33
-10.958 -16.205 -1.24 0.29
-10.875 -16.191 -1.236 0.55
-10.778 -16.157 -1.23 0.35
-10.712 -16.168 -1.228 0.35
-10.646 -16.178 -1.226 0.46
-10.569 -16.171 -1.222 0.39
-10.492 -16.164 -1.219 0.33
-10.447 -16.15 -1.216 0.34
-10.378 -16.155 -1.213 0.34
-10.304 -16.15 -1.21 0.34
-10.234 -16.152 -1.208 0.34
-10.166 -16.157 -1.205 0.4
-10.091 -16.15 -1.202 0.39
-10.03 -16.165 -1.2 0.34
-9.992 -16.16 -1.199 0.41
-9.913 -16.145 -1.195 0.36
-9.846 -16.149 -1.192 0.36
-9.779 -16.154 -1.19 0.39
-9.712 -16.158 -1.188 0.31
-9.644 -16.159 -1.185 0.39
-9.569 -16.148 -1.182 0.43
-9.533 -16.146 -1.18 0.36
-9.461 -16.139 -1.177 0.39
-9.399 -16.148 -1.175 0.4
-9.327 -16.142 -1.172 0.41
-9.26 -16.143 -1.17 0.38
-9.201 -16.156 -1.169 0.4
-9.124 -16.14 -1.165 0.32
-9.088 -16.135 -1.163 0.32
-9.025 -16.141 -1.161 0.41
-8.952 -16.129 -1.158 0.39
-8.893 -16.142 -1.157 0.32
-8.83 -16.148 -1.155 0.41
-8.755 -16.13 -1.151 0.39
-8.692 -16.135 -1.149 0.38
-8.632 -16.145 -1.148 0.39
-8.584 -16.116 -1.144 0.32
-8.532 -16.139 -1.144 0.41
-8.46 -16.127 -1.141 0.4
-8.39 -16.115 -1.137 0.34
-8.336 -16.136 -1.137 0.34
-8.274 -16.139 -1.135 0.45
-8.209 -16.138 -1.133 0.41
-8.175 -16.133 -1.131 0.39
-8.12 -16.15 -1.131 0.36
-8.051 -16.139 -1.128 0.44
-7.995 -16.154 -1.127 0.35
-7.928 -16.145 -1.124 0.43
-7.861 -16.137 -1.121 0.41
-7.801 -16.142 -1.12 0.45
-7.759 -16.12 -1.117 0.36
-7.702 -16.13 -1.116 0.34
-7.643 -16.138 -1.114 0.42
-7.577 -16.128 -1.112 0.33
-7.516 -16.13 -1.11 0.27
-7.455 -16.131 -1.108 0.45
-7.395 -16.135 -1.106 0.43
-7.358 -16.119 -1.104 0.34
-7.293 -16.111 -1.102 0.37
-7.236 -16.12 -1.101 0.4
-7.174 -16.117 -1.098 0.31
-7.121 -16.134 -1.098 0.37
-7.055 -16.121 -1.095 0.45
-6.992 -16.116 -1.093 0.38
-6.934 -16.119 -1.092 0.36
-6.902 -16.116 -1.09 0.3
-6.844 -16.119 -1.089 0.43
-6.782 -16.113 -1.087 0.34
-6.723 -16.114 -1.085 0.31
-6.664 -16.116 -1.084 0.39
-6.602 -16.109 -1.081 0.34
-6.548 -16.121 -1.081 0.29
-6.517 -16.118 -1.08 0.42
-6.453 -16.103 -1.077 0.38
-6.395 -16.105 -1.075 0.37
-6.337 -16.106 -1.074 0.37
-6.283 -16.117 -1.073 0.36
-6.222 -16.11 -1.071 0.36
-6.168 -16.121 -1.07 0.43
-6.137 -16.117 -1.069 0.34
-6.079 -16.116 -1.068 0.36
-6.02 -16.112 -1.066 0.47
-5.959 -16.103 -1.064 0.29
-5.898 -16.094 -1.062 0.32
-5.845 -16.105 -1.061 0.3
-5.795 -16.125 -1.061 0.23
-5.763 -16.115 -1.06 0.56
-5.702 -16.103 -1.057 0.32
-5.643 -16.098 -1.056 0.39
-5.59 -16.108 -1.055 0.35
-5.534 -16.111 -1.054 0.33
-5.475 -16.102 -1.052 0.35
-5.421 -16.111 -1.051 0.37
-5.39 -16.101 -1.05 0.31
-5.339 -16.118 -1.05 0.38
-5.279 -16.106 -1.047 0.38
-5.222 -16.103 -1.046 0.38
-5.169 -16.112 -1.045 0.39
-5.111 -16.104 -1.043 0.41
-5.056 -16.104 -1.042 0.4
-5.004 -16.118 -1.042 0.4
-4.974 -16.109 -1.041 0.36
-4.918 -16.107 -1.04 0.41
-4.864 -16.113 -1.039 0.38
-4.809 -16.113 -1.038 0.32
-4.757 -16.122 -1.037 0.43
-4.699 -16.11 -1.035 0.38
-4.644 -16.112 -1.034 0.4
-4.614 -16.102 -1.033 0.39
-4.561 -16.108 -1.032 0.39
-4.507 -16.109 -1.031 0.35
-4.45 -16.102 -1.03 0.44
-4.396 -16.104 -1.029 0.38
-4.344 -16.11 -1.028 0.34
-4.291 -16.114 -1.027 0.41
-4.261 -16.104 -1.026 0.4
-4.207 -16.105 -1.025 0.36
-4.152 -16.101 -1.024 0.43
-4.097 -16.097 -1.022 0.37
-4.044 -16.1 -1.022 0.38
-3.99 -16.099 -1.021 0.39
-3.936 -16.098 -1.02 0.39
-3.909 -16.096 -1.019 0.34
-3.855 -16.095 -1.018 0.42
-3.804 -16.103 -1.018 0.34
-3.75 -16.101 -1.017 0.41
-3.695 -16.094 -1.015 0.4
-3.643 -16.099 -1.015 0.38
-3.589 -16.097 -1.014 0.37
-3.536 -16.096 -1.013 0.39
-3.509 -16.092 -1.012 0.39
-3.456 -16.093 -1.011 0.35
-3.402 -16.085 -1.01 0.39
-3.349 -16.086 -1.009 0.41
-3.299 -16.1 -1.01 0.4
-3.247 -16.1 -1.009 0.4
-3.196 -16.109 -1.009 0.35
-3.168 -16.102 -1.008 0.39
-3.116 -16.106 -1.007 0.39
-3.062 -16.094 -1.006 0.44
-3.012 -16.107 -1.006 0.35
-2.959 -16.107 -1.005 0.45
-2.906 -16.102 -1.004 0.37
-2.853 -16.098 -1.003 0.41
-2.817 -16.037 -0.998 0.46
-2.759 -16.005 -0.995 0.3
-2.705 -15.988 -0.993 0.48
-2.653 -15.988 -0.993 0.35
-2.603 -15.995 -0.993 0.48
-2.551 -15.997 -0.992 0.35
-2.498 -15.985 -0.991 0.43
-2.476 -16.009 -0.992 0.31
-2.42 -15.977 -0.989 0.58
-2.367 -15.969 -0.988 0.35
-2.317 -15.978 -0.988 0.35
-2.266 -15.973 -0.987 0.32
-2.212 -15.957 -0.986 0.32
-2.173 -16.043 -0.991 0.38
-2.151 -16.076 -0.994 0.35
-2.099 -16.069 -0.993 0.44
-2.049 -16.081 -0.993 0.3
-1.998 -16.085 -0.993 0.51
-1.947 -16.082 -0.992 0.34
-1.895 -16.076 -0.991 0.5
-1.843 -16.072 -0.991 0.3
-1.818 -16.071 -0.99 0.32
-1.767 -16.072 -0.99 0.37
-1.716 -16.076 -0.99 0.36
-1.664 -16.067 -0.989 0.43
-1.614 -16.082 -0.99 0.32
-1.563 -16.081 -0.989 0.35
-1.512 -16.076 -0.988 0.5
-1.487 -16.081 -0.989 0.34
-1.436 -16.083 -0.988 0.36
-1.385 -16.082 -0.988 0.52
-1.334 -16.078 -0.987 0.35
-1.282 -16.07 -0.986 0.39
-1.231 -16.062 -0.986 0.38
-1.181 -16.07 -0.986 0.35
-1.131 -16.078 -0.986 0.38
-1.105 -16.069 -0.985 0.42
-1.054 -16.067 -0.985 0.36
-1.003 -16.064 -0.985 0.35
-0.952 -16.065 -0.984 0.37
-0.901 -16.052 -0.983 0.36
-0.851 -16.063 -0.984 0.39
-0.801 -16.069 -0.984 0.3
-0.776 -16.085 -0.985 0.41
-0.725 -16.067 -0.984 0.4
-0.675 -16.079 -0.984 0.41
-0.624 -16.069 -0.984 0.41
-0.573 -16.069 -0.983 0.41
-0.523 -16.069 -0.983 0.42
-0.473 -16.098 -0.985 0.28
-0.447 -16.079 -0.984 0.54
-0.396 -16.073 -0.983 0.39
-0.346 -16.068 -0.983 0.38
-0.295 -16.075 -0.983 0.38
-0.245 -16.07 -0.983 0.41
-0.194 -16.072 -0.983 0.39
-0.144 -16.067 -0.982 0.42
-0.119 -16.075 -0.983 0.38
-0.068 -16.067 -0.982 0.38
-0.018 -16.069 -0.983 0.38
0.033 -16.063 -0.982 0.41
0.083 -16.071 -0.983 0.4
0.134 -16.071 -0.983 0.34
0.184 -16.064 -0.982 0.44
0.235 -16.062 -0.982 0.41
0.26 -16.067 -0.983 0.41
0.311 -16.072 -0.983 0.39
0.361 -16.063 -0.982 0.39
0.411 -16.066 -0.983 0.4
0.462 -16.083 -0.984 0.33
0.512 -16.065 -0.983 0.5
0.563 -16.06 -0.983 0.36
0.588 -16.067 -0.983 0.36
0.638 -16.049 -0.982 0.37
0.689 -16.049 -0.982 0.38
0.739 -16.044 -0.982 0.36
0.79 -16.058 -0.983 0.33
0.841 -16.055 -0.983 0.4
0.891 -16.047 -0.983 0.38
0.917 -16.065 -0.984 0.29
0.967 -16.06 -0.984 0.48
1.017 -16.047 -0.983 0.39
1.068 -16.05 -0.984 0.35
1.118 -16.042 -0.984 0.41
1.169 -16.041 -0.984 0.4
1.22 -16.053 -0.985 0.3
1.245 -16.049 -0.985 0.5
1.296 -16.045 -0.985 0.36
1.346 -16.039 -0.985 0.34
1.399 -16.064 -0.987 0.22
1.448 -16.048 -0.986 0.5
1.498 -16.036 -0.985 0.35
1.549 -16.041 -0.986 0.3
1.577 -16.058 -0.987 0.27
1.627 -16.053 -0.987 0.45
1.678 -16.052 -0.988 0.36
1.727 -16.035 -0.987 0.48
1.781 -16.063 -0.989 0.22
1.83 -16.041 -0.988 0.49
1.881 -16.043 -0.989 0.41
1.908 -16.056 -0.99 0.28
1.959 -16.056 -0.99 0.38
2.011 -16.062 -0.991 0.43
2.061 -16.047 -0.991 0.45
2.111 -16.037 -0.99 0.4
2.163 -16.042 -0.991 0.36
2.215 -16.051 -0.992 0.22
2.24 -16.047 -0.992 0.52
2.291 -16.042 -0.993 0.34
2.342 -16.041 -0.993 0.38
2.392 -16.03 -0.993 0.45
2.446 -16.042 -0.994 0.24
2.497 -16.044 -0.995 0.42
2.549 -16.044 -0.996 0.41
2.603 -16.055 -0.997 0.37
2.625 -16.035 -0.996 0.46
2.678 -16.041 -0.997 0.4
2.728 -16.032 -0.997 0.36
2.781 -16.039 -0.998 0.39
2.837 -16.062 -1.0 0.34
2.885 -16.035 -0.999 0.45
2.937 -16.038 -1.0 0.38
2.966 -16.051 -1.001 0.38
3.018 -16.049 -1.002 0.38
3.07 -16.052 -1.003 0.45
3.125 -16.062 -1.004 0.3
3.175 -16.052 -1.004 0.42
3.227 -16.047 -1.005 0.45
3.28 -16.053 -1.006 0.45
3.307 -16.057 -1.007 0.31
3.36 -16.059 -1.007 0.44
3.415 -16.068 -1.009 0.34
3.465 -16.053 -1.009 0.46
3.515 -16.04 -1.008 0.41
3.568 -16.041 -1.009 0.41
3.617 -16.025 -1.009 0.38
3.645 -16.033 -1.01 0.37
3.699 -16.035 -1.011 0.41
3.748 -16.02 -1.011 0.35
3.803 -16.027 -1.012 0.35
3.859 -16.039 -1.014 0.42
3.907 -16.017 -1.013 0.38
3.956 -15.998 -1.013 0.41
3.986 -16.012 -1.014 0.38
4.037 -16.003 -1.015 0.36
4.09 -15.998 -1.015 0.37
4.14 -15.985 -1.015 0.34
4.186 -15.958 -1.014 0.45
4.247 -15.984 -1.017 0.35
4.296 -15.966 -1.017 0.45
4.351 -15.97 -1.018 0.38
4.379 -15.975 -1.019 0.38
4.43 -15.963 -1.019 0.43
4.481 -15.953 -1.02 0.39
4.539 -15.965 -1.022 0.35
4.593 -15.966 -1.023 0.38
4.645 -15.958 -1.023 0.37
4.698 -15.952 -1.024 0.38
4.725 -15.951 -1.024 0.43
4.782 -15.959 -1.026 0.4
4.834 -15.951 -1.027 0.36
4.891 -15.959 -1.028 0.39
4.943 -15.947 -1.029 0.4
5.002 -15.962 -1.031 0.38
5.06 -15.969 -1.033 0.41
5.085 -15.961 -1.033 0.36
5.136 -15.949 -1.033 0.49
5.191 -15.946 -1.034 0.27
3.428 -10.449 -0.609 0.34
3.447 -10.395 -0.605 0.38
3.475 -10.371 -0.604 0.4
3.507 -10.358 -0.604 0.35
3.517 -10.335 -0.603 0.5
3.551 -10.328 -0.603 0.37
3.587 -10.328 -0.604 0.39
3.622 -10.324 -0.605 0.43
3.663 -10.335 -0.606 0.42
3.728 -10.416 -0.614 0.41
5.775 -15.935 -1.047 0.44
5.808 -15.948 -1.049 0.34
5.861 -15.935 -1.05 0.41
5.92 -15.943 -1.052 0.39
3.879 -10.373 -0.614 0.36
3.895 -10.316 -0.611 0.3
3.911 -10.261 -0.608 0.48
3.94 -10.24 -0.607 0.35
3.948 -10.213 -0.605 0.45
3.978 -10.197 -0.605 0.37
4.011 -10.186 -0.605 0.45
4.039 -10.164 -0.604 0.38
4.082 -10.177 -0.606 0.4
4.125 -10.192 -0.609 0.33
4.181 -10.238 -0.613 0.55
6.551 -15.932 -1.068 0.19
6.616 -15.946 -1.071 0.35
6.668 -15.929 -1.071 0.41
6.727 -15.93 -1.073 0.41
6.785 -15.927 -1.074 0.38
6.847 -15.935 -1.077 0.32
6.905 -15.932 -1.078 0.45
6.961 -15.923 -1.079 0.4
6.993 -15.928 -1.08 0.37
7.051 -15.923 -1.082 0.44
7.11 -15.92 -1.083 0.39
7.166 -15.912 -1.085 0.39
7.226 -15.912 -1.086 0.38
7.287 -15.912 -1.088 0.39
7.345 -15.908 -1.09 0.4
7.381 -15.92 -1.092 0.39
7.44 -15.914 -1.093 0.4
7.501 -15.916 -1.095 0.38
7.558 -15.907 -1.096 0.39
7.619 -15.906 -1.098 0.42
7.689 -15.924 -1.102 0.25
7.735 -15.89 -1.101 0.59
7.772 -15.903 -1.103 0.27
7.833 -15.9 -1.105 0.49
7.891 -15.892 -1.106 0.42
7.944 -15.874 -1.107 0.38
7.994 -15.849 -1.107 0.35
8.054 -15.843 -1.108 0.45
8.091 -15.793 -1.106 0.41
8.103 -15.756 -1.104 0.39
8.163 -15.751 -1.106 0.42
8.227 -15.754 -1.108 0.34
8.28 -15.733 -1.109 0.41
8.323 -15.697 -1.108 0.34
8.383 -15.69 -1.109 0.41
8.427 -15.653 -1.108 0.39
8.458 -15.652 -1.109 0.39
8.518 -15.644 -1.111 0.35
8.563 -15.61 -1.111 0.36
8.615 -15.589 -1.111 0.34
8.674 -15.581 -1.113 0.38
8.726 -15.559 -1.113 0.34
8.778 -15.536 -1.113 0.34
8.834 -15.521 -1.114 0.26
8.846 -15.486 -1.113 0.39
8.904 -15.474 -1.114 0.48
8.956 -15.453 -1.115 0.34
8.992 -15.402 -1.113 0.32
9.04 -15.374 -1.113 0.32
9.092 -15.352 -1.113 0.31
9.129 -15.305 -1.112 0.31
9.153 -15.29 -1.112 0.33
9.216 -15.285 -1.114 0.34
9.268 -15.263 -1.114 0.3
9.314 -15.231 -1.114 0.29
9.365 -15.206 -1.114 0.29
9.406 -15.167 -1.114 0.33
9.426 -15.145 -1.113 0.29
9.478 -15.124 -1.114 0.3
9.517 -15.081 -1.113 0.32
9.569 -15.057 -1.113 0.32
9.621 -15.034 -1.114 0.34
9.662 -14.995 -1.113 0.33
9.71 -14.966 -1.113 0.32
9.761 -14.941 -1.114 0.33
9.782 -14.922 -1.113 0.32
9.822 -14.881 -1.112 0.29
9.872 -14.855 -1.113 0.33
9.914 -14.818 -1.112 0.33
9.961 -14.787 -1.112 0.3
10.003 -14.749 -1.112 0.3
10.05 -14.719 -1.112 0.33
10.081 -14.714 -1.113 0.3
10.125 -14.679 -1.113 0.34
10.161 -14.633 -1.111 0.31
10.203 -14.596 -1.111 0.28
10.238 -14.547 -1.109 0.28
10.271 -14.497 -1.108 0.25
10.322 -14.473 -1.108 0.29
10.333 -14.441 -1.107 0.29
10.333 -14.345 -1.101 0.25
10.413 -14.361 -1.106 0.23
10.332 -14.156 -1.09 0.41
10.337 -14.07 -1.085 0.22
10.546 -14.259 -1.105 0.2
10.599 -14.237 -1.106 0.45
10.528 -14.096 -1.095 0.25
10.664 -14.185 -1.106 0.27
10.717 -14.163 -1.107 0.27
10.756 -14.121 -1.107 0.24
10.325 -13.383 -1.044 0.58
10.792 -13.895 -1.095 0.25
10.587 -13.589 -1.068 0.23
10.672 -13.609 -1.073 0.25
8.276 -10.428 -0.779 0.37
8.293 -10.382 -0.778 0.52
8.318 -10.346 -0.777 0.42
8.356 -10.328 -0.777 0.39
8.375 -10.318 -0.778 0.37
8.41 -10.294 -0.778 0.44
8.446 -10.272 -0.778 0.62
8.533 -10.312 -0.785 0.23
8.665 -10.404 -0.796 0.54
11.275 -13.44 -1.091 0.28
11.327 -13.415 -1.092 0.36
11.366 -13.377 -1.092 0.29
11.403 -13.377 -1.094 0.46
11.464 -13.364 -1.096 0.38
11.553 -13.382 -1.101 0.41
11.589 -13.338 -1.101 0.41
11.65 -13.324 -1.103 0.47
11.721 -13.32 -1.106 0.36
11.81 -13.337 -1.111 0.46
11.878 -13.371 -1.116 0.32
11.924 -13.338 -1.117 0.48
12.006 -13.345 -1.121 0.33
12.06 -13.32 -1.123 0.47
12.143 -13.328 -1.127 0.38
12.238 -13.347 -1.133 0.44
12.297 -13.327 -1.135 0.4
12.334 -13.326 -1.137 0.45
12.403 -13.316 -1.139 0.36
12.459 -13.291 -1.141 0.44
12.543 -13.297 -1.146 0.29
12.58 -13.253 -1.145 0.54
12.641 -13.234 -1.147 0.34
12.706 -13.219 -1.15 0.44
12.781 -13.254 -1.155 0.54
12.834 -13.226 -1.157 0.33
12.866 -13.175 -1.156 0.32
12.915 -13.143 -1.156 0.3
12.965 -13.111 -1.157 0.3
13.012 -13.076 -1.158 0.29
13.074 -13.056 -1.16 0.32
13.103 -13.044 -1.161 0.31
13.148 -13.007 -1.161 0.3
13.186 -12.963 -1.161 0.29
13.237 -12.931 -1.162 0.31
13.279 -12.891 -1.162 0.3
13.321 -12.851 -1.162 0.31
13.373 -12.82 -1.164 0.25
13.429 -12.833 -1.167 0.27
13.459 -12.781 -1.166 0.27
13.505 -12.744 -1.167 0.26
10.45 -9.747 -0.851 0.4
10.468 -9.702 -0.85 0.42
10.497 -9.667 -0.85 0.36
10.527 -9.634 -0.85 0.45
10.533 -9.61 -0.849 0.45
10.549 -9.563 -0.848 0.32
10.57 -9.522 -0.847 0.49
10.637 -9.522 -0.85 0.29
10.632 -9.458 -0.847 0.41
10.649 -9.413 -0.846 0.58
10.678 -9.379 -0.846 0.35
10.621 -9.3 -0.839 0.37
10.591 -9.215 -0.833 0.6
10.68 -9.234 -0.839 0.37
11.038 -9.482 -0.871 0.48
11.047 -9.429 -0.869 0.64
13.666 -11.583 -1.119 0.27
11.074 -9.333 -0.866 0.25
11.05 -9.283 -0.862 0.35
10.975 -9.162 -0.852 0.66
13.733 -11.382 -1.113 0.34
13.856 -11.411 -1.121 0.35
13.931 -11.399 -1.125 0.37
13.96 -11.35 -1.124 0.38
14.018 -11.324 -1.126 0.34
14.038 -11.305 -1.127 0.38
14.068 -11.255 -1.126 0.38
14.076 -11.19 -1.124 0.41
14.168 -11.19 -1.129 0.38
14.193 -11.138 -1.128 0.37
14.224 -11.09 -1.128 0.45
14.252 -11.04 -1.127 0.38
14.235 -10.991 -1.124 0.36
14.339 -11.0 -1.13 0.37
14.345 -10.933 -1.128 0.38
14.354 -10.869 -1.125 0.37
14.381 -10.819 -1.125 0.39
14.43 -10.784 -1.126 0.39
14.484 -10.754 -1.128 0.39
14.517 -10.743 -1.129 0.39
14.538 -10.688 -1.128 0.36
14.526 -10.61 -1.124 0.41
14.619 -10.607 -1.129 0.39
14.693 -10.59 -1.133 0.31
14.728 -10.545 -1.133 0.42
14.741 -10.485 -1.132 0.4
14.789 -10.484 -1.134 0.38
14.882 -10.48 -1.14 0.46
14.98 -10.478 -1.146 0.39
15.056 -10.461 -1.149 0.41
15.14 -10.449 -1.154 0.37
15.176 -10.403 -1.154 0.46
15.055 -10.251 -1.141 0.36
15.175 -10.263 -1.148 0.31
15.156 -10.216 -1.145 0.33
15.2 -10.176 -1.146 0.38
15.263 -10.149 -1.149 0.45
15.288 -10.097 -1.149 0.39
15.34 -10.062 -1.15 0.36
15.343 -9.995 -1.148 0.36
15.35 -9.965 -1.147 0.37
15.407 -9.933 -1.149 0.38
15.434 -9.883 -1.149 0.41
15.496 -9.853 -1.152 0.42
15.554 -9.822 -1.154 0.39
15.5 -9.72 -1.147 0.42
15.507 -9.656 -1.145 0.27
15.691 -9.703 -1.158 0.43
15.725 -9.69 -1.16 0.39
15.788 -9.66 -1.162 0.38
15.782 -9.589 -1.159 0.35
15.792 -9.527 -1.158 0.4
15.863 -9.502 -1.161 0.32
15.922 -9.469 -1.164 0.45
15.933 -9.408 -1.162 0.31
16.032 -9.432 -1.169 0.39
16.128 -9.421 -1.175 0.42
16.132 -9.355 -1.173 0.34
16.182 -9.316 -1.174 0.38
16.189 -9.253 -1.173 0.44
16.265 -9.228 -1.177 0.36
16.264 -9.161 -1.174 0.39
16.231 -9.109 -1.17 0.32
16.305 -9.083 -1.174 0.36
16.416 -9.077 -1.181 0.36
16.507 -9.06 -1.186 0.32
16.616 -9.052 -1.193 0.44
16.753 -9.058 -1.202 0.31
16.907 -9.072 -1.212 0.46
16.963 -9.068 -1.216 0.35
17.039 -9.04 -1.22 0.45
17.068 -8.986 -1.22 0.38
17.06 -8.914 -1.217 0.3
17.111 -8.873 -1.219 0.33
17.16 -8.83 -1.221 0.36
17.206 -8.785 -1.222 0.4
17.259 -8.778 -1.225 0.36
17.329 -8.745 -1.229 0.34
17.428 -8.726 -1.235 0.32
17.43 -8.659 -1.233 0.34
17.479 -8.614 -1.234 0.39
17.479 -8.546 -1.232 0.4
17.534 -8.505 -1.235 0.53
17.6 -8.469 -1.238 0.34
17.669 -8.468 -1.242 0.31
17.795 -8.46 -1.25 0.3
17.955 -8.466 -1.261 0.34
18.114 -8.471 -1.272 0.3
18.274 -8.476 -1.283 0.32
18.435 -8.481 -1.294 0.31
18.607 -8.489 -1.306 0.3
18.756 -8.521 -1.317 0.3
18.867 -8.5 -1.323 0.29
19.043 -8.507 -1.335 0.3
19.067 -8.446 -1.335 0.3
19.193 -8.43 -1.343 0.32
19.309 -8.408 -1.35 0.3
19.34 -8.35 -1.351 0.32
19.493 -8.379 -1.362 0.27
19.651 -8.374 -1.373 0.0
18.201 -7.691 -1.255 0.1
18.327 -7.676 -1.263 0.15
18.509 -7.684 -1.275 0.38
18.718 -7.701 -1.29 0.22
18.923 -7.716 -1.304 0.18
19.111 -7.757 -1.318 0.4
19.283 -7.756 -1.33 0.23
19.472 -7.761 -1.343 0.19
19.508 -7.705 -1.344 0.29
19.606 -7.672 -1.35 0.2
19.896 -7.713 -1.371 0.21
20.012 -7.686 -1.378 0.2
20.104 -7.685 -1.385 0.29
20.162 -7.634 -1.387 0.22
20.184 -7.57 -1.387 0.19
20.237 -7.518 -1.389 0.22
20.263 -7.455 -1.39 0.19
20.365 -7.42 -1.396 0.21
20.5 -7.396 -1.405 0.16
20.587 -7.391 -1.41 0.32
20.597 -7.322 -1.409 0.22
20.573 -7.24 -1.406 0.27
20.577 -7.169 -1.404 0.3
20.686 -7.134 -1.411 0.27
20.642 -7.047 -1.406 0.27
20.7 -6.994 -1.409 0.26
20.83 -7.001 -1.418 0.0
20.884 -6.946 -1.42 0.09
18.872 -6.214 -1.263 0.17
19.072 -6.213 -1.277 0.19
19.374 -6.244 -1.299 0.22
19.62 -6.255 -1.316 0.2
19.857 -6.262 -1.333 0.22
20.08 -6.297 -1.349 0.2
20.267 -6.286 -1.362 0.3
20.304 -6.227 -1.364 0.2
20.451 -6.202 -1.373 0.14
20.58 -6.17 -1.382 0.35
20.622 -6.112 -1.384 0.21
20.653 -6.051 -1.384 0.24
20.83 -6.032 -1.397 0.27
20.769 -5.979 -1.391 0.21
20.684 -5.884 -1.383 0.29
20.689 -5.815 -1.382 0.26
20.555 -5.708 -1.371 0.28
20.563 -5.641 -1.37 0.29
20.568 -5.573 -1.369 0.28
20.602 -5.513 -1.37 0.33
20.69 -5.501 -1.376 0.3
20.784 -5.456 -1.382 0.28
20.95 -5.429 -1.393 0.42
20.996 -5.371 -1.396 0.22
21.264 -5.368 -1.415 0.41
21.271 -5.299 -1.414 0.22
21.395 -5.258 -1.422 0.41
21.354 -5.213 -1.418 0.0
20.043 -4.761 -1.317 0.11
20.466 -4.793 -1.348 0.21
20.81 -4.804 -1.372 0.16
20.986 -4.775 -1.385 0.13
21.26 -4.767 -1.404 0.14
21.468 -4.778 -1.419 0.32
21.467 -4.707 -1.418 0.22
21.562 -4.657 -1.424 0.23
21.707 -4.617 -1.434 0.16
21.792 -4.563 -1.439 0.34
21.882 -4.511 -1.445 0.22
22.012 -4.465 -1.454 0.3
22.094 -4.409 -1.459 0.19
22.035 -4.362 -1.454 0.42
22.076 -4.298 -1.456 0.21
22.095 -4.229 -1.456 0.29
22.094 -4.157 -1.455 0.22
22.203 -4.106 -1.462 0.33
22.163 -4.026 -1.459 0.33
22.211 -3.963 -1.461 0.28
22.15 -3.916 -1.456 0.29
22.143 -3.843 -1.455 0.25
22.175 -3.777 -1.456 0.2
22.094 -3.692 -1.449 0.0
22.255 -3.647 -1.46 0.07
20.216 -3.25 -1.307 0.16
20.851 -3.284 -1.354 0.22
21.416 -3.338 -1.396 0.19
21.619 -3.3 -1.41 0.17
21.669 -3.238 -1.413 0.39
21.819 -3.19 -1.424 0.19
21.916 -3.134 -1.43 0.3
21.942 -3.067 -1.431 0.33
21.987 -3.003 -1.434 0.29
21.962 -2.964 -1.432 0.23
21.981 -2.897 -1.432 0.33
21.926 -2.82 -1.428 0.29
21.692 -2.72 -1.41 0.21
21.746 -2.658 -1.413 0.3
21.59 -2.57 -1.401 0.29
21.498 -2.491 -1.393 0.22
21.419 -2.448 -1.387 0.49
21.23 -2.359 -1.373 0.23
21.164 -2.284 -1.367 0.17
21.233 -2.224 -1.372 0.39
21.784 -2.212 -1.412 0.16
22.465 -2.209 -1.462 0.3
22.724 -2.162 -1.481 0.21
22.817 -2.135 -1.487 0.18
22.693 -2.052 -1.478 0.4
22.691 -1.98 -1.477 0.22
22.673 -1.906 -1.475 0.25
22.645 -1.832 -1.473 0.21
22.657 -1.762 -1.473 0.23
22.646 -1.689 -1.472 0.2
22.653 -1.654 -1.472 0.21
22.66 -1.583 -1.472 0.18
22.691 -1.513 -1.474 0.12
22.709 -1.443 -1.475 0.16
22.728 -1.372 -1.476 0.12
22.746 -1.302 -1.477 0.16
22.754 -1.231 -1.478 0.12
22.748 -1.194 -1.477 0.16
22.758 -1.123 -1.478 0.12
22.735 -1.051 -1.476 0.16
22.74 -0.979 -1.476 0.29
22.737 -0.908 -1.475 0.2
22.702 -0.835 -1.473 0.18
22.707 -0.764 -1.473 0.21
22.684 -0.727 -1.471 0.2
22.7 -0.656 -1.472 0.21
22.696 -0.585 -1.472 0.2
22.696 -0.513 -1.471 0.22
22.693 -0.442 -1.471 0.2
22.688 -0.371 -1.471 0.21
22.658 -0.299 -1.468 0.19
22.68 -0.228 -1.47 0.22
22.695 -0.192 -1.471 0.17
22.721 -0.121 -1.473 0.13
22.745 -0.05 -1.475 0.17
21.166 0.035 -1.497 0.17
21.186 0.102 -1.499 0.12
21.198 0.169 -1.5 0.16
21.213 0.235 -1.501 0.12
21.208 0.302 -1.501 0.16
21.222 0.335 -1.502 0.11
21.209 0.402 -1.501 0.16
21.197 0.468 -1.5 0.12
21.182 0.534 -1.499 0.17
21.17 0.601 -1.498 0.21
21.154 0.667 -1.497 0.18
21.126 0.732 -1.495 0.18
21.111 0.765 -1.494 0.25
21.098 0.831 -1.493 0.51
21.094 0.897 -1.493 0.18
21.091 0.964 -1.493 0.38
21.082 1.029 -1.492 0.19
21.086 1.096 -1.493 0.36
21.093 1.163 -1.494 0.18
21.097 1.23 -1.494 0.36
21.093 1.263 -1.494 0.18
21.109 1.33 -1.496 0.36
21.09 1.396 -1.495 0.18
21.108 1.463 -1.497 0.37
21.093 1.529 -1.496 0.18
21.102 1.596 -1.497 0.36
21.097 1.662 -1.497 0.2
21.096 1.696 -1.497 0.25
21.071 1.76 -1.495 0.21
21.072 1.827 -1.496 0.18
21.074 1.894 -1.497 0.39
21.046 1.958 -1.495 0.23
21.024 2.023 -1.493 0.19
21.037 2.091 -1.495 0.41
21.026 2.123 -1.494 0.23
21.005 2.188 -1.493 0.18
21.026 2.257 -1.496 0.41
21.009 2.321 -1.495 0.23
21.009 2.388 -1.495 0.2
21.016 2.456 -1.497 0.38
20.99 2.52 -1.495 0.22
20.994 2.554 -1.496 0.18
20.998 2.621 -1.497 0.4
20.991 2.687 -1.497 0.22
20.991 2.754 -1.497 0.17
20.996 2.822 -1.499 0.39
20.981 2.887 -1.498 0.18
20.995 2.956 -1.5 0.37
20.991 2.989 -1.5 0.2
20.997 3.058 -1.501 0.24
20.991 3.124 -1.502 0.21
20.967 3.188 -1.501 0.2
20.959 3.254 -1.501 0.37
20.939 3.318 -1.5 0.19
20.946 3.387 -1.501 0.37
20.912 3.449 -1.499 0.23
20.895 3.48 -1.498 0.18
20.884 3.546 -1.498 0.41
20.863 3.609 -1.498 0.23
20.845 3.674 -1.497 0.18
20.839 3.74 -1.498 0.4
20.822 3.805 -1.497 0.2
20.829 3.874 -1.499 0.26
20.845 3.911 -1.501 0.21
20.854 3.98 -1.502 0.23
20.857 4.049 -1.504 0.19
20.881 4.121 -1.507 0.12
20.886 4.191 -1.508 0.16
20.921 4.266 -1.512 0.27
20.955 4.341 -1.516 0.25
20.981 4.381 -1.519 0.24
20.998 4.454 -1.521 0.1
21.029 4.529 -1.525 0.15
21.038 4.6 -1.527 0.23
21.059 4.674 -1.53 0.24
21.058 4.743 -1.531 0.25
21.076 4.817 -1.533 0.24
21.091 4.855 -1.535 0.11
21.109 4.929 -1.538 0.16
21.126 5.003 -1.541 0.12
21.157 5.081 -1.545 0.16
21.176 5.156 -1.548 0.31
21.206 5.234 -1.551 0.2
21.232 5.311 -1.555 0.17
21.26 5.353 -1.558 0.13
21.292 5.432 -1.562 0.18
21.313 5.509 -1.565 0.3
21.34 5.588 -1.569 0.18
21.38 5.67 -1.574 0.18
21.411 5.75 -1.578 0.17
21.441 5.83 -1.582 0.16
21.466 5.873 -1.584 0.1
21.497 5.954 -1.589 0.09
21.534 6.038 -1.593 0.09
21.559 6.118 -1.597 0.14
21.575 6.195 -1.6 0.1
21.601 6.276 -1.604 0.15
21.616 6.354 -1.607 0.23
21.636 6.434 -1.61 0.24
21.668 6.48 -1.613 0.25
21.695 6.563 -1.617 0.11
21.716 6.644 -1.621 0.16
21.752 6.73 -1.626 0.3
21.765 6.808 -1.629 0.2
21.732 6.873 -1.628 0.25
21.747 6.953 -1.631 0.27
21.817 7.013 -1.638 0.19
21.852 7.1 -1.642 0.21
21.868 7.181 -1.646 0.19
21.921 7.275 -1.652 0.23
21.917 7.35 -1.654 0.19
21.95 7.438 -1.658 0.22
21.957 7.517 -1.661 0.19
21.979 7.563 -1.664 0.23
21.983 7.642 -1.666 0.2
22.019 7.732 -1.671 0.23
22.029 7.813 -1.674 0.19
22.066 7.905 -1.68 0.23
22.099 7.995 -1.684 0.2
22.117 8.08 -1.688 0.23
22.149 8.131 -1.692 0.18
22.172 8.219 -1.696 0.21
22.191 8.305 -1.7 0.19
22.23 8.399 -1.706 0.22
22.252 8.487 -1.71 0.18
22.298 8.585 -1.716 0.21
22.314 8.672 -1.72 0.19
22.361 8.731 -1.725 0.22
22.39 8.823 -1.73 0.19
22.421 8.916 -1.735 0.22
22.421 8.998 -1.737 0.18
22.479 9.103 -1.745 0.21
22.504 9.196 -1.749 0.17
22.53 9.289 -1.754 0.14
22.586 9.354 -1.76 0.18
22.762 9.51 -1.778 0.21
22.78 9.602 -1.782 0.26
22.704 9.654 -1.778 0.3
22.554 9.674 -1.768 0.33
22.361 9.675 -1.754 0.33
22.226 9.7 -1.745 0.33
22.141 9.745 -1.74 0.45
21.983 9.717 -1.727 0.18
22.19 9.892 -1.748 0.19
18.147 8.163 -1.395 0.13
17.978 8.155 -1.383 0.16
17.86 8.17 -1.375 0.34
17.734 8.18 -1.366 0.0
17.625 8.197 -1.358 0.0
17.464 8.156 -1.345 0.0
17.305 8.148 -1.333 0.0
17.162 8.147 -1.323 0.0
17.021 8.146 -1.313 0.0
16.891 8.149 -1.304 0.0
16.76 8.151 -1.294 0.0
16.646 8.161 -1.286 0.0
16.542 8.142 -1.278 0.0
16.424 8.148 -1.27 0.0
16.294 8.148 -1.261 0.0
16.174 8.152 -1.252 0.0
16.054 8.155 -1.244 0.0
15.927 8.153 -1.234 0.0
15.818 8.161 -1.227 0.0
15.71 8.136 -1.218 0.0
15.596 8.139 -1.21 0.0
15.51 8.157 -1.205 0.0
15.385 8.215 -1.198 0.3
15.392 8.281 -1.201 0.29
15.356 8.324 -1.2 0.15
15.351 8.353 -1.201 0.16
15.257 8.363 -1.195 0.0
14.788 8.168 -1.154 0.0
14.707 8.184 -1.149 0.0
14.643 8.208 -1.146 0.04
14.584 8.236 -1.143 0.16
14.626 8.32 -1.149 0.18
14.651 8.365 -1.152 0.0
14.632 8.537 -1.158 0.52
14.606 8.584 -1.158 0.0
14.679 8.689 -1.167 0.0
14.538 8.668 -1.157 0.0
14.321 8.63 -1.14 0.0
14.452 8.833 -1.158 0.12
14.425 8.879 -1.158 0.14
14.454 8.96 -1.163 0.0
14.401 8.989 -1.161 0.0
14.334 9.01 -1.157 0.0
14.319 9.032 -1.157 0.0
12.989 8.253 -1.034 0.0
12.894 8.25 -1.027 0.0
12.809 8.253 -1.021 0.0
12.726 8.256 -1.016 0.0
12.652 8.265 -1.011 0.0
12.576 8.271 -1.006 0.0
12.513 8.258 -1.002 0.0
12.444 8.269 -0.998 0.0
12.363 8.272 -0.992 0.0
12.29 8.279 -0.988 0.0
12.223 8.29 -0.984 0.0
12.159 8.303 -0.98 0.0
12.085 8.308 -0.975 0.0
12.031 8.299 -0.971 0.0
11.952 8.3 -0.966 0.0
11.902 8.321 -0.964 0.0
11.825 8.323 -0.959 0.0
11.773 8.341 -0.956 0.0
11.707 8.35 -0.953 0.0
11.645 8.362 -0.949 0.0
11.592 8.351 -0.945 0.0
11.533 8.364 -0.942 0.0
11.478 8.379 -0.939 0.0
11.41 8.384 -0.935 0.0
11.348 8.394 -0.931 0.0
11.283 8.401 -0.927 0.0
11.223 8.412 -0.924 0.0
11.202 8.423 -0.923 0.0
11.144 8.434 -0.92 0.0
11.079 8.44 -0.916 0.0
11.025 8.455 -0.914 0.0
10.967 8.465 -0.91 0.0
10.915 8.48 -0.908 0.0
10.868 8.498 -0.906 0.0
10.821 8.516 -0.904 0.0
10.806 8.532 -0.903 0.0
10.793 8.577 -0.905 0.0
10.765 8.61 -0.905 0.0
10.738 8.643 -0.905 0.0
10.726 8.69 -0.906 0.0
10.709 8.732 -0.907 0.0
10.711 8.79 -0.91 0.0
10.713 8.819 -0.912 0.0
10.693 8.859 -0.913 0.0
10.702 8.923 -0.917 0.0
10.695 8.975 -0.919 0.0
10.679 9.019 -0.92 0.0
10.682 9.079 -0.924 0.0
10.683 9.137 -0.927 0.0
10.7 9.181 -0.93 0.0
10.709 9.247 -0.934 0.0
10.722 9.317 -0.938 0.0
10.73 9.384 -0.942 0.0
10.756 9.466 -0.948 0.0
10.809 9.572 -0.957 0.0
10.855 9.674 -0.965 0.09
15.304 13.754 -1.45 0.3
15.568 14.08 -1.483 0.44
15.481 14.09 -1.478 0.29
15.204 13.926 -1.453 0.26
15.09 13.909 -1.445 0.36
15.163 14.065 -1.458 0.45
14.897 13.862 -1.432 0.3
14.777 13.837 -1.423 0.32
14.675 13.828 -1.417 0.34
14.691 13.931 -1.423 0.41
14.771 14.095 -1.437 0.31
14.708 14.123 -1.435 0.32
14.576 14.085 -1.425 0.3
14.489 14.046 -1.418 0.51
14.114 13.768 -1.381 0.31
14.117 13.859 -1.386 0.3
14.21 14.037 -1.401 0.0
8.321 8.339 -0.744 0.0
7.726 8.811 -0.739 0.03
7.751 8.895 -0.745 0.11
7.748 8.948 -0.748 0.0
6.944 8.362 -0.671 0.0
6.935 8.378 -0.671 0.0
7.035 8.662 -0.694 0.0
6.984 8.655 -0.691 0.0
7.109 9.306 -0.738 0.0
6.046 8.346 -0.626 0.0
6.92 9.933 -0.77 0.0
9.684 14.505 -1.198 0.0
6.018 9.811 -0.722 0.0
5.973 9.806 -0.72 0.0
5.928 9.802 -0.718 0.0
5.89 9.774 -0.714 0.0
9.27 15.685 -1.261 0.46
9.204 15.685 -1.258 0.25
9.143 15.695 -1.256 0.43
9.076 15.693 -1.253 0.21
9.047 15.7 -1.253 0.52
10.373 18.125 -1.474 0.22
8.919 15.705 -1.248 0.36
8.831 15.665 -1.242 0.39
8.775 15.68 -1.241 0.37
8.703 15.668 -1.237 0.39
8.631 15.653 -1.233 0.38
8.574 15.666 -1.232 0.39
8.539 15.661 -1.23 0.36
8.473 15.656 -1.227 0.41
8.416 15.668 -1.226 0.31
8.365 15.691 -1.225 0.56
8.316 15.719 -1.226 0.2
8.263 15.738 -1.225 0.29
8.213 15.762 -1.225 0.41
8.177 15.754 -1.223 0.36
8.114 15.755 -1.221 0.41
8.056 15.762 -1.219 0.34
7.992 15.759 -1.217 0.43
7.935 15.77 -1.215 0.36
7.875 15.773 -1.213 0.38
7.815 15.778 -1.212 0.4
7.779 15.767 -1.209 0.38
7.723 15.779 -1.208 0.39
7.662 15.778 -1.206 0.37
7.604 15.786 -1.205 0.35
7.548 15.797 -1.204 0.52
7.414 15.771 -1.197 0.62
7.359 15.717 -1.191 0.19
7.336 15.798 -1.196 0.17
7.28 15.807 -1.195 0.15
7.157 15.8 -1.19 0.45
7.146 15.907 -1.198 0.75
6.992 15.699 -1.178 0.0
6.991 15.83 -1.187 0.0
6.97 15.85 -1.188 0.0
6.911 15.85 -1.186 0.0
6.859 15.866 -1.186 0.0
6.786 15.834 -1.181 0.0
6.732 15.845 -1.18 0.0
6.674 15.847 -1.178 0.0
6.62 15.857 -1.177 0.12
6.594 15.866 -1.177 0.21
6.534 15.862 -1.175 0.21
6.469 15.846 -1.172 0.1
6.414 15.853 -1.171 0.09
6.232 15.831 -1.164 0.75
6.189 15.795 -1.16 0.41
6.126 15.781 -1.157 0.38
6.072 15.787 -1.156 0.38
6.016 15.789 -1.154 0.38
5.957 15.784 -1.152 0.38
5.901 15.786 -1.151 0.45
5.851 15.804 -1.151 0.31
5.8 15.819 -1.151 0.32
5.769 15.811 -1.149 0.5
5.101 14.125 -1.004 0.26
5.067 14.17 -1.006 0.5
5.02 14.18 -1.006 0.39
4.983 14.216 -1.007 0.33
5.02 14.465 -1.027 0.38
4.911 14.298 -1.012 0.33
4.993 14.609 -1.038 0.45
4.887 14.449 -1.023 0.23
4.823 14.41 -1.018 0.4
4.729 14.277 -1.006 0.23
4.652 14.196 -0.997 0.39
4.654 14.352 -1.009 0.51
4.658 14.519 -1.022 0.32
4.658 14.596 -1.028 0.23
4.565 14.464 -1.016 0.26
4.554 14.587 -1.025 0.24
4.49 14.544 -1.02 0.49
4.417 14.469 -1.013 0.36
4.345 14.397 -1.005 0.21
4.309 14.441 -1.008 0.23
4.212 14.278 -0.993 0.28
4.178 14.245 -0.99 0.5
4.166 14.373 -0.999 0.24
4.066 14.196 -0.984 0.36
4.068 14.372 -0.997 0.34
3.966 14.181 -0.98 0.3
3.924 14.203 -0.981 0.28
3.864 14.162 -0.977 0.5
3.848 14.189 -0.978 0.32
3.806 14.212 -0.979 0.21
4.275 16.153 -1.139 0.35
4.238 16.218 -1.144 0.77
4.17 16.164 -1.138 0.62
3.654 14.361 -0.988 0.34
3.592 14.307 -0.982 0.34
3.531 14.253 -0.977 0.33
3.522 14.312 -0.981 0.36
3.51 14.461 -0.993 0.42
3.497 14.603 -1.004 0.32
3.503 14.834 -1.022 0.4
4.291 18.402 -1.315 0.31
4.231 18.404 -1.314 0.23
4.173 18.417 -1.314 0.3
4.143 18.422 -1.314 0.41
4.084 18.429 -1.313 0.41
4.025 18.434 -1.313 0.41
3.964 18.435 -1.312 0.42
3.903 18.431 -1.31 0.43
3.842 18.43 -1.309 0.56
3.783 18.436 -1.309 0.3
3.754 18.444 -1.309 0.41
3.694 18.444 -1.308 0.42
3.632 18.434 -1.306 0.54
3.576 18.455 -1.307 0.4
3.517 18.46 -1.307 0.42
3.457 18.461 -1.306 0.41
3.397 18.46 -1.305 0.41
3.337 18.461 -1.304 0.43
3.304 18.445 -1.302 0.68
2.732 15.556 -1.066 0.25
2.679 15.543 -1.064 0.34
2.63 15.549 -1.064 0.5
2.585 15.581 -1.066 0.37
3.012 18.487 -1.302 0.18
2.953 18.488 -1.301 0.42
2.923 18.483 -1.3 0.43
2.863 18.484 -1.3 0.43
2.805 18.493 -1.3 0.42
2.747 18.5 -1.299 0.43
2.687 18.498 -1.299 0.42
2.628 18.501 -1.298 0.43
2.569 18.503 -1.298 0.43
2.539 18.497 -1.297 0.43
2.48 18.503 -1.297 0.41
2.422 18.511 -1.297 0.42
2.364 18.514 -1.296 0.41
2.305 18.518 -1.296 0.43
2.245 18.509 -1.295 0.49
2.186 18.508 -1.294 0.56
2.139 18.365 -1.282 0.0
2.095 18.492 -1.292 0.0
2.039 18.517 -1.293 0.0
1.983 18.541 -1.295 0.0
0.271 17.662 -1.216 0.0
0.216 17.631 -1.213 0.0
0.16 17.631 -1.213 0.0
0.133 17.647 -1.215 0.0
0.027 9.083 -0.527 0.0
-0.001 9.101 -0.529 0.0
-0.032 14.733 -0.981 0.0
-0.122 14.236 -0.941 0.18
-0.167 14.26 -0.943 0.2
-0.228 15.501 -1.043 0.15
-0.234 14.239 -0.941 0.33
-0.286 14.673 -0.976 0.37
-0.33 14.588 -0.97 0.32
-0.372 14.409 -0.955 0.31
-0.414 14.293 -0.946 0.45
-0.458 14.275 -0.945 0.32
-0.534 15.2 -1.019 0.2
-0.531 14.42 -0.957 0.62
-0.562 14.036 -0.926 0.26
-0.604 13.998 -0.923 0.3
-0.651 14.05 -0.927 0.41
-0.693 14.014 -0.925 0.38
-0.736 13.994 -0.923 0.45
-0.78 13.998 -0.924 0.26
-0.8 13.953 -0.92 0.54
-0.896 14.846 -0.992 0.19
-0.887 13.93 -0.919 0.52
-0.932 13.955 -0.921 0.25
-0.973 13.914 -0.918 0.55
-1.014 13.867 -0.914 0.42
-1.058 13.864 -0.914 0.37
-1.101 13.854 -0.914 0.41
-1.127 13.91 -0.918 0.25
-1.17 13.897 -0.918 0.59
-1.218 13.942 -0.922 0.3
-1.256 13.881 -0.917 0.32
-1.304 13.921 -0.921 0.45
-1.352 13.956 -0.924 0.34
-1.391 13.906 -0.92 0.46
-1.413 13.908 -0.92 0.35
-1.458 13.911 -0.921 0.39
-1.496 13.853 -0.917 0.41
-1.539 13.843 -0.916 0.52
-1.598 13.98 -0.928 0.18
-1.624 13.821 -0.915 0.34
-1.703 14.116 -0.94 0.61
-1.706 13.955 -0.927 0.17
-1.762 14.047 -0.935 0.41
-1.804 14.022 -0.933 0.46
-1.825 13.844 -0.919 0.28
-1.857 13.747 -0.912 0.49
-1.924 13.919 -0.926 0.29
-1.963 13.877 -0.923 0.32
-1.984 13.87 -0.923 0.38
-2.029 13.87 -0.923 0.42
-2.07 13.848 -0.922 0.27
-2.11 13.819 -0.92 0.56
-2.149 13.781 -0.918 0.26
-2.209 13.883 -0.927 0.51
-2.328 14.346 -0.965 0.18
-2.303 13.912 -0.93 0.46
-2.312 13.83 -0.924 0.36
-2.361 13.856 -0.926 0.38
-2.4 13.819 -0.924 0.45
-2.458 13.896 -0.931 0.32
-2.497 13.862 -0.929 0.37
-2.539 13.848 -0.928 0.54
-2.574 13.793 -0.925 0.27
-2.595 13.785 -0.924 0.46
-2.626 13.712 -0.919 0.16
-2.67 13.706 -0.919 0.54
-2.715 13.711 -0.92 0.4
-2.783 13.824 -0.93 0.25
-2.832 13.844 -0.933 0.61
-2.942 14.158 -0.959 0.34
-2.863 13.667 -0.919 0.22
-3.834 18.059 -1.28 0.15
-3.891 18.049 -1.28 0.58
-3.95 18.048 -1.281 0.26
-4.009 18.045 -1.282 0.41
-3.364 14.9 -1.024 0.37
-3.169 13.824 -0.937 0.41
-3.236 13.919 -0.945 0.29
-3.241 13.838 -0.939 0.38
-3.272 13.778 -0.935 0.35
-3.31 13.746 -0.933 0.46
-3.383 13.856 -0.943 0.34
-3.414 13.795 -0.939 0.38
-3.516 14.022 -0.959 0.42
-3.544 13.947 -0.953 0.34
-3.58 13.905 -0.951 0.47
-3.678 14.195 -0.975 0.39
-3.822 14.563 -1.007 0.15
-3.889 14.634 -1.014 0.0
-3.917 14.552 -1.008 0.0
-3.958 14.523 -1.006 0.0
-4.009 14.529 -1.008 0.0
-4.056 14.522 -1.009 0.0
-4.084 14.535 -1.01 0.0
-4.131 14.528 -1.011 0.0
-4.174 14.503 -1.01 0.0
-4.226 14.513 -1.012 0.0
-4.279 14.527 -1.014 0.0
