# .PCD v.7 - Point Cloud Data file format
VERSION .7
FIELDS x y z intensity
SIZE 4 4 4 4
TYPE F F F F
COUNT 1 1 1 1
WIDTH 1888
HEIGHT 1
VIEWPOINT 0 0 0 1 0 0 0
POINTS 1888
DATA ascii
3.822 -10.23 -1.011 0.3
3.849 -10.205 -1.01 0.36
3.884 -10.2 -1.011 0.41
3.926 -10.214 -1.014 0.34
3.972 -10.237 -1.018 0.26
4.016 -10.254 -1.022 0.32
4.069 -10.293 -1.028 0.28
4.586 -11.54 -1.177 0.33
4.641 -11.571 -1.183 0.29
4.653 -11.498 -1.176 0.29
4.673 -11.443 -1.171 0.5
4.718 -11.452 -1.174 0.39
4.724 -11.363 -1.165 0.36
4.76 -11.35 -1.165 0.34
4.79 -11.37 -1.169 0.33
4.845 -11.401 -1.174 0.36
4.903 -11.437 -1.18 0.32
4.913 -11.363 -1.173 0.38
4.928 -11.3 -1.168 0.39
5.003 -11.374 -1.178 0.3
5.047 -11.376 -1.181 0.29
5.035 -11.301 -1.172 0.38
5.093 -11.336 -1.179 0.34
5.098 -11.253 -1.17 0.35
5.147 -11.266 -1.174 0.37
5.183 -11.251 -1.174 0.31
5.212 -11.222 -1.173 0.37
5.269 -11.251 -1.178 0.38
5.313 -11.252 -1.18 0.39
5.346 -11.276 -1.184 0.29
5.311 -11.114 -1.166 0.36
5.369 -11.144 -1.172 0.36
5.401 -11.122 -1.171 0.43
5.452 -11.137 -1.175 0.28
5.487 -11.12 -1.175 0.39
5.523 -11.106 -1.176 0.39
5.523 -11.062 -1.171 0.33
5.583 -11.094 -1.178 0.37
5.61 -11.06 -1.176 0.32
5.606 -10.968 -1.166 0.37
5.672 -11.011 -1.174 0.34
5.718 -11.016 -1.177 0.35
5.69 -10.878 -1.162 0.31
5.748 -10.947 -1.171 0.42
5.757 -10.881 -1.166 0.3
5.777 -10.837 -1.162 0.34
5.811 -10.818 -1.162 0.34
5.851 -10.811 -1.164 0.33
5.886 -10.794 -1.164 0.29
5.919 -10.774 -1.164 0.39
5.999 -10.879 -1.178 0.27
6.023 -10.843 -1.176 0.35
6.063 -10.834 -1.177 0.41
6.098 -10.817 -1.177 0.37
6.11 -10.758 -1.172 0.33
6.15 -10.751 -1.174 0.39
6.19 -10.742 -1.175 0.38
6.012 -10.397 -1.132 0.34
6.025 -10.344 -1.128 0.37
6.019 -10.259 -1.119 0.4
6.028 -10.201 -1.114 0.36
5.742 -9.652 -1.046 0.29
5.766 -9.623 -1.044 0.43
5.72 -9.479 -1.028 0.34
5.723 -9.45 -1.026 0.37
5.742 -9.415 -1.023 0.39
5.776 -9.404 -1.024 0.35
5.799 -9.375 -1.023 0.3
5.831 -9.361 -1.023 0.29
5.861 -9.344 -1.024 0.43
5.893 -9.329 -1.024 0.36
5.918 -9.336 -1.026 0.3
5.999 -9.398 -1.037 0.42
6.085 -9.468 -1.048 0.16
6.122 -9.458 -1.05 0.43
6.166 -9.462 -1.053 0.39
6.313 -9.621 -1.076 0.34
6.303 -9.539 -1.068 0.2
6.266 -9.42 -1.055 0.37
6.939 -10.391 -1.186 0.24
6.995 -10.404 -1.191 0.36
7.03 -10.385 -1.191 0.37
7.059 -10.358 -1.19 0.38
6.372 -9.292 -1.05 0.3
7.127 -10.318 -1.191 0.39
7.172 -10.314 -1.194 0.29
7.174 -10.281 -1.191 0.35
7.153 -10.184 -1.181 0.41
7.255 -10.26 -1.194 0.23
7.289 -10.239 -1.194 0.52
7.33 -10.229 -1.196 0.38
7.348 -10.187 -1.193 0.36
7.37 -10.149 -1.191 0.32
7.416 -10.179 -1.197 0.42
7.427 -10.127 -1.193 0.35
7.511 -10.174 -1.203 0.34
7.55 -10.16 -1.204 0.39
7.452 -9.963 -1.18 0.3
7.6 -10.095 -1.202 0.43
7.584 -10.008 -1.193 0.32
7.642 -10.051 -1.201 0.37
7.648 -9.994 -1.196 0.37
7.671 -9.959 -1.194 0.27
7.659 -9.88 -1.187 0.45
7.69 -9.856 -1.187 0.38
7.857 -10.003 -1.211 0.37
7.898 -9.991 -1.213 0.36
7.879 -9.935 -1.207 0.31
7.84 -9.823 -1.194 0.36
7.87 -9.797 -1.194 0.35
7.891 -9.76 -1.192 0.45
8.018 -9.854 -1.209 0.35
8.014 -9.785 -1.203 0.35
8.039 -9.754 -1.202 0.34
8.033 -9.715 -1.198 0.34
8.092 -9.724 -1.203 0.33
8.143 -9.723 -1.207 0.45
8.168 -9.691 -1.206 0.32
8.238 -9.712 -1.213 0.36
8.234 -9.645 -1.207 0.34
8.308 -9.671 -1.214 0.32
8.361 -9.701 -1.221 0.43
8.315 -9.586 -1.208 0.3
8.392 -9.614 -1.216 0.33
8.448 -9.617 -1.22 0.36
8.475 -9.586 -1.219 0.42
8.501 -9.555 -1.219 0.37
8.524 -9.521 -1.218 0.34
8.563 -9.505 -1.219 0.41
8.543 -9.453 -1.213 0.3
8.554 -9.405 -1.21 0.38
8.612 -9.409 -1.215 0.45
8.671 -9.414 -1.22 0.42
8.689 -9.374 -1.218 0.35
8.753 -9.384 -1.224 0.39
8.787 -9.361 -1.224 0.46
8.736 -9.278 -1.214 0.29
8.853 -9.343 -1.228 0.37
8.911 -9.345 -1.232 0.39
8.92 -9.295 -1.229 0.34
8.967 -9.286 -1.232 0.33
9.003 -9.265 -1.233 0.39
9.044 -9.249 -1.235 0.33
9.059 -9.235 -1.235 0.38
9.078 -9.197 -1.233 0.4
9.093 -9.154 -1.231 0.38
9.14 -9.144 -1.234 0.34
9.183 -9.129 -1.236 0.41
9.235 -9.124 -1.24 0.35
9.275 -9.106 -1.242 0.41
9.28 -9.081 -1.24 0.36
9.304 -9.048 -1.24 0.36
9.351 -9.037 -1.242 0.31
9.389 -9.017 -1.244 0.41
9.405 -8.975 -1.242 0.36
9.415 -8.929 -1.239 0.37
9.487 -8.94 -1.246 0.35
9.484 -8.909 -1.243 0.4
9.5 -8.868 -1.242 0.39
9.56 -8.868 -1.246 0.31
9.599 -8.849 -1.248 0.45
9.595 -8.789 -1.243 0.33
9.678 -8.81 -1.252 0.42
9.684 -8.759 -1.248 0.37
9.692 -8.739 -1.248 0.36
9.68 -8.674 -1.242 0.38
9.74 -8.672 -1.247 0.34
9.772 -8.646 -1.247 0.39
9.807 -8.622 -1.248 0.37
9.844 -8.6 -1.25 0.39
9.868 -8.566 -1.25 0.41
9.991 -8.645 -1.266 0.38
10.082 -8.668 -1.275 0.3
10.117 -8.643 -1.276 0.45
10.17 -8.633 -1.28 0.43
10.245 -8.642 -1.287 0.23
10.282 -8.617 -1.288 0.56
10.338 -8.609 -1.292 0.35
10.364 -8.603 -1.294 0.29
10.387 -8.568 -1.294 0.32
10.43 -8.548 -1.296 0.37
10.461 -8.519 -1.296 0.34
10.482 -8.481 -1.296 0.33
10.522 -8.459 -1.298 0.28
10.539 -8.419 -1.296 0.35
10.553 -8.402 -1.296 0.32
10.588 -8.376 -1.298 0.25
10.608 -8.338 -1.297 0.42
10.608 -8.284 -1.293 0.35
10.629 -8.247 -1.292 0.28
10.671 -8.226 -1.294 0.29
10.738 -8.223 -1.3 0.23
10.838 -8.246 -1.311 0.42
10.857 -8.234 -1.311 0.3
10.924 -8.231 -1.317 0.32
11.003 -8.235 -1.324 0.29
11.075 -8.235 -1.331 0.31
11.149 -8.236 -1.337 0.32
11.224 -8.237 -1.344 0.28
11.305 -8.241 -1.352 0.31
11.368 -8.26 -1.359 0.3
11.448 -8.263 -1.366 0.27
11.511 -8.254 -1.371 0.31
11.594 -8.258 -1.379 0.26
11.674 -8.259 -1.386 0.27
11.747 -8.256 -1.393 0.2
11.786 -8.228 -1.394 0.36
11.869 -8.258 -1.404 0.29
11.909 -8.231 -1.406 0.36
11.924 -8.186 -1.404 0.36
12.028 -8.202 -1.415 0.36
12.044 -8.157 -1.414 0.24
12.152 -8.175 -1.425 0.38
12.166 -8.129 -1.423 0.29
12.214 -8.133 -1.428 0.51
12.211 -8.076 -1.424 0.0
11.346 -7.455 -1.306 0.08
11.403 -7.441 -1.31 0.22
11.478 -7.438 -1.317 0.16
11.563 -7.442 -1.325 0.39
11.654 -7.448 -1.334 0.2
11.733 -7.473 -1.343 0.38
11.84 -7.489 -1.354 0.23
11.928 -7.492 -1.362 0.2
12.024 -7.499 -1.372 0.42
12.098 -7.493 -1.378 0.23
12.188 -7.495 -1.387 0.18
12.274 -7.495 -1.395 0.41
12.344 -7.511 -1.403 0.24
12.435 -7.513 -1.412 0.2
12.517 -7.508 -1.419 0.37
12.576 -7.49 -1.424 0.19
12.627 -7.467 -1.427 0.34
12.673 -7.44 -1.43 0.19
12.682 -7.393 -1.428 0.25
12.687 -7.369 -1.427 0.2
12.758 -7.356 -1.434 0.2
12.928 -7.4 -1.452 0.32
13.022 -7.399 -1.461 0.21
12.968 -7.315 -1.451 0.17
12.937 -7.244 -1.445 0.53
13.069 -7.264 -1.459 0.25
13.106 -7.23 -1.46 0.25
13.147 -7.226 -1.464 0.25
13.187 -7.194 -1.466 0.33
13.207 -7.152 -1.466 0.21
13.246 -7.119 -1.468 0.43
13.192 -7.037 -1.459 0.3
13.222 -6.999 -1.459 0.27
13.258 -6.965 -1.461 0.34
13.268 -6.944 -1.461 0.23
13.255 -6.884 -1.457 0.3
13.322 -6.866 -1.462 0.35
13.333 -6.819 -1.461 0.32
13.31 -6.755 -1.456 0.26
13.287 -6.69 -1.45 0.32
13.306 -6.674 -1.451 0.34
13.361 -6.649 -1.455 0.0
12.106 -5.98 -1.298 0.04
12.182 -5.97 -1.305 0.08
12.283 -5.971 -1.315 0.16
12.383 -5.971 -1.325 0.21
12.532 -5.995 -1.341 0.18
12.655 -6.005 -1.354 0.32
12.757 -6.028 -1.365 0.19
12.851 -6.023 -1.374 0.33
12.966 -6.027 -1.386 0.17
13.082 -6.031 -1.398 0.36
13.188 -6.029 -1.408 0.2
13.266 -6.015 -1.416 0.34
13.327 -5.992 -1.421 0.14
13.402 -5.95 -1.427 0.62
13.428 -5.911 -1.427 0.45
13.452 -5.871 -1.428 0.2
13.511 -5.846 -1.433 0.26
13.555 -5.814 -1.436 0.19
13.556 -5.765 -1.434 0.14
13.62 -5.767 -1.441 0.43
13.626 -5.719 -1.439 0.2
13.638 -5.673 -1.438 0.2
13.779 -5.681 -1.453 0.15
13.843 -5.656 -1.459 0.56
13.811 -5.593 -1.453 0.26
13.898 -5.578 -1.461 0.36
13.92 -5.561 -1.463 0.29
13.987 -5.537 -1.469 0.36
13.994 -5.488 -1.467 0.29
13.95 -5.421 -1.46 0.41
14.0 -5.39 -1.464 0.3
13.985 -5.334 -1.46 0.32
14.019 -5.296 -1.462 0.48
14.033 -5.276 -1.463 0.35
14.019 -5.221 -1.459 0.3
14.015 -5.169 -1.457 0.27
14.061 -5.136 -1.461 0.35
14.133 -5.112 -1.467 0.28
14.129 -5.06 -1.465 0.31
14.24 -5.05 -1.476 0.25
14.257 -5.031 -1.477 0.49
14.478 -5.057 -1.501 0.0
14.334 -4.956 -1.482 0.0
13.213 -4.525 -1.349 0.0
13.323 -4.515 -1.36 0.07
13.488 -4.524 -1.378 0.13
13.7 -4.547 -1.401 0.35
13.871 -4.555 -1.42 0.19
14.011 -4.576 -1.435 0.33
14.156 -4.574 -1.45 0.21
14.121 -4.514 -1.444 0.2
14.16 -4.477 -1.447 0.21
14.639 -4.577 -1.501 0.17
14.52 -4.49 -1.486 0.47
14.696 -4.494 -1.505 0.26
14.668 -4.46 -1.501 0.31
14.686 -4.415 -1.501 0.33
14.71 -4.372 -1.502 0.3
14.71 -4.322 -1.501 0.31
14.739 -4.28 -1.502 0.33
14.723 -4.226 -1.499 0.29
14.748 -4.183 -1.5 0.32
14.751 -4.158 -1.5 0.34
14.762 -4.111 -1.5 0.32
14.773 -4.065 -1.5 0.28
14.82 -4.027 -1.503 0.26
14.829 -3.98 -1.503 0.25
14.853 -3.936 -1.504 0.29
14.871 -3.891 -1.505 0.29
14.89 -3.871 -1.507 0.3
14.885 -3.82 -1.505 0.29
14.907 -3.776 -1.506 0.29
14.915 -3.728 -1.505 0.32
14.949 -3.687 -1.508 0.3
14.94 -3.635 -1.505 0.3
14.966 -3.591 -1.507 0.26
14.966 -3.566 -1.507 0.24
15.01 -3.527 -1.51 0.44
14.981 -3.47 -1.506 0.25
15.164 -3.462 -1.525 0.0
14.998 -3.375 -1.505 0.0
13.667 -3.033 -1.353 0.12
13.819 -3.021 -1.369 0.16
14.204 -3.081 -1.412 0.43
14.457 -3.088 -1.44 0.24
14.682 -3.088 -1.464 0.22
14.762 -3.056 -1.472 0.38
14.818 -3.019 -1.477 0.24
14.82 -2.971 -1.477 0.26
14.82 -2.922 -1.475 0.25
14.903 -2.89 -1.484 0.2
14.976 -2.88 -1.492 0.45
15.02 -2.839 -1.496 0.22
14.876 -2.764 -1.478 0.32
15.002 -2.738 -1.492 0.25
14.882 -2.668 -1.477 0.25
14.786 -2.603 -1.465 0.52
14.561 -2.517 -1.439 0.26
14.575 -2.496 -1.44 0.38
14.765 -2.48 -1.461 0.31
14.777 -2.435 -1.461 0.31
14.71 -2.376 -1.453 0.43
14.693 -2.326 -1.45 0.32
14.697 -2.28 -1.45 0.23
14.659 -2.227 -1.445 0.54
14.68 -2.206 -1.447 0.3
14.618 -2.15 -1.439 0.34
14.544 -2.093 -1.43 0.2
14.556 -2.048 -1.431 0.41
14.59 -2.006 -1.434 0.25
14.748 -1.98 -1.451 0.25
15.103 -1.979 -1.49 0.2
15.422 -1.995 -1.525 0.26
15.459 -1.951 -1.528 0.39
15.464 -1.902 -1.528 0.41
15.797 -1.892 -1.565 0.26
15.848 -1.848 -1.57 0.26
15.742 -1.785 -1.557 0.2
15.743 -1.735 -1.557 0.42
15.728 -1.709 -1.555 0.24
15.721 -1.658 -1.554 0.26
15.697 -1.606 -1.55 0.17
15.7 -1.556 -1.55 0.42
15.691 -1.506 -1.548 0.23
15.672 -1.454 -1.546 0.2
15.692 -1.406 -1.548 0.39
15.694 -1.382 -1.548 0.23
15.712 -1.333 -1.549 0.18
15.746 -1.286 -1.552 0.39
15.756 -1.237 -1.553 0.21
15.756 -1.188 -1.553 0.24
15.772 -1.139 -1.554 0.18
15.791 -1.091 -1.556 0.23
15.779 -1.065 -1.554 0.18
15.784 -1.015 -1.554 0.22
15.783 -0.966 -1.554 0.18
15.77 -0.915 -1.552 0.23
15.769 -0.865 -1.552 0.18
15.76 -0.815 -1.55 0.34
15.76 -0.766 -1.55 0.2
15.744 -0.74 -1.548 0.23
15.728 -0.69 -1.546 0.2
15.732 -0.64 -1.546 0.21
15.742 -0.591 -1.547 0.37
15.738 -0.542 -1.547 0.21
15.733 -0.492 -1.546 0.18
15.731 -0.442 -1.546 0.43
15.728 -0.418 -1.545 0.24
15.723 -0.368 -1.545 0.26
15.71 -0.318 -1.543 0.26
15.725 -0.269 -1.545 0.25
15.694 -0.22 -1.541 0.18
15.694 -0.17 -1.541 0.43
15.685 -0.121 -1.54 0.23
15.679 -0.072 -1.539 0.2
15.695 -0.047 -1.541 0.41
14.938 0.004 -1.549 0.25
14.942 0.027 -1.549 0.2
14.964 0.074 -1.552 0.39
14.967 0.121 -1.552 0.24
14.989 0.168 -1.555 0.21
15.002 0.216 -1.557 0.36
15.015 0.263 -1.558 0.22
15.03 0.31 -1.56 0.22
15.039 0.358 -1.561 0.19
15.054 0.382 -1.563 0.22
15.047 0.429 -1.562 0.2
15.06 0.477 -1.564 0.22
15.058 0.524 -1.564 0.2
15.07 0.572 -1.566 0.23
15.06 0.619 -1.565 0.21
15.051 0.642 -1.564 0.23
15.053 0.69 -1.564 0.21
15.051 0.737 -1.564 0.18
15.031 0.783 -1.562 0.39
15.02 0.83 -1.561 0.23
15.01 0.877 -1.56 0.2
15.003 0.924 -1.56 0.25
14.988 0.946 -1.558 0.3
14.965 0.992 -1.556 0.52
14.948 1.038 -1.554 0.3
14.94 1.085 -1.554 0.28
14.945 1.132 -1.555 0.27
14.923 1.178 -1.553 0.19
14.93 1.226 -1.554 0.42
14.93 1.273 -1.554 0.25
14.926 1.296 -1.554 0.27
14.937 1.344 -1.556 0.28
14.931 1.391 -1.556 0.28
14.927 1.438 -1.556 0.28
14.932 1.486 -1.557 0.28
14.927 1.533 -1.557 0.29
14.924 1.58 -1.557 0.27
14.92 1.603 -1.557 0.27
14.924 1.651 -1.558 0.28
14.923 1.698 -1.558 0.25
14.92 1.746 -1.559 0.28
14.918 1.793 -1.559 0.29
14.908 1.839 -1.559 0.29
14.91 1.887 -1.56 0.28
14.9 1.91 -1.559 0.28
14.89 1.956 -1.558 0.29
14.893 2.004 -1.559 0.26
14.889 2.051 -1.56 0.27
14.878 2.097 -1.559 0.27
14.872 2.144 -1.559 0.29
14.869 2.191 -1.56 0.29
14.854 2.213 -1.558 0.3
14.86 2.261 -1.56 0.27
14.855 2.308 -1.56 0.29
14.844 2.355 -1.56 0.29
14.832 2.401 -1.559 0.29
14.829 2.448 -1.56 0.29
14.823 2.495 -1.56 0.28
14.827 2.519 -1.561 0.29
14.815 2.565 -1.56 0.29
14.799 2.61 -1.559 0.3
14.806 2.66 -1.561 0.27
14.796 2.706 -1.561 0.28
14.791 2.753 -1.561 0.29
14.786 2.8 -1.562 0.29
14.783 2.848 -1.563 0.28
14.775 2.87 -1.562 0.29
14.772 2.918 -1.563 0.29
14.761 2.964 -1.563 0.28
14.761 3.012 -1.564 0.29
14.759 3.06 -1.565 0.29
14.74 3.104 -1.564 0.28
14.744 3.153 -1.565 0.28
14.758 3.181 -1.567 0.26
14.75 3.228 -1.568 0.28
14.748 3.276 -1.569 0.28
14.726 3.319 -1.567 0.29
14.717 3.366 -1.567 0.29
14.7 3.411 -1.567 0.29
14.705 3.461 -1.569 0.29
14.702 3.484 -1.569 0.27
14.679 3.528 -1.567 0.27
14.668 3.574 -1.567 0.28
14.66 3.621 -1.568 0.3
14.649 3.667 -1.568 0.29
14.632 3.711 -1.567 0.29
14.614 3.756 -1.567 0.3
14.612 3.78 -1.567 0.29
14.573 3.819 -1.564 0.27
14.565 3.865 -1.564 0.29
14.537 3.907 -1.562 0.2
14.533 3.955 -1.563 0.37
14.524 4.001 -1.564 0.4
14.532 4.053 -1.566 0.43
14.564 4.086 -1.571 0.27
14.563 4.135 -1.572 0.28
14.569 4.186 -1.575 0.26
14.565 4.235 -1.576 0.2
14.571 4.286 -1.578 0.39
14.592 4.342 -1.582 0.22
14.591 4.392 -1.584 0.24
14.607 4.422 -1.587 0.2
14.608 4.472 -1.589 0.21
14.63 4.529 -1.593 0.18
14.639 4.582 -1.596 0.31
14.641 4.634 -1.598 0.2
14.65 4.687 -1.601 0.2
14.656 4.739 -1.603 0.29
14.654 4.79 -1.605 0.19
14.671 4.821 -1.608 0.19
14.659 4.868 -1.608 0.21
14.672 4.924 -1.612 0.18
14.657 4.97 -1.612 0.32
14.664 5.023 -1.615 0.17
14.674 5.078 -1.618 0.35
14.671 5.129 -1.62 0.18
14.672 5.155 -1.621 0.38
14.679 5.209 -1.624 0.22
14.659 5.254 -1.623 0.17
14.7 5.321 -1.63 0.39
14.698 5.373 -1.632 0.22
14.7 5.426 -1.634 0.18
14.709 5.481 -1.638 0.39
14.707 5.507 -1.639 0.21
14.724 5.566 -1.643 0.18
14.726 5.62 -1.645 0.39
14.735 5.676 -1.649 0.23
14.746 5.734 -1.652 0.2
14.756 5.791 -1.656 0.35
14.762 5.847 -1.659 0.2
14.773 5.878 -1.661 0.33
14.795 5.941 -1.667 0.19
14.78 5.989 -1.667 0.13
14.796 6.049 -1.671 0.18
14.792 6.102 -1.673 0.28
14.798 6.159 -1.677 0.27
14.797 6.213 -1.679 0.27
14.807 6.245 -1.681 0.26
14.811 6.301 -1.684 0.27
14.819 6.359 -1.688 0.27
14.83 6.419 -1.692 0.27
14.826 6.473 -1.694 0.19
14.824 6.528 -1.696 0.18
14.818 6.581 -1.698 0.32
14.844 6.62 -1.703 0.17
14.832 6.671 -1.704 0.35
14.831 6.726 -1.707 0.18
14.837 6.785 -1.71 0.37
14.852 6.848 -1.715 0.19
14.835 6.897 -1.715 0.36
14.832 6.952 -1.718 0.23
14.844 6.987 -1.721 0.2
14.826 7.035 -1.721 0.32
14.832 7.095 -1.725 0.38
14.872 7.172 -1.733 0.24
14.911 7.248 -1.741 0.29
14.9 7.301 -1.743 0.32
14.924 7.37 -1.749 0.3
14.918 7.426 -1.751 0.28
14.933 7.463 -1.754 0.28
14.934 7.522 -1.758 0.28
14.936 7.581 -1.761 0.29
14.929 7.637 -1.763 0.29
14.928 7.696 -1.766 0.29
14.922 7.752 -1.769 0.29
14.918 7.81 -1.771 0.29
14.906 7.833 -1.771 0.27
14.874 7.876 -1.77 0.25
14.855 7.926 -1.771 0.38
14.877 7.998 -1.777 0.27
14.852 8.045 -1.777 0.3
14.855 8.106 -1.781 0.33
14.885 8.153 -1.787 0.33
14.908 8.227 -1.793 0.29
14.907 8.287 -1.797 0.29
14.91 8.351 -1.801 0.29
14.905 8.409 -1.803 0.27
14.904 8.47 -1.807 0.32
14.905 8.533 -1.811 0.31
14.913 8.6 -1.815 0.28
14.916 8.633 -1.818 0.29
14.927 8.702 -1.823 0.3
14.923 8.763 -1.826 0.31
14.92 8.824 -1.829 0.29
14.923 8.889 -1.833 0.29
14.919 8.95 -1.837 0.27
14.919 9.014 -1.841 0.33
14.939 9.058 -1.845 0.22
14.936 9.12 -1.849 0.17
13.417 8.254 -1.644 0.14
13.33 8.258 -1.636 0.17
13.228 8.253 -1.625 0.3
13.16 8.268 -1.62 0.23
13.057 8.261 -1.609 0.14
12.993 8.249 -1.602 0.19
12.934 8.269 -1.597 0.25
12.921 8.318 -1.599 0.27
12.913 8.37 -1.602 0.24
12.964 8.461 -1.612 0.0
12.796 8.409 -1.593 0.13
12.668 8.382 -1.578 0.16
12.552 8.363 -1.566 0.09
12.453 8.325 -1.554 0.0
12.345 8.309 -1.542 0.0
12.246 8.299 -1.532 0.0
12.154 8.293 -1.523 0.0
12.072 8.293 -1.515 0.0
11.977 8.283 -1.505 0.0
11.907 8.262 -1.497 0.0
11.823 8.259 -1.488 0.0
11.74 8.256 -1.48 0.0
11.665 8.259 -1.473 0.0
11.574 8.249 -1.464 0.0
11.498 8.25 -1.457 0.0
11.416 8.245 -1.449 0.0
11.359 8.232 -1.442 0.0
11.295 8.239 -1.437 0.0
11.214 8.235 -1.429 0.0
11.134 8.23 -1.421 0.0
11.066 8.234 -1.415 0.0
11.013 8.249 -1.411 0.0
10.932 8.242 -1.403 0.05
10.887 8.235 -1.398 0.09
10.826 8.243 -1.393 0.13
10.759 8.245 -1.387 0.19
10.752 8.294 -1.39 0.39
10.761 8.354 -1.395 0.33
10.749 8.399 -1.397 0.18
10.724 8.434 -1.397 0.33
10.332 8.18 -1.343 0.1
10.304 8.183 -1.341 0.17
10.283 8.22 -1.341 0.29
10.262 8.255 -1.342 0.19
10.248 8.298 -1.344 0.15
10.458 8.521 -1.379 0.0
10.08 8.268 -1.326 0.0
10.004 8.258 -1.319 0.12
9.963 8.251 -1.315 0.21
9.897 8.249 -1.308 0.0
9.858 8.268 -1.306 0.0
9.809 8.28 -1.303 0.0
9.778 8.307 -1.302 0.0
9.734 8.322 -1.299 0.0
9.714 8.358 -1.3 0.0
9.699 8.372 -1.3 0.0
9.676 8.405 -1.301 0.0
9.667 8.451 -1.303 0.0
9.644 8.484 -1.304 0.0
9.636 8.531 -1.307 0.0
9.626 8.576 -1.309 0.0
9.6 8.608 -1.31 0.0
9.613 8.674 -1.316 0.0
9.616 8.703 -1.318 0.0
9.601 8.745 -1.321 0.0
9.602 8.801 -1.325 0.0
9.6 8.855 -1.329 0.0
9.586 8.898 -1.331 0.0
9.577 8.945 -1.334 0.0
9.593 8.989 -1.339 0.0
9.588 9.041 -1.343 0.0
9.597 9.106 -1.349 0.0
9.596 9.162 -1.353 0.0
9.578 9.203 -1.355 0.0
9.599 9.282 -1.363 0.0
9.59 9.331 -1.367 0.0
9.588 9.388 -1.371 0.0
9.638 9.466 -1.382 0.0
8.405 8.312 -1.184 0.0
8.323 8.283 -1.175 0.0
8.272 8.283 -1.171 0.0
8.22 8.284 -1.166 0.0
8.151 8.266 -1.159 0.0
8.109 8.276 -1.157 0.0
8.08 8.272 -1.154 0.0
8.032 8.274 -1.15 0.0
7.993 8.287 -1.148 0.0
7.95 8.295 -1.145 0.0
7.902 8.297 -1.142 0.0
7.867 8.311 -1.14 0.0
7.813 8.307 -1.135 0.0
7.787 8.305 -1.133 0.0
7.741 8.309 -1.13 0.0
7.688 8.304 -1.125 0.0
7.643 8.308 -1.122 0.0
7.601 8.314 -1.119 0.0
7.555 8.316 -1.116 0.0
7.518 8.328 -1.114 0.0
7.49 8.324 -1.111 0.0
7.436 8.316 -1.106 0.0
7.409 8.338 -1.106 0.0
7.359 8.334 -1.102 0.0
7.313 8.335 -1.098 0.0
7.276 8.346 -1.096 0.0
7.243 8.361 -1.095 0.0
7.199 8.363 -1.092 0.0
7.161 8.346 -1.088 0.0
7.119 8.35 -1.085 0.0
7.083 8.36 -1.083 0.0
7.038 8.361 -1.08 0.0
6.998 8.367 -1.077 0.0
6.964 8.38 -1.076 0.0
6.92 8.38 -1.073 0.0
6.89 8.371 -1.069 0.0
6.853 8.379 -1.067 0.0
6.81 8.38 -1.064 0.0
6.777 8.394 -1.063 0.0
6.742 8.404 -1.062 0.0
6.707 8.415 -1.06 0.0
6.66 8.409 -1.056 0.0
6.639 8.41 -1.055 0.0
6.603 8.419 -1.053 0.0
6.56 8.419 -1.05 0.0
6.514 8.414 -1.046 0.0
6.488 8.435 -1.046 0.0
6.444 8.433 -1.043 0.0
6.411 8.444 -1.041 0.0
6.38 8.432 -1.038 0.0
6.349 8.445 -1.037 0.0
6.314 8.454 -1.036 0.0
6.285 8.471 -1.035 0.0
6.244 8.471 -1.032 0.0
6.21 8.48 -1.031 0.0
6.175 8.488 -1.029 0.0
6.15 8.482 -1.027 0.0
6.121 8.498 -1.026 0.0
6.093 8.515 -1.026 0.0
6.056 8.52 -1.024 0.0
6.016 8.521 -1.021 0.0
5.985 8.533 -1.02 0.0
5.96 8.555 -1.021 0.0
5.928 8.566 -1.02 0.0
5.914 8.575 -1.02 0.0
5.904 8.618 -1.023 0.0
5.881 8.643 -1.024 0.0
5.87 8.685 -1.027 0.0
5.851 8.716 -1.029 0.0
5.84 8.758 -1.033 0.0
5.821 8.789 -1.034 0.0
5.827 8.828 -1.039 0.0
5.812 8.866 -1.041 0.0
5.795 8.901 -1.044 0.0
5.77 8.924 -1.044 0.0
5.768 8.983 -1.05 0.0
5.754 9.022 -1.053 0.0
5.752 9.082 -1.059 0.0
5.742 9.129 -1.063 0.0
5.752 9.177 -1.068 0.0
5.739 9.22 -1.072 0.0
5.736 9.28 -1.077 0.0
5.748 9.366 -1.087 0.0
5.756 9.445 -1.095 0.0
5.748 9.498 -1.1 0.0
5.775 9.61 -1.113 0.13
5.84 9.752 -1.131 0.0
8.394 14.195 -1.731 0.16
8.366 14.251 -1.735 0.35
8.26 14.173 -1.72 0.24
8.136 14.061 -1.702 0.35
8.07 14.049 -1.697 0.32
8.064 14.089 -1.7 0.42
8.027 14.128 -1.702 0.39
7.972 14.134 -1.7 0.37
7.923 14.15 -1.699 0.41
7.857 14.137 -1.694 0.34
7.836 14.203 -1.699 0.35
7.727 14.111 -1.684 0.41
7.681 14.132 -1.683 0.39
7.67 14.165 -1.686 0.27
7.603 14.147 -1.68 0.38
7.543 14.143 -1.677 0.37
7.461 14.096 -1.667 0.42
7.461 14.204 -1.678 0.38
7.454 14.298 -1.688 0.4
7.341 14.191 -1.67 0.29
7.239 14.049 -1.65 0.39
7.25 14.179 -1.664 0.33
7.162 14.115 -1.653 0.34
7.08 14.065 -1.644 0.41
7.019 14.053 -1.639 0.32
6.949 14.024 -1.632 0.45
6.897 14.029 -1.63 0.37
6.878 14.046 -1.631 0.37
6.899 14.201 -1.648 0.36
6.812 14.135 -1.637 0.37
6.766 14.153 -1.637 0.39
6.745 14.222 -1.643 0.37
6.64 14.116 -1.626 0.34
6.595 14.137 -1.626 0.43
6.513 14.017 -1.61 0.46
6.62 14.366 -1.652 0.0
3.864 8.48 -0.891 0.0
3.826 8.468 -0.888 0.0
3.791 8.46 -0.886 0.0
3.737 8.412 -0.878 0.0
3.674 8.449 -0.879 0.0
3.635 8.431 -0.875 0.0
3.611 8.448 -0.876 0.0
3.573 8.432 -0.872 0.0
3.223 8.406 -0.854 0.0
3.198 8.419 -0.855 0.0
3.131 8.402 -0.85 0.0
2.926 8.371 -0.838 0.0
2.895 8.365 -0.837 0.0
2.865 8.365 -0.835 0.0
2.841 8.379 -0.836 0.0
2.822 8.369 -0.834 0.0
2.793 8.368 -0.833 0.0
2.761 8.36 -0.831 0.0
2.728 8.35 -0.829 0.0
2.7 8.352 -0.828 0.0
2.679 8.376 -0.83 0.0
2.648 8.369 -0.828 0.0
2.628 8.353 -0.825 0.0
2.604 8.366 -0.826 0.0
2.575 8.367 -0.825 0.0
2.519 8.372 -0.824 0.0
2.486 8.359 -0.821 0.0
2.462 8.372 -0.822 0.0
2.429 8.359 -0.819 0.0
2.406 8.328 -0.815 0.0
2.38 8.336 -0.815 0.0
2.354 8.343 -0.815 0.0
2.328 8.352 -0.815 0.0
2.301 8.356 -0.815 0.0
2.273 8.359 -0.814 0.0
2.249 8.372 -0.815 0.0
2.329 9.551 -0.951 0.0
2.329 9.614 -0.958 0.0
1.588 8.118 -0.769 0.0
1.562 8.123 -0.769 0.0
1.483 8.339 -0.792 0.13
1.454 8.328 -0.79 0.0
1.374 8.334 -0.789 0.0
1.348 8.344 -0.79 0.0
1.322 8.344 -0.789 0.0
1.293 8.337 -0.788 0.0
1.279 8.331 -0.787 0.0
1.254 8.343 -0.788 0.0
1.226 8.335 -0.787 0.0
1.032 9.189 -0.883 0.0
1.01 9.258 -0.89 0.0
0.998 9.417 -0.909 0.0
0.934 9.096 -0.871 0.0
0.902 9.069 -0.867 0.0
0.878 9.115 -0.872 0.0
0.855 9.169 -0.878 0.0
0.835 9.273 -0.89 0.0
0.827 9.343 -0.898 0.0
0.807 9.453 -0.911 0.0
0.786 9.564 -0.924 0.0
1.165 15.775 -1.652 0.39
1.117 15.802 -1.655 0.29
1.092 15.804 -1.655 0.4
1.043 15.819 -1.656 0.45
0.993 15.823 -1.656 0.43
0.948 15.905 -1.665 0.23
0.897 15.878 -1.662 0.54
0.982 18.336 -1.95 0.34
0.798 15.909 -1.665 0.28
0.772 15.877 -1.661 0.59
0.839 18.373 -1.953 0.18
0.672 15.889 -1.662 0.6
0.623 15.899 -1.663 0.25
0.574 15.929 -1.666 0.26
0.523 15.917 -1.664 0.48
0.549 18.346 -1.949 0.44
0.422 15.874 -1.659 0.43
0.356 14.322 -1.477 0.31
0.309 14.269 -1.471 0.33
0.262 14.143 -1.456 0.4
0.218 14.191 -1.462 0.45
0.176 14.333 -1.478 0.34
0.131 14.377 -1.483 0.36
0.087 14.503 -1.498 0.45
0.064 14.433 -1.49 0.25
0.018 14.358 -1.481 0.22
-0.027 14.197 -1.462 0.33
-0.071 14.129 -1.454 0.47
-0.116 14.159 -1.458 0.39
-0.16 14.083 -1.449 0.32
-0.203 14.023 -1.442 0.49
-0.246 13.947 -1.433 0.28
-0.268 13.936 -1.432 0.33
-0.311 13.89 -1.427 0.51
-0.36 14.131 -1.455 0.25
-0.399 13.927 -1.431 0.46
-0.45 14.168 -1.46 0.39
-0.495 14.177 -1.461 0.31
-0.538 14.145 -1.457 0.29
-0.56 14.136 -1.456 0.5
-0.606 14.16 -1.459 0.51
-0.651 14.182 -1.462 0.2
-0.7 14.271 -1.473 0.3
-0.742 14.213 -1.466 0.21
-0.784 14.156 -1.46 0.48
-0.829 14.159 -1.461 0.3
-0.848 14.116 -1.456 0.46
-0.894 14.127 -1.457 0.39
-0.934 14.071 -1.451 0.29
-0.977 14.05 -1.449 0.52
-1.031 14.182 -1.465 0.31
-1.072 14.123 -1.458 0.34
-1.122 14.197 -1.467 0.4
-1.173 14.274 -1.477 0.28
-1.43 17.139 -1.813 0.46
-1.484 17.13 -1.813 0.36
-1.537 17.122 -1.813 0.34
-1.625 17.493 -1.857 0.21
-1.769 18.425 -1.967 0.6
-1.409 14.147 -1.464 0.26
-1.447 14.081 -1.457 0.39
-1.481 14.192 -1.471 0.54
-1.532 14.246 -1.478 0.18
-1.576 14.231 -1.476 0.43
-1.614 14.173 -1.47 0.27
-1.672 14.278 -1.483 0.39
-1.715 14.257 -1.481 0.21
-1.752 14.187 -1.474 0.34
-1.785 14.275 -1.484 0.45
-1.835 14.308 -1.489 0.44
-1.88 14.303 -1.489 0.23
-2.087 15.517 -1.633 0.34
-1.973 14.314 -1.492 0.42
-2.021 14.329 -1.494 0.33
-2.066 14.325 -1.494 0.32
-2.091 14.339 -1.497 0.35
-2.134 14.321 -1.495 0.24
-2.182 14.334 -1.498 0.42
-2.234 14.372 -1.503 0.36
-2.267 14.285 -1.493 0.38
-2.289 14.138 -1.477 0.31
-2.35 14.229 -1.488 0.43
-2.394 14.219 -1.488 0.41
-2.452 14.427 -1.513 0.31
-2.476 14.294 -1.498 0.43
-2.518 14.273 -1.497 0.28
-2.569 14.298 -1.501 0.5
-2.63 14.376 -1.511 0.38
-2.679 14.391 -1.514 0.3
-2.744 14.488 -1.526 0.48
-2.77 14.499 -1.528 0.29
-2.78 14.309 -1.507 0.45
-2.818 14.265 -1.502 0.4
-2.876 14.32 -1.51 0.38
-2.93 14.354 -1.515 0.28
-2.964 14.29 -1.509 0.45
-3.069 14.573 -1.544 0.36
-3.118 14.577 -1.545 0.43
-3.132 14.531 -1.54 0.32
-4.283 19.615 -2.15 0.29
-4.344 19.597 -2.15 0.27
-4.406 19.586 -2.15 0.22
-4.449 19.488 -2.14 0.34
-4.463 19.273 -2.116 0.33
-4.474 19.046 -2.09 0.32
-4.456 18.834 -2.066 0.36
-4.468 18.623 -2.042 0.33
-4.48 18.417 -2.019 0.39
-4.492 18.214 -1.996 0.39
-4.502 18.011 -1.973 0.38
-4.514 17.82 -1.952 0.42
-4.522 17.619 -1.929 0.26
-4.572 17.583 -1.927 0.37
-4.597 17.565 -1.926 0.49
-4.652 17.55 -1.926 0.57
-4.776 17.572 -1.932 0.48
-4.84 17.59 -1.936 0.39
-5.274 18.939 -2.102 0.51
-5.41 19.196 -2.135 0.39
-4.719 16.632 -1.824 0.0
-4.753 16.552 -1.816 0.0
-4.76 16.384 -1.797 0.06
-4.635 15.582 -1.703 0.0
-2.901 9.607 -0.975 0.0
-2.924 9.573 -0.972 0.0
-2.928 9.534 -0.968 0.0
-2.945 9.483 -0.963 0.0
-2.962 9.432 -0.958 0.0
-2.981 9.389 -0.953 0.0
-3.005 9.361 -0.951 0.0
-3.017 9.3 -0.945 0.0
-3.033 9.247 -0.94 0.0
-2.948 8.485 -0.852 0.0
-3.198 8.551 -0.869 0.0
-3.22 8.526 -0.867 0.07
-3.246 8.514 -0.867 0.09
-3.259 8.509 -0.867 0.09
-3.294 8.519 -0.87 0.14
-3.313 8.49 -0.867 0.09
-3.347 8.498 -0.87 0.14
-3.375 8.491 -0.87 0.09
-3.405 8.488 -0.871 0.15
-3.43 8.474 -0.87 0.09
-3.449 8.483 -0.872 0.15
-3.475 8.47 -0.872 0.09
-3.505 8.467 -0.873 0.0
-3.534 8.463 -0.874 0.0
-3.566 8.465 -0.876 0.0
-3.594 8.457 -0.876 0.0
-4.228 9.579 -1.026 0.0
-4.225 9.491 -1.016 0.0
-4.219 9.398 -1.006 0.0
-3.83 8.453 -0.887 0.0
-4.274 9.362 -1.005 0.0
-4.295 9.368 -1.007 0.0
-4.247 8.818 -0.946 0.0
-4.237 8.763 -0.94 0.0
-4.248 8.714 -0.935 0.0
-4.262 8.674 -0.932 0.0
-4.285 8.651 -0.93 0.0
-4.316 8.647 -0.932 0.0
-4.342 8.629 -0.931 0.0
-4.313 8.506 -0.917 0.0
-4.311 8.469 -0.913 0.0
-4.344 8.468 -0.914 0.0
-4.371 8.454 -0.914 0.0
-4.394 8.433 -0.913 0.0
-5.248 9.779 -1.099 0.0
-5.266 9.776 -1.1 0.0
-5.305 9.775 -1.102 0.0
-5.34 9.767 -1.103 0.0
-5.127 8.404 -0.953 0.0
-5.165 8.407 -0.955 0.07
-5.202 8.408 -0.958 0.0
-5.238 8.408 -0.96 0.15
-8.927 14.313 -1.775 0.14
-8.99 14.314 -1.779 0.39
-9.051 14.31 -1.782 0.22
-9.116 14.314 -1.787 0.23
-9.16 14.283 -1.787 0.23
-9.224 14.285 -1.791 0.19
-9.282 14.276 -1.793 0.5
-9.335 14.308 -1.8 0.22
-9.389 14.293 -1.802 0.25
-9.452 14.29 -1.806 0.2
-9.512 14.284 -1.809 0.17
-9.577 14.283 -1.813 0.39
-9.636 14.275 -1.816 0.23
-9.689 14.257 -1.818 0.18
-9.752 14.253 -1.822 0.42
-9.792 14.264 -1.826 0.24
-9.854 14.258 -1.829 0.21
-9.905 14.235 -1.83 0.22
-10.05 14.349 -1.851 0.29
-10.154 14.4 -1.863 0.25
-10.152 14.301 -1.853 0.46
-10.153 14.208 -1.844 0.34
-10.184 14.205 -1.846 0.41
-10.212 14.149 -1.843 0.51
-10.402 14.318 -1.872 0.32
-10.412 14.237 -1.865 0.23
-10.356 14.068 -1.845 0.33
-10.409 14.046 -1.847 0.49
-10.493 14.068 -1.855 0.34
-10.547 14.094 -1.861 0.44
-10.591 14.061 -1.861 0.2
-10.676 14.082 -1.869 0.54
-10.796 14.148 -1.883 0.24
-10.909 14.204 -1.897 0.51
-11.032 14.27 -1.912 0.21
-11.091 14.254 -1.914 0.3
-11.284 14.409 -1.943 0.21
-11.003 14.003 -1.885 0.33
-11.081 14.012 -1.891 0.4
-11.474 14.418 -1.957 0.25
-11.138 13.903 -1.886 0.35
-11.241 13.943 -1.897 0.32
-11.346 13.983 -1.908 0.32
-11.39 13.947 -1.908 0.29
-11.511 14.051 -1.926 0.43
-11.712 14.205 -1.955 0.26
-11.643 14.032 -1.935 0.29
-11.676 13.981 -1.933 0.3
-11.711 13.934 -1.931 0.43
-11.83 13.987 -1.945 0.38
-11.973 14.066 -1.963 0.28
-12.042 14.057 -1.967 0.38
-12.13 14.115 -1.979 0.42
-12.17 14.072 -1.978 0.36
-13.268 15.248 -2.166 0.24
-13.34 15.234 -2.171 0.28
-13.424 15.233 -2.177 0.39
-13.515 15.24 -2.185 0.29
-13.585 15.222 -2.189 0.26
-13.605 15.197 -2.188 0.18
-13.682 15.186 -2.193 0.43
-13.712 15.124 -2.19 0.22
-13.757 15.078 -2.189 0.23
-13.803 15.033 -2.189 0.2
-13.862 15.003 -2.191 0.21
-13.934 14.985 -2.195 0.18
-13.96 14.966 -2.196 0.34
-14.023 14.94 -2.199 0.19
-14.073 14.899 -2.199 0.34
-14.129 14.864 -2.201 0.22
-14.204 14.85 -2.206 0.2
-14.265 14.82 -2.208 0.26
-14.328 14.792 -2.211 0.18
-14.378 14.751 -2.212 0.35
-14.408 14.736 -2.213 0.2
-14.459 14.695 -2.213 0.34
-14.508 14.652 -2.214 0.21
-14.559 14.612 -2.215 0.18
-14.622 14.583 -2.218 0.39
-14.666 14.536 -2.217 0.23
-14.715 14.492 -2.218 0.21
-14.733 14.465 -2.217 0.37
-14.777 14.417 -2.217 0.23
-14.828 14.376 -2.218 0.31
-14.906 14.361 -2.223 0.28
-14.971 14.334 -2.226 0.31
-15.035 14.304 -2.229 0.28
-15.111 14.287 -2.235 0.23
-15.152 14.281 -2.238 0.27
-15.233 14.268 -2.243 0.38
-15.322 14.26 -2.25 0.27
-15.384 14.228 -2.253 0.27
-15.408 14.161 -2.25 0.27
-15.453 14.113 -2.25 0.27
-15.504 14.071 -2.251 0.23
-15.507 13.985 -2.245 0.19
-15.541 13.971 -2.246 0.51
-15.614 13.948 -2.251 0.25
-15.674 13.914 -2.254 0.29
-15.716 13.863 -2.253 0.22
-15.766 13.819 -2.254 0.18
-15.815 13.775 -2.255 0.34
-15.872 13.737 -2.257 0.19
-15.902 13.719 -2.259 0.34
-15.95 13.673 -2.259 0.19
-15.993 13.623 -2.259 0.34
-16.036 13.573 -2.259 0.19
-16.096 13.538 -2.262 0.38
-16.146 13.493 -2.263 0.2
-16.207 13.458 -2.266 0.24
-16.233 13.436 -2.267 0.21
-16.263 13.375 -2.265 0.27
-16.337 13.35 -2.27 0.0
-11.925 9.674 -1.598 0.0
-11.906 9.596 -1.59 0.0
-11.883 9.516 -1.582 0.0
-11.863 9.439 -1.575 0.0
-11.862 9.377 -1.57 0.0
-11.833 9.324 -1.564 0.0
-11.825 9.257 -1.558 0.0
-11.826 9.198 -1.554 0.0
-11.817 9.132 -1.548 0.0
-11.812 9.069 -1.544 0.0
-11.811 9.009 -1.539 0.0
-11.814 8.953 -1.535 0.0
-11.795 8.909 -1.531 0.0
-11.799 8.854 -1.527 0.0
-11.801 8.798 -1.523 0.0
-11.808 8.745 -1.52 0.0
-11.805 8.686 -1.516 0.0
-11.803 8.627 -1.512 0.0
-11.813 8.577 -1.509 0.0
-11.805 8.544 -1.506 0.0
-11.824 8.501 -1.505 0.0
-11.82 8.442 -1.501 0.0
-11.845 8.403 -1.5 0.0
-11.852 8.352 -1.498 0.0
-11.867 8.307 -1.496 0.12
-11.901 8.275 -1.497 0.0
-11.907 8.224 -1.494 0.0
-11.925 8.209 -1.495 0.0
-11.978 8.191 -1.499 0.0
-12.032 8.172 -1.503 0.0
-12.094 8.159 -1.508 0.0
-12.156 8.145 -1.513 0.0
-12.234 8.142 -1.521 0.08
-12.716 8.378 -1.583 0.45
-12.767 8.354 -1.586 0.24
-12.839 8.343 -1.593 0.26
-12.863 8.302 -1.592 0.27
-12.866 8.246 -1.589 0.3
-12.845 8.176 -1.583 0.0
-12.8 8.091 -1.573 0.0
-12.856 8.098 -1.579 0.0
-12.934 8.091 -1.586 0.0
-13.018 8.087 -1.594 0.0
-13.106 8.085 -1.603 0.0
-13.194 8.082 -1.611 0.0
-14.919 8.049 -1.785 0.11
-15.009 8.037 -1.793 0.11
-15.124 8.038 -1.805 0.21
-15.239 8.038 -1.817 0.51
-15.371 8.046 -1.831 0.0
-15.417 8.009 -1.834 0.0
-19.523 10.033 -2.37 0.18
-19.565 9.977 -2.371 0.19
-19.614 9.924 -2.373 0.21
-19.636 9.858 -2.372 0.18
-19.648 9.787 -2.37 0.34
-19.719 9.745 -2.375 0.18
-19.831 9.762 -2.388 0.38
-19.954 9.745 -2.4 0.19
-20.092 9.734 -2.414 0.36
-20.224 9.72 -2.427 0.22
-20.348 9.701 -2.439 0.26
-20.454 9.673 -2.449 0.27
-20.527 9.629 -2.454 0.27
-20.483 9.53 -2.445 0.23
-20.304 9.407 -2.42 0.18
-20.243 9.302 -2.408 0.21
-20.198 9.204 -2.398 0.18
-20.169 9.115 -2.391 0.21
-20.123 9.018 -2.381 0.19
-20.108 8.935 -2.376 0.29
-20.1 8.856 -2.371 0.21
-20.075 8.807 -2.366 0.18
-20.054 8.723 -2.36 0.21
-20.043 8.643 -2.355 0.17
-20.024 8.561 -2.349 0.32
-20.003 8.478 -2.343 0.2
-19.973 8.391 -2.336 0.18
-19.961 8.312 -2.331 0.21
-19.952 8.235 -2.327 0.19
-19.947 8.196 -2.325 0.22
-19.936 8.118 -2.32 0.2
-19.931 8.043 -2.316 0.23
-19.923 7.967 -2.312 0.18
-19.908 7.889 -2.307 0.33
-19.888 7.809 -2.301 0.18
-19.882 7.77 -2.299 0.35
-19.877 7.696 -2.295 0.18
-19.893 7.631 -2.294 0.36
-19.91 7.565 -2.293 0.19
-19.915 7.496 -2.291 0.34
-19.933 7.431 -2.29 0.18
-19.926 7.357 -2.287 0.35
-19.919 7.319 -2.284 0.2
-19.906 7.244 -2.28 0.23
-19.884 7.165 -2.274 0.2
-19.862 7.086 -2.269 0.21
-19.818 7.001 -2.261 0.18
-19.747 6.905 -2.249 0.21
-19.761 6.841 -2.248 0.32
-19.752 6.768 -2.244 0.19
-19.733 6.727 -2.241 0.3
-19.731 6.657 -2.238 0.2
-19.71 6.581 -2.233 0.17
-19.706 6.511 -2.23 0.18
-19.693 6.438 -2.225 0.18
-19.692 6.37 -2.223 0.18
-19.682 6.298 -2.219 0.17
-19.661 6.257 -2.215 0.16
-19.666 6.191 -2.214 0.16
-19.64 6.115 -2.208 0.1
-19.642 6.048 -2.206 0.15
-19.63 5.977 -2.202 0.16
-19.619 5.906 -2.199 0.1
-19.612 5.837 -2.195 0.15
-19.585 5.762 -2.19 0.16
-19.569 5.723 -2.187 0.1
-19.564 5.655 -2.184 0.16
-19.519 5.576 -2.176 0.09
-19.504 5.505 -2.172 0.14
-19.475 5.431 -2.167 0.23
-19.444 5.357 -2.161 0.26
-19.422 5.285 -2.156 0.19
-19.402 5.247 -2.153 0.18
-19.388 5.177 -2.149 0.31
-19.377 5.109 -2.146 0.21
-19.372 5.043 -2.143 0.17
-19.336 4.969 -2.137 0.13
-19.33 4.902 -2.135 0.18
-19.324 4.836 -2.132 0.12
-19.305 4.799 -2.129 0.16
-19.302 4.734 -2.127 0.27
-19.284 4.666 -2.123 0.26
-19.279 4.6 -2.12 0.25
-19.259 4.532 -2.116 0.25
-19.252 4.466 -2.114 0.26
-19.221 4.395 -2.108 0.25
-19.21 4.329 -2.105 0.26
-19.188 4.293 -2.102 0.25
-19.152 4.221 -2.096 0.26
-19.133 4.154 -2.092 0.19
-19.101 4.084 -2.087 0.18
-19.048 4.01 -2.079 0.2
-19.037 3.946 -2.076 0.26
-19.037 3.883 -2.075 0.38
-19.113 3.868 -2.083 0.45
-19.147 3.812 -2.086 0.18
-19.042 3.729 -2.072 0.37
-19.024 3.663 -2.068 0.23
-19.049 3.606 -2.07 0.18
-19.072 3.548 -2.071 0.4
-19.074 3.487 -2.07 0.24
-19.081 3.426 -2.069 0.19
-19.094 3.397 -2.07 0.4
-19.108 3.338 -2.071 0.23
-19.123 3.279 -2.071 0.2
-19.133 3.219 -2.071 0.38
-19.141 3.158 -2.071 0.23
-19.151 3.098 -2.071 0.19
-19.164 3.038 -2.072 0.39
-19.161 3.007 -2.071 0.22
-19.172 2.947 -2.071 0.2
-19.178 2.886 -2.07 0.38
-19.179 2.825 -2.069 0.23
-19.18 2.764 -2.069 0.2
-19.188 2.703 -2.069 0.38
-19.179 2.641 -2.066 0.19
-19.191 2.611 -2.067 0.37
-19.181 2.549 -2.065 0.23
-19.181 2.487 -2.064 0.2
-19.197 2.428 -2.065 0.38
-19.185 2.365 -2.063 0.23
-19.176 2.303 -2.061 0.17
-19.191 2.244 -2.062 0.39
-19.179 2.212 -2.06 0.25
-19.186 2.152 -2.06 0.19
-19.197 2.092 -2.061 0.41
-19.193 2.03 -2.059 0.23
-19.203 1.971 -2.06 0.26
-19.208 1.91 -2.06 0.25
-19.215 1.85 -2.06 0.21
-19.217 1.789 -2.059 0.38
-19.224 1.759 -2.06 0.23
-19.225 1.699 -2.059 0.2
-19.235 1.638 -2.06 0.36
-19.238 1.578 -2.06 0.19
-19.243 1.517 -2.06 0.37
-19.241 1.456 -2.059 0.2
-19.246 1.396 -2.059 0.36
-19.242 1.365 -2.058 0.2
-19.244 1.305 -2.058 0.36
-19.24 1.244 -2.057 0.18
-19.244 1.183 -2.057 0.35
-19.232 1.122 -2.055 0.19
-19.225 1.061 -2.054 0.35
-19.215 1.0 -2.052 0.16
-19.2 0.969 -2.051 0.31
-19.213 0.909 -2.052 0.34
-19.236 0.849 -2.054 0.26
-19.246 0.789 -2.055 0.19
-19.265 0.73 -2.057 0.22
-19.265 0.669 -2.057 0.18
-19.255 0.608 -2.055 0.13
-19.267 0.548 -2.056 0.17
-19.289 0.518 -2.059 0.29
-19.309 0.458 -2.061 0.27
-19.32 0.398 -2.062 0.26
-19.321 0.337 -2.062 0.25
-19.324 0.276 -2.062 0.26
-19.189 0.244 -2.047 0.11
-19.178 0.184 -2.045 0.16
-19.171 0.123 -2.044 0.27
-19.143 0.093 -2.041 0.2
-19.119 0.033 -2.038 0.18
-19.1 -0.027 -2.036 0.32
-19.08 -0.087 -2.034 0.18
-19.059 -0.147 -2.031 0.36
-19.049 -0.207 -2.03 0.23
-19.054 -0.267 -2.031 0.2
-19.055 -0.327 -2.031 0.36
-19.041 -0.356 -2.029 0.21
-19.041 -0.416 -2.03 0.2
-19.04 -0.476 -2.03 0.38
-19.027 -0.536 -2.028 0.19
-19.019 -0.595 -2.028 0.38
-19.021 -0.655 -2.028 0.2
-19.001 -0.714 -2.026 0.23
-18.996 -0.744 -2.026 0.21
-18.993 -0.803 -2.026 0.22
-19.022 -0.865 -2.029 0.18
-19.006 -0.924 -2.028 0.13
-19.017 -0.984 -2.029 0.18
-19.031 -1.045 -2.031 0.28
-19.02 -1.104 -2.03 0.26
-19.022 -1.134 -2.031 0.25
-19.024 -1.194 -2.032 0.26
-19.013 -1.254 -2.031 0.26
-18.995 -1.312 -2.029 0.11
-18.983 -1.371 -2.028 0.18
-18.964 -1.43 -2.026 0.3
-18.94 -1.488 -2.024 0.18
-18.912 -1.516 -2.021 0.36
-18.901 -1.575 -2.02 0.22
-18.896 -1.634 -2.02 0.18
-18.913 -1.695 -2.023 0.39
-18.965 -1.76 -2.03 0.22
-19.054 -1.829 -2.041 0.2
-19.074 -1.891 -2.044 0.38
-19.085 -1.953 -2.046 0.21
-18.663 -1.94 -1.997 0.34
-18.306 -1.961 -1.955 0.2
-18.278 -2.016 -1.953 0.36
-18.301 -2.077 -1.956 0.2
-18.438 -2.151 -1.973 0.26
-18.433 -2.209 -1.973 0.38
-18.553 -2.282 -1.988 0.22
-18.705 -2.331 -2.007 0.2
-18.65 -2.384 -2.001 0.45
-18.621 -2.439 -1.999 0.19
-18.666 -2.505 -2.005 0.25
-18.707 -2.57 -2.011 0.21
-18.77 -2.639 -2.019 0.29
-18.726 -2.693 -2.015 0.25
-18.763 -2.728 -2.02 0.24
-18.753 -2.787 -2.019 0.25
-18.691 -2.838 -2.013 0.19
-18.713 -2.901 -2.017 0.17
-18.696 -2.959 -2.016 0.13
-18.491 -2.986 -1.993 0.14
-18.43 -3.036 -1.987 0.18
-18.043 -3.002 -1.941 0.0
-17.43 -2.957 -1.87 0.0
-17.143 -2.964 -1.837 0.03
-18.914 -3.329 -2.048 0.08
-18.919 -3.391 -2.05 0.15
-18.899 -3.449 -2.049 0.1
-18.927 -3.515 -2.054 0.14
-18.957 -3.582 -2.059 0.23
-18.977 -3.617 -2.062 0.11
-18.916 -3.667 -2.056 0.15
-18.897 -3.725 -2.055 0.11
-18.947 -3.797 -2.062 0.16
-18.848 -3.839 -2.052 0.3
-18.818 -3.894 -2.05 0.2
-18.835 -3.959 -2.053 0.16
-18.792 -3.981 -2.049 0.33
-18.754 -4.035 -2.046 0.19
-18.73 -4.091 -2.044 0.13
-18.715 -4.15 -2.044 0.17
-18.655 -4.198 -2.039 0.29
-18.634 -4.255 -2.038 0.11
-18.613 -4.311 -2.037 0.16
-18.596 -4.338 -2.036 0.31
-18.59 -4.399 -2.036 0.19
-18.59 -4.46 -2.038 0.18
-18.419 -4.481 -2.019 0.13
-17.975 -4.433 -1.967 0.18
-18.088 -4.521 -1.983 0.3
-17.839 -4.519 -1.954 0.2
-17.565 -4.509 -1.923 0.2
-17.242 -4.455 -1.885 0.0
-16.957 -4.439 -1.852 0.0
-18.278 -4.905 -2.016 0.16
-18.188 -4.943 -2.006 0.34
-18.126 -4.987 -2.001 0.19
-17.948 -4.999 -1.981 0.32
-17.813 -4.992 -1.966 0.16
-17.79 -5.046 -1.965 0.36
-17.618 -5.057 -1.946 0.23
-17.558 -5.099 -1.94 0.2
-17.545 -5.156 -1.941 0.3
-17.39 -5.17 -1.924 0.19
-17.326 -5.21 -1.918 0.19
-17.356 -5.249 -1.923 0.39
-17.343 -5.304 -1.923 0.24
-17.395 -5.38 -1.932 0.27
-17.378 -5.434 -1.932 0.25
-17.414 -5.506 -1.938 0.16
-17.468 -5.583 -1.947 0.48
-17.286 -5.585 -1.927 0.24
-17.48 -5.678 -1.952 0.24
-17.396 -5.711 -1.943 0.21
-17.372 -5.764 -1.943 0.42
-17.335 -5.812 -1.94 0.22
-17.322 -5.868 -1.941 0.25
-17.093 -5.851 -1.915 0.17
-16.982 -5.873 -1.904 0.23
-16.968 -5.928 -1.904 0.2
-16.955 -5.953 -1.904 0.12
-16.868 -5.982 -1.895 0.18
-16.748 -5.999 -1.883 0.3
-16.571 -5.995 -1.863 0.2
-16.41 -5.995 -1.845 0.18
-16.249 -5.995 -1.828 0.3
-16.076 -5.988 -1.808 0.19
-15.865 -5.939 -1.783 0.18
-15.683 -5.927 -1.763 0.0
-15.571 -5.941 -1.751 0.0
-15.432 -5.944 -1.736 0.09
-17.171 -6.672 -1.957 0.25
-17.125 -6.716 -1.953 0.27
-17.048 -6.748 -1.946 0.21
-17.028 -6.771 -1.945 0.39
-17.001 -6.822 -1.945 0.24
-16.965 -6.87 -1.943 0.23
-16.938 -6.921 -1.942 0.25
-16.912 -6.973 -1.942 0.3
-16.898 -7.029 -1.943 0.29
-16.883 -7.085 -1.943 0.34
-16.883 -7.116 -1.945 0.3
-16.888 -7.181 -1.948 0.32
-16.889 -7.244 -1.951 0.3
-16.871 -7.299 -1.952 0.27
-16.77 -7.318 -1.942 0.31
-16.803 -7.395 -1.949 0.29
-16.724 -7.423 -1.942 0.24
-16.649 -7.453 -1.936 0.39
-16.525 -7.429 -1.921 0.22
-16.268 -7.375 -1.891 0.21
-16.254 -7.431 -1.892 0.22
-16.196 -7.466 -1.888 0.18
-16.095 -7.481 -1.878 0.35
-15.966 -7.482 -1.864 0.22
-15.841 -7.484 -1.851 0.2
-15.715 -7.455 -1.836 0.38
-15.576 -7.45 -1.821 0.19
-15.462 -7.455 -1.81 0.38
-15.329 -7.45 -1.795 0.19
-15.163 -7.429 -1.777 0.36
-15.018 -7.417 -1.761 0.22
-14.913 -7.423 -1.75 0.0
-14.781 -7.416 -1.736 0.0
-16.143 -8.192 -1.919 0.16
-16.076 -8.222 -1.914 0.41
-15.996 -8.244 -1.907 0.29
-15.876 -8.246 -1.894 0.29
-15.706 -8.221 -1.875 0.3
-15.615 -8.236 -1.867 0.3
-15.505 -8.209 -1.854 0.28
-15.386 -8.208 -1.842 0.26
-15.264 -8.205 -1.829 0.26
-15.158 -8.21 -1.818 0.26
-15.04 -8.207 -1.806 0.29
-14.93 -8.208 -1.795 0.27
-14.807 -8.201 -1.782 0.29
-14.716 -8.181 -1.771 0.31
-14.603 -8.179 -1.76 0.29
-14.496 -8.179 -1.749 0.31
-14.384 -8.176 -1.737 0.29
-14.284 -8.179 -1.727 0.3
-14.186 -8.182 -1.717 0.33
-14.084 -8.183 -1.707 0.32
-14.051 -8.193 -1.704 0.22
-14.116 -8.29 -1.717 0.26
-14.213 -8.407 -1.733 0.31
-14.168 -8.44 -1.731 0.3
-14.109 -8.466 -1.726 0.38
-14.012 -8.468 -1.717 0.34
-14.113 -8.589 -1.734 0.29
-14.047 -8.579 -1.727 0.34
-13.974 -8.595 -1.721 0.39
-13.927 -8.627 -1.718 0.32
-13.758 -8.582 -1.698 0.38
-13.761 -8.644 -1.703 0.37
-13.744 -8.694 -1.704 0.4
-13.683 -8.716 -1.699 0.36
-13.595 -8.72 -1.691 0.31
-13.463 -8.665 -1.674 0.41
-13.409 -8.69 -1.671 0.3
-13.322 -8.693 -1.662 0.43
-13.289 -8.732 -1.662 0.36
-13.272 -8.78 -1.663 0.45
-13.264 -8.835 -1.666 0.36
-13.177 -8.837 -1.657 0.39
-13.118 -8.828 -1.651 0.39
-13.067 -8.853 -1.648 0.38
-13.013 -8.877 -1.644 0.34
-12.974 -8.91 -1.643 0.37
-12.921 -8.933 -1.639 0.43
-12.816 -8.921 -1.628 0.39
-12.826 -8.987 -1.634 0.4
-12.795 -8.996 -1.631 0.37
-12.743 -9.019 -1.628 0.34
-12.697 -9.046 -1.625 0.37
-12.611 -9.046 -1.617 0.41
-12.567 -9.074 -1.615 0.38
-12.41 -9.02 -1.596 0.32
-12.386 -9.062 -1.597 0.4
-12.407 -9.107 -1.602 0.37
-12.375 -9.144 -1.601 0.35
-12.305 -9.152 -1.595 0.41
-12.198 -9.133 -1.584 0.36
-12.161 -9.165 -1.583 0.35
-12.128 -9.199 -1.582 0.42
-12.085 -9.227 -1.58 0.41
-12.043 -9.225 -1.576 0.26
-11.973 -9.231 -1.57 0.46
-11.889 -9.226 -1.562 0.38
-11.86 -9.264 -1.562 0.38
-11.82 -9.292 -1.56 0.43
-11.493 -9.095 -1.516 0.23
-11.716 -9.331 -1.554 0.5
-11.71 -9.386 -1.557 0.4
-11.711 -9.417 -1.559 0.33
-11.65 -9.429 -1.555 0.39
-11.573 -9.426 -1.548 0.4
-11.574 -9.488 -1.552 0.34
-11.538 -9.519 -1.551 0.41
-11.474 -9.527 -1.546 0.38
-11.363 -9.496 -1.534 0.35
-11.394 -9.552 -1.541 0.37
-11.366 -9.589 -1.541 0.38
-11.328 -9.618 -1.54 0.44
-11.272 -9.632 -1.536 0.4
-11.239 -9.665 -1.535 0.33
-11.153 -9.652 -1.527 0.32
-11.118 -9.683 -1.526 0.38
-11.054 -9.659 -1.519 0.4
-10.964 -9.641 -1.509 0.41
-11.105 -9.827 -1.536 0.38
-11.067 -9.855 -1.535 0.31
-11.063 -9.913 -1.539 0.4
-10.986 -9.907 -1.532 0.36
-10.929 -9.919 -1.528 0.38
-10.834 -9.894 -1.518 0.37
-10.883 -9.97 -1.528 0.39
-10.829 -9.984 -1.524 0.39
-10.844 -10.061 -1.532 0.4
-10.766 -10.052 -1.524 0.31
-10.729 -10.08 -1.524 0.46
-10.587 -10.011 -1.506 0.27
-10.696 -10.176 -1.528 0.31
-10.69 -10.203 -1.53 0.44
-10.551 -10.135 -1.513 0.33
-10.653 -10.296 -1.534 0.38
-10.574 -10.285 -1.527 0.4
-10.517 -10.293 -1.523 0.32
-10.405 -10.248 -1.51 0.45
-10.315 -10.224 -1.5 0.3
-10.427 -10.367 -1.521 0.4
-10.365 -10.37 -1.517 0.4
-10.336 -10.407 -1.517 0.34
-10.309 -10.445 -1.518 0.36
-10.237 -10.438 -1.512 0.4
-10.199 -10.464 -1.511 0.39
-10.177 -10.508 -1.513 0.38
-10.147 -10.509 -1.51 0.39
-10.064 -10.49 -1.502 0.38
-9.986 -10.474 -1.494 0.35
-9.983 -10.537 -1.499 0.4
-9.901 -10.516 -1.491 0.35
-9.84 -10.518 -1.486 0.43
-9.833 -10.577 -1.491 0.37
-9.757 -10.528 -1.481 0.28
-9.689 -10.521 -1.474 0.53
-9.611 -10.503 -1.467 0.26
-9.656 -10.618 -1.48 0.3
-9.674 -10.706 -1.489 0.46
-9.578 -10.667 -1.478 0.39
-9.594 -10.752 -1.487 0.4
-9.506 -10.721 -1.478 0.36
-9.477 -10.722 -1.475 0.27
-9.374 -10.673 -1.463 0.48
-9.417 -10.791 -1.477 0.39
-9.411 -10.852 -1.482 0.38
-9.378 -10.883 -1.482 0.3
-9.394 -10.971 -1.491 0.48
-9.214 -10.83 -1.465 0.31
-9.206 -10.855 -1.466 0.36
-9.203 -10.92 -1.472 0.36
-9.129 -10.902 -1.465 0.31
-9.051 -10.878 -1.457 0.38
-9.032 -10.925 -1.46 0.37
-9.023 -10.984 -1.464 0.38
-8.944 -10.959 -1.456 0.43
-8.932 -10.979 -1.457 0.38
-8.938 -11.056 -1.464 0.32
-8.92 -11.106 -1.468 0.33
-8.87 -11.115 -1.465 0.42
-8.821 -11.124 -1.462 0.36
-8.664 -10.998 -1.439 0.41
-8.724 -11.145 -1.457 0.34
-8.624 -11.09 -1.445 0.42
-8.567 -11.053 -1.437 0.38
-8.519 -11.063 -1.435 0.36
-8.515 -11.129 -1.441 0.42
-8.481 -11.157 -1.441 0.35
-8.44 -11.176 -1.44 0.48
-8.411 -11.21 -1.441 0.34
-8.387 -11.215 -1.44 0.41
-8.283 -11.149 -1.426 0.28
-8.261 -11.193 -1.429 0.45
-8.253 -11.255 -1.434 0.33
-8.282 -11.369 -1.447 0.43
-8.111 -11.209 -1.42 0.39
-8.148 -11.336 -1.435 0.36
-8.095 -11.299 -1.427 0.4
-8.058 -11.322 -1.427 0.43
-8.044 -11.379 -1.431 0.43
-7.981 -11.365 -1.426 0.28
-8.006 -11.476 -1.438 0.52
-7.816 -11.281 -1.407 0.3
-7.758 -11.273 -1.402 0.25
-7.841 -11.469 -1.427 0.35
-7.876 -11.558 -1.438 0.37
-7.817 -11.55 -1.433 0.34
-7.671 -11.412 -1.41 0.38
-7.721 -11.565 -1.428 0.33
-7.664 -11.557 -1.424 0.42
-7.641 -11.601 -1.426 0.39
-7.579 -11.587 -1.421 0.36
-7.587 -11.639 -1.427 0.3
-7.503 -11.589 -1.416 0.38
-7.494 -11.656 -1.422 0.44
-7.405 -11.598 -1.411 0.38
-7.343 -11.581 -1.405 0.37
-7.369 -11.703 -1.419 0.4
-7.333 -11.728 -1.419 0.34
-7.296 -11.709 -1.415 0.46
-7.271 -11.75 -1.418 0.35
-7.238 -11.78 -1.419 0.36
-7.215 -11.826 -1.422 0.38
-7.142 -11.789 -1.414 0.38
-7.148 -11.883 -1.424 0.36
-7.123 -11.926 -1.426 0.25
-7.117 -12.001 -1.434 0.44
-7.08 -11.982 -1.429 0.37
-6.988 -11.911 -1.417 0.37
-6.955 -11.942 -1.418 0.4
-6.867 -11.876 -1.406 0.29
-6.757 -11.772 -1.389 0.36
-6.794 -11.922 -1.407 0.4
-6.687 -11.821 -1.39 0.29
-6.647 -11.793 -1.385 0.18
-6.558 -11.722 -1.373 0.52
-6.573 -11.835 -1.385 0.39
-6.547 -11.876 -1.388 0.31
-6.52 -11.916 -1.39 0.27
-6.485 -11.94 -1.391 0.41
-6.483 -12.027 -1.4 0.3
-6.501 -12.105 -1.409 0.4
-6.475 -12.148 -1.412 0.27
-6.365 -12.033 -1.394 0.29
-6.312 -12.025 -1.39 0.37
-6.351 -12.191 -1.409 0.26
-6.435 -12.447 -1.441 0.27
-6.185 -12.104 -1.391 0.58
-6.224 -12.274 -1.411 0.25
-6.189 -12.301 -1.412 0.24
-6.148 -12.317 -1.412 0.16
-6.16 -12.437 -1.425 0.47
-6.01 -12.232 -1.396 0.24
-5.994 -12.297 -1.402 0.23
-6.084 -12.53 -1.431 0.28
-6.052 -12.563 -1.433 0.29
-6.009 -12.577 -1.432 0.32
-5.949 -12.553 -1.426 0.27
-5.926 -12.605 -1.431 0.31
-5.881 -12.613 -1.429 0.3
-5.832 -12.612 -1.427 0.28
-5.806 -12.607 -1.425 0.3
-5.694 -12.468 -1.405 0.24
-5.713 -12.612 -1.421 0.29
-5.68 -12.646 -1.423 0.3
-5.634 -12.649 -1.421 0.29
-5.59 -12.656 -1.42 0.29
-5.543 -12.659 -1.418 0.3
-5.496 -12.66 -1.416 0.31
-5.465 -12.643 -1.413 0.27
-5.435 -12.682 -1.415 0.29
-5.377 -12.655 -1.41 0.28
-5.34 -12.68 -1.411 0.27
-5.297 -12.689 -1.41 0.29
-5.249 -12.687 -1.408 0.27
-5.208 -12.7 -1.407 0.31
-5.187 -12.706 -1.407 0.29
-5.141 -12.708 -1.405 0.29
-5.094 -12.705 -1.403 0.33
-5.039 -12.684 -1.398 0.27
-5.009 -12.724 -1.401 0.26
-4.97 -12.742 -1.401 0.31
-4.927 -12.75 -1.4 0.29
-4.901 -12.743 -1.398 0.29
-4.859 -12.754 -1.398 0.3
-4.815 -12.759 -1.397 0.3
-4.776 -12.777 -1.397 0.29
-4.73 -12.775 -1.395 0.3
-4.684 -12.774 -1.393 0.3
-4.639 -12.777 -1.391 0.28
-4.619 -12.784 -1.391 0.29
-4.575 -12.787 -1.39 0.27
-4.53 -12.787 -1.388 0.28
-4.488 -12.797 -1.388 0.3
-4.443 -12.798 -1.386 0.31
-4.4 -12.805 -1.385 0.29
-4.357 -12.809 -1.384 0.27
-4.339 -12.823 -1.385 0.28
-4.297 -12.831 -1.384 0.3
-4.253 -12.833 -1.383 0.3
-4.208 -12.833 -1.381 0.24
-4.171 -12.854 -1.382 0.36
-4.123 -12.846 -1.38 0.29
-4.081 -12.854 -1.379 0.28
-4.06 -12.856 -1.378 0.3
-4.016 -12.858 -1.377 0.29
-3.975 -12.868 -1.377 0.28
-3.926 -12.854 -1.374 0.3
-3.889 -12.878 -1.375 0.27
-3.848 -12.888 -1.375 0.29
-3.809 -12.904 -1.375 0.29
-3.764 -12.902 -1.374 0.2
-3.744 -12.908 -1.374 0.43
-3.7 -12.908 -1.372 0.3
-3.651 -12.889 -1.368 0.25
-3.616 -12.92 -1.371 0.29
-3.573 -12.924 -1.37 0.29
-3.527 -12.916 -1.368 0.3
-3.487 -12.929 -1.368 0.29
-3.464 -12.923 -1.366 0.29
-3.421 -12.924 -1.365 0.28
-3.379 -12.931 -1.365 0.28
-3.334 -12.926 -1.363 0.29
-3.296 -12.946 -1.364 0.29
-3.253 -12.948 -1.363 0.29
-3.208 -12.941 -1.361 0.29
-3.188 -12.946 -1.361 0.28
-3.147 -12.954 -1.361 0.31
-3.103 -12.951 -1.359 0.28
-3.06 -12.949 -1.358 0.29
-3.016 -12.945 -1.356 0.29
-2.971 -12.937 -1.354 0.3
-2.929 -12.942 -1.354 0.29
-2.908 -12.941 -1.353 0.29
-2.867 -12.95 -1.353 0.28
-2.823 -12.941 -1.351 0.28
-2.781 -12.944 -1.35 0.34
-2.739 -12.949 -1.35 0.3
-2.696 -12.948 -1.348 0.29
-2.656 -12.958 -1.349 0.29
-2.636 -12.966 -1.349 0.29
-2.591 -12.949 -1.346 0.27
-2.553 -12.973 -1.348 0.28
-2.513 -12.987 -1.349 0.29
-2.468 -12.971 -1.346 0.27
-2.161 -11.572 -1.178 0.35
-2.14 -11.66 -1.188 0.26
-2.345 -12.988 -1.345 0.3
-2.323 -12.986 -1.345 0.29
-2.28 -12.977 -1.343 0.3
-2.237 -12.977 -1.342 0.27
-2.195 -12.974 -1.341 0.3
-2.155 -12.985 -1.341 0.29
-2.113 -12.987 -1.341 0.29
-2.073 -12.996 -1.341 0.29
-2.05 -12.983 -1.339 0.29
-2.009 -12.986 -1.338 0.28
-1.97 -13.008 -1.34 0.3
-1.927 -12.998 -1.338 0.29
-1.886 -13.002 -1.338 0.3
-1.844 -13.002 -1.338 0.29
-1.802 -13.002 -1.337 0.28
-1.782 -13.003 -1.337 0.29
-1.739 -12.997 -1.335 0.29
-1.697 -12.988 -1.334 0.29
-1.655 -12.988 -1.333 0.27
-1.614 -12.991 -1.333 0.27
-1.573 -12.994 -1.332 0.29
-1.531 -12.991 -1.332 0.31
-1.512 -13.001 -1.332 0.27
-1.469 -12.99 -1.331 0.3
-1.427 -12.985 -1.329 0.3
-1.384 -12.969 -1.327 0.2
-1.056 -10.247 -1.006 0.36
-1.019 -10.211 -1.002 0.34
-0.981 -10.147 -0.994 0.36
-0.954 -10.038 -0.981 0.34
-0.919 -10.003 -0.976 0.32
-0.886 -9.996 -0.975 0.42
-0.85 -9.946 -0.969 0.22
-0.82 -9.954 -0.97 0.32
-0.788 -9.951 -0.969 0.43
-0.757 -9.955 -0.969 0.31
-0.741 -9.96 -0.97 0.44
-0.709 -9.953 -0.968 0.35
-0.677 -9.941 -0.967 0.33
-0.646 -9.939 -0.966 0.35
-0.614 -9.939 -0.966 0.34
-0.584 -9.957 -0.968 0.32
-0.553 -9.969 -0.969 0.41
-0.538 -9.983 -0.971 0.3
-0.507 -9.993 -0.972 0.35
-0.477 -10.018 -0.974 0.33
-0.448 -10.073 -0.981 0.32
-0.42 -10.144 -0.989 0.37
-0.501 -12.91 -1.313 0.29
-0.459 -12.88 -1.309 0.26
