# .PCD v.7 - Point Cloud Data file format
VERSION .7
FIELDS x y z intensity
SIZE 4 4 4 4
TYPE F F F F
COUNT 1 1 1 1
WIDTH 1956
HEIGHT 1
VIEWPOINT 0 0 0 1 0 0 0
POINTS 1956
DATA ascii
-1.897 -3.76 -1.756 0.36
-1.893 -3.781 -1.763 0.46
-1.867 -3.761 -1.75 0.29
-1.857 -3.77 -1.752 0.26
-1.846 -3.777 -1.753 0.28
-1.841 -3.796 -1.759 0.32
-1.818 -3.779 -1.748 0.34
-1.815 -3.788 -1.751 0.28
-1.798 -3.784 -1.746 0.36
-1.792 -3.801 -1.752 0.37
-1.785 -3.818 -1.758 0.34
-1.77 -3.816 -1.754 0.27
-1.762 -3.831 -1.758 0.31
-1.743 -3.822 -1.751 0.28
-1.729 -3.806 -1.742 0.25
-1.721 -3.82 -1.746 0.37
-1.712 -3.832 -1.749 0.3
-1.695 -3.827 -1.745 0.32
-1.683 -3.833 -1.745 0.39
-1.678 -3.855 -1.753 0.31
-1.674 -3.878 -1.762 0.36
-1.67 -3.886 -1.764 0.32
-1.653 -3.88 -1.758 0.29
-1.637 -3.876 -1.754 0.23
-1.622 -3.873 -1.75 0.32
-1.595 -3.844 -1.734 0.34
-1.581 -3.844 -1.732 0.41
-1.579 -3.875 -1.744 0.41
-1.567 -3.88 -1.744 0.26
-1.558 -3.874 -1.74 0.34
-1.541 -3.868 -1.735 0.44
-1.512 -3.831 -1.715 0.33
-1.499 -3.832 -1.713 0.3
-1.487 -3.838 -1.714 0.3
-1.473 -3.838 -1.711 0.29
-1.462 -3.844 -1.712 0.3
-1.457 -3.848 -1.713 0.29
-1.445 -3.855 -1.714 0.35
-1.43 -3.852 -1.71 0.28
-1.422 -3.867 -1.715 0.29
-1.409 -3.87 -1.715 0.29
-1.395 -3.869 -1.712 0.3
-1.385 -3.879 -1.715 0.3
-1.381 -3.888 -1.718 0.34
-1.367 -3.885 -1.715 0.32
-1.361 -3.906 -1.723 0.29
-1.359 -3.94 -1.736 0.25
-1.344 -3.939 -1.734 0.22
-1.321 -3.911 -1.719 0.3
-1.294 -3.871 -1.698 0.3
-1.303 -3.92 -1.72 0.37
-1.294 -3.933 -1.724 0.36
-1.282 -3.939 -1.725 0.35
-1.272 -3.948 -1.728 0.34
-1.252 -3.931 -1.718 0.37
-1.243 -3.945 -1.723 0.38
-1.228 -3.939 -1.718 0.38
-1.224 -3.948 -1.721 0.4
-1.213 -3.957 -1.723 0.33
-1.201 -3.961 -1.723 0.32
-1.184 -3.95 -1.717 0.35
-1.17 -3.949 -1.715 0.34
-1.161 -3.963 -1.719 0.34
-1.136 -3.926 -1.701 0.33
-1.135 -3.944 -1.708 0.4
-1.12 -3.94 -1.705 0.43
-1.101 -3.921 -1.694 0.35
-1.094 -3.942 -1.702 0.26
-1.082 -3.947 -1.703 0.32
-1.069 -3.947 -1.702 0.33
-1.059 -3.961 -1.706 0.36
-1.05 -3.95 -1.701 0.3
-1.033 -3.939 -1.694 0.36
-1.022 -3.948 -1.697 0.28
-1.026 -4.013 -1.725 0.45
-0.999 -3.961 -1.7 0.27
-0.986 -3.961 -1.698 0.27
-0.974 -3.964 -1.698 0.39
-0.961 -3.967 -1.698 0.36
-0.961 -3.993 -1.71 0.39
-0.951 -4.005 -1.714 0.32
-0.933 -3.989 -1.705 0.32
-0.93 -4.033 -1.723 0.33
-0.92 -4.046 -1.728 0.25
-0.904 -4.035 -1.722 0.29
-0.892 -4.039 -1.723 0.36
-0.884 -4.035 -1.72 0.37
-0.868 -4.022 -1.713 0.34
-0.854 -4.019 -1.71 0.43
-0.841 -4.019 -1.709 0.44
-0.831 -4.034 -1.715 0.34
-0.819 -4.042 -1.717 0.32
-0.806 -4.041 -1.715 0.34
-0.805 -4.069 -1.728 0.51
-0.795 -4.082 -1.732 0.31
-0.771 -4.032 -1.709 0.3
-0.757 -4.028 -1.706 0.29
-0.744 -4.026 -1.704 0.27
-0.733 -4.038 -1.708 0.28
-0.72 -4.04 -1.708 0.27
-0.712 -4.029 -1.702 0.3
-0.698 -4.027 -1.701 0.28
-0.686 -4.033 -1.702 0.29
-0.672 -4.028 -1.699 0.28
-0.66 -4.028 -1.698 0.27
-0.65 -4.046 -1.706 0.27
-0.637 -4.047 -1.705 0.27
-0.628 -4.037 -1.7 0.26
-0.619 -4.057 -1.708 0.28
-0.608 -4.07 -1.713 0.26
-0.593 -4.059 -1.707 0.38
-0.579 -4.053 -1.704 0.33
-0.566 -4.053 -1.703 0.35
-0.552 -4.048 -1.7 0.33
-0.547 -4.054 -1.702 0.31
-0.534 -4.054 -1.702 0.37
-0.522 -4.063 -1.705 0.43
-0.511 -4.079 -1.711 0.35
-0.497 -4.07 -1.706 0.44
-0.48 -4.041 -1.693 0.34
-0.468 -4.049 -1.696 0.34
-0.461 -4.039 -1.691 0.36
-0.447 -4.032 -1.687 0.39
-0.435 -4.038 -1.689 0.38
-0.424 -4.054 -1.696 0.33
-0.41 -4.05 -1.693 0.27
-0.399 -4.059 -1.697 0.26
-0.385 -4.056 -1.695 0.37
-0.371 -4.041 -1.688 0.41
-0.364 -4.031 -1.683 0.29
-0.348 -4.001 -1.669 0.37
-0.336 -4.006 -1.671 0.34
-0.326 -4.039 -1.685 0.39
-0.314 -4.05 -1.689 0.3
-0.301 -4.047 -1.688 0.36
-0.29 -4.073 -1.699 0.32
-0.284 -4.072 -1.698 0.43
-0.272 -4.082 -1.702 0.33
-0.259 -4.083 -1.702 0.23
-0.245 -4.06 -1.692 0.28
-0.232 -4.059 -1.691 0.26
-0.214 -3.983 -1.657 0.16
-0.202 -3.987 -1.658 0.18
-0.197 -4.009 -1.668 0.18
-0.186 -4.048 -1.685 0.23
-0.174 -4.063 -1.692 0.33
-0.161 -4.057 -1.689 0.3
-0.151 -4.105 -1.71 0.31
-0.137 -4.081 -1.699 0.36
-0.123 -4.054 -1.687 0.4
-0.117 -4.064 -1.691 0.42
-0.105 -4.095 -1.705 0.37
-0.092 -4.101 -1.707 0.31
-0.08 -4.116 -1.714 0.28
-0.067 -4.118 -1.715 0.35
-0.054 -4.096 -1.705 0.33
-0.04 -4.078 -1.697 0.34
-0.034 -4.069 -1.693 0.39
-0.021 -4.08 -1.697 0.3
-0.008 -4.084 -1.699 0.3
0.004 -4.102 -1.707 0.45
0.017 -4.096 -1.705 0.28
0.03 -4.073 -1.694 0.21
0.043 -4.078 -1.697 0.29
0.049 -4.069 -1.693 0.21
0.062 -4.083 -1.699 0.21
0.075 -4.103 -1.708 0.0
0.088 -4.068 -1.693 0.0
0.101 -4.079 -1.697 0.0
0.113 -4.082 -1.699 0.0
0.318 -4.159 -1.738 0.0
0.326 -4.093 -1.709 0.0
0.341 -4.108 -1.716 0.0
0.353 -4.107 -1.716 0.0
0.363 -4.064 -1.697 0.03
0.382 -4.143 -1.733 0.13
0.388 -4.06 -1.697 0.11
0.398 -4.094 -1.712 0.19
0.411 -4.096 -1.714 0.23
0.424 -4.098 -1.715 0.24
0.44 -4.122 -1.727 0.41
0.448 -4.077 -1.707 0.26
0.461 -4.08 -1.709 0.39
0.475 -4.085 -1.712 0.32
0.482 -4.092 -1.715 0.12
0.495 -4.094 -1.717 0.18
0.507 -4.082 -1.712 0.21
0.519 -4.073 -1.709 0.17
0.532 -4.076 -1.711 0.09
0.544 -4.064 -1.706 0.16
0.555 -4.049 -1.701 0.29
0.561 -4.047 -1.7 0.27
0.573 -4.04 -1.697 0.3
0.585 -4.032 -1.695 0.0
0.599 -4.04 -1.699 0.0
0.613 -4.045 -1.702 0.0
0.628 -4.061 -1.71 0.0
0.638 -4.045 -1.704 0.0
1.438 -3.924 -1.741 0.0
1.442 -3.897 -1.731 0.0
1.447 -3.873 -1.722 0.0
1.45 -3.845 -1.71 0.0
1.464 -3.845 -1.713 0.0
1.463 -3.805 -1.696 0.0
1.461 -3.78 -1.685 0.03
1.475 -3.782 -1.689 0.03
1.495 -3.8 -1.699 0.03
1.519 -3.826 -1.714 0.07
1.519 -3.789 -1.698 0.04
1.525 -3.77 -1.692 0.04
1.532 -3.754 -1.686 0.04
1.541 -3.758 -1.689 0.07
1.55 -3.746 -1.686 0.08
1.56 -3.738 -1.684 0.09
1.573 -3.737 -1.686 0.18
1.587 -3.737 -1.689 0.22
1.596 -3.725 -1.685 0.19
1.609 -3.723 -1.687 0.25
1.612 -3.712 -1.683 0.24
1.626 -3.714 -1.686 0.25
1.636 -3.704 -1.684 0.26
1.652 -3.709 -1.689 0.26
1.659 -3.694 -1.684 0.24
1.683 -3.717 -1.697 0.27
1.71 -3.746 -1.715 0.35
1.722 -3.757 -1.721 0.29
1.734 -3.752 -1.721 0.39
1.745 -3.744 -1.72 0.38
1.758 -3.742 -1.722 0.36
1.756 -3.707 -1.707 0.37
1.755 -3.675 -1.694 0.38
1.764 -3.663 -1.691 0.3
1.78 -3.681 -1.702 0.29
1.8 -3.694 -1.71 0.36
1.804 -3.672 -1.702 0.33
1.813 -3.661 -1.7 0.34
1.823 -3.652 -1.698 0.45
1.831 -3.64 -1.695 0.33
1.835 -3.619 -1.688 0.39
1.839 -3.613 -1.686 0.38
1.85 -3.608 -1.686 0.45
1.872 -3.623 -1.697 0.24
1.898 -3.645 -1.71 0.25
1.911 -3.642 -1.712 0.41
1.912 -3.616 -1.702 0.34
1.915 -3.594 -1.694 0.34
1.92 -3.59 -1.693 0.45
1.928 -3.577 -1.69 0.37
1.935 -3.563 -1.686 0.37
1.947 -3.558 -1.687 0.39
1.967 -3.568 -1.695 0.32
1.989 -3.581 -1.705 0.48
1.978 -3.535 -1.684 0.29
1.97 -3.508 -1.672 0.28
1.984 -3.507 -1.675 0.32
1.993 -3.497 -1.673 0.35
2.006 -3.494 -1.675 0.39
2.033 -3.516 -1.689 0.43
2.039 -3.5 -1.684 0.29
2.047 -3.489 -1.682 0.24
2.033 -3.453 -1.665 0.3
2.057 -3.469 -1.676 0.18
2.092 -3.503 -1.697 0.34
2.103 -3.496 -1.697 0.4
2.104 -3.474 -1.689 0.37
2.11 -3.458 -1.684 0.42
2.137 -3.478 -1.698 0.51
2.12 -3.439 -1.68 0.18
2.127 -3.426 -1.676 0.27
2.14 -3.422 -1.678 0.44
2.167 -3.442 -1.692 0.4
2.175 -3.43 -1.689 0.39
2.173 -3.403 -1.679 0.32
2.217 -3.449 -1.706 0.33
2.22 -3.43 -1.7 0.36
2.206 -3.397 -1.684 0.29
2.22 -3.395 -1.687 0.39
2.223 -3.375 -1.68 0.41
2.23 -3.364 -1.678 0.43
2.254 -3.377 -1.689 0.38
2.249 -3.347 -1.676 0.28
2.262 -3.343 -1.678 0.29
2.265 -3.336 -1.676 0.3
2.276 -3.329 -1.676 0.3
2.277 -3.308 -1.669 0.3
2.298 -3.316 -1.677 0.28
2.305 -3.304 -1.675 0.39
2.319 -3.303 -1.678 0.32
2.334 -3.302 -1.681 0.3
2.33 -3.285 -1.674 0.3
2.346 -3.286 -1.679 0.33
2.356 -3.277 -1.678 0.31
2.361 -3.263 -1.674 0.31
2.376 -3.263 -1.678 0.3
2.385 -3.254 -1.677 0.3
2.394 -3.245 -1.676 0.21
2.409 -3.254 -1.684 0.34
2.418 -3.245 -1.683 0.38
2.42 -3.226 -1.676 0.33
2.355 -3.117 -1.62 0.0
2.385 -3.137 -1.636 0.0
2.227 -2.907 -1.511 0.0
2.251 -2.92 -1.523 0.0
2.22 -2.87 -1.497 0.0
2.245 -2.883 -1.508 0.06
2.261 -2.885 -1.513 0.14
2.269 -2.876 -1.512 0.23
2.272 -2.862 -1.508 0.24
2.292 -2.869 -1.516 0.27
2.302 -2.863 -1.517 0.28
2.315 -2.86 -1.52 0.31
2.324 -2.863 -1.523 0.3
2.341 -2.865 -1.528 0.31
2.358 -2.868 -1.534 0.3
2.367 -2.86 -1.534 0.31
2.385 -2.864 -1.541 0.32
2.408 -2.874 -1.55 0.35
2.429 -2.88 -1.559 0.3
2.445 -2.89 -1.567 0.32
2.458 -2.887 -1.569 0.3
2.476 -2.89 -1.576 0.31
2.492 -2.891 -1.58 0.3
2.513 -2.897 -1.589 0.34
2.526 -2.893 -1.591 0.32
2.539 -2.889 -1.593 0.3
2.548 -2.891 -1.597 0.31
2.565 -2.892 -1.602 0.32
2.577 -2.887 -1.604 0.29
2.598 -2.893 -1.612 0.34
2.613 -2.891 -1.616 0.32
2.631 -2.893 -1.622 0.29
2.645 -2.899 -1.628 0.34
2.652 -2.888 -1.627 0.33
2.667 -2.887 -1.631 0.32
2.68 -2.882 -1.633 0.31
2.696 -2.882 -1.638 0.33
2.707 -2.875 -1.639 0.31
2.716 -2.866 -1.639 0.3
2.735 -2.868 -1.645 0.29
2.735 -2.86 -1.643 0.29
2.743 -2.85 -1.642 0.28
2.751 -2.84 -1.641 0.29
2.765 -2.837 -1.645 0.29
2.79 -2.845 -1.655 0.28
2.835 -2.873 -1.678 0.27
2.853 -2.873 -1.684 0.42
2.853 -2.865 -1.681 0.36
2.857 -2.851 -1.678 0.25
2.849 -2.825 -1.667 0.33
2.848 -2.806 -1.661 0.38
2.849 -2.789 -1.656 0.38
2.868 -2.79 -1.663 0.39
2.896 -2.8 -1.675 0.43
2.9 -2.795 -1.674 0.38
2.921 -2.798 -1.682 0.35
2.929 -2.788 -1.681 0.34
2.931 -2.772 -1.677 0.35
2.936 -2.759 -1.675 0.37
2.936 -2.742 -1.67 0.33
2.938 -2.727 -1.666 0.32
2.943 -2.722 -1.666 0.34
2.941 -2.703 -1.659 0.32
2.944 -2.689 -1.656 0.34
2.956 -2.683 -1.658 0.33
2.962 -2.671 -1.657 0.3
2.967 -2.66 -1.655 0.29
2.981 -2.655 -1.658 0.29
2.981 -2.647 -1.656 0.32
2.996 -2.644 -1.66 0.3
3.006 -2.635 -1.661 0.3
3.006 -2.619 -1.656 0.28
3.017 -2.612 -1.658 0.31
3.024 -2.601 -1.657 0.28
3.035 -2.594 -1.658 0.31
3.032 -2.583 -1.654 0.29
3.028 -2.563 -1.647 0.22
3.038 -2.556 -1.649 0.28
3.048 -2.547 -1.65 0.0
3.056 -2.538 -1.65 0.0
3.286 -2.258 -1.656 0.0
3.302 -2.261 -1.663 0.02
3.292 -2.239 -1.654 0.13
3.275 -2.212 -1.641 0.16
3.274 -2.197 -1.637 0.27
3.281 -2.186 -1.637 0.32
3.281 -2.171 -1.632 0.34
3.295 -2.166 -1.637 0.28
3.292 -2.156 -1.633 0.48
3.275 -2.13 -1.62 0.24
3.255 -2.103 -1.606 0.0
3.263 -2.093 -1.607 0.0
3.279 -2.089 -1.612 0.0
3.398 -1.793 -1.592 0.01
3.427 -1.794 -1.603 0.12
3.453 -1.795 -1.614 0.21
3.461 -1.792 -1.616 0.27
3.473 -1.784 -1.619 0.3
3.498 -1.783 -1.629 0.3
3.523 -1.782 -1.639 0.3
3.539 -1.776 -1.644 0.31
3.567 -1.777 -1.655 0.32
3.587 -1.773 -1.663 0.31
3.604 -1.767 -1.668 0.32
3.64 -1.778 -1.684 0.35
3.653 -1.771 -1.689 0.29
3.684 -1.771 -1.701 0.33
3.717 -1.773 -1.715 0.36
3.728 -1.764 -1.717 0.28
3.755 -1.762 -1.728 0.32
3.76 -1.75 -1.728 0.31
3.766 -1.746 -1.729 0.29
3.753 -1.726 -1.72 0.36
3.764 -1.716 -1.723 0.37
3.777 -1.708 -1.727 0.33
3.785 -1.697 -1.728 0.33
3.79 -1.685 -1.728 0.35
3.8 -1.676 -1.73 0.36
3.804 -1.67 -1.731 0.39
3.808 -1.658 -1.73 0.35
3.808 -1.643 -1.728 0.31
3.822 -1.635 -1.732 0.35
3.828 -1.624 -1.732 0.37
3.818 -1.605 -1.725 0.31
3.803 -1.585 -1.715 0.28
3.809 -1.58 -1.717 0.35
3.809 -1.566 -1.715 0.29
3.816 -1.555 -1.715 0.3
3.82 -1.543 -1.715 0.31
3.825 -1.531 -1.715 0.3
3.823 -1.516 -1.712 0.26
3.825 -1.503 -1.71 0.31
3.837 -1.501 -1.715 0.36
3.847 -1.491 -1.718 0.31
3.836 -1.473 -1.71 0.26
3.839 -1.46 -1.71 0.33
3.849 -1.45 -1.712 0.31
3.852 -1.437 -1.711 0.28
3.855 -1.424 -1.71 0.31
3.853 -1.417 -1.709 0.34
3.858 -1.405 -1.709 0.3
3.866 -1.394 -1.71 0.35
3.877 -1.384 -1.714 0.3
3.871 -1.368 -1.709 0.32
3.872 -1.355 -1.707 0.29
3.869 -1.34 -1.704 0.32
3.881 -1.338 -1.709 0.33
3.886 -1.326 -1.709 0.32
3.874 -1.308 -1.702 0.22
3.804 -1.271 -1.667 0.07
3.894 -1.288 -1.707 0.0
3.749 1.394 -1.707 0.15
3.708 1.392 -1.689 0.27
3.714 1.408 -1.694 0.3
3.71 1.419 -1.694 0.32
3.699 1.422 -1.69 0.38
3.703 1.437 -1.694 0.28
3.707 1.452 -1.699 0.33
3.691 1.459 -1.693 0.32
3.691 1.472 -1.695 0.41
3.693 1.487 -1.699 0.3
3.682 1.495 -1.695 0.33
3.687 1.511 -1.7 0.29
3.681 1.515 -1.699 0.45
3.667 1.523 -1.694 0.32
3.668 1.537 -1.697 0.3
3.665 1.549 -1.698 0.31
3.655 1.559 -1.695 0.45
3.655 1.572 -1.698 0.28
3.65 1.577 -1.696 0.33
3.641 1.587 -1.694 0.31
3.638 1.599 -1.695 0.39
3.636 1.612 -1.697 0.32
3.634 1.625 -1.699 0.35
3.633 1.638 -1.7 0.32
3.624 1.647 -1.699 0.32
3.627 1.655 -1.701 0.35
3.616 1.665 -1.699 0.38
3.61 1.675 -1.698 0.34
3.616 1.692 -1.704 0.29
3.602 1.699 -1.699 0.38
3.592 1.708 -1.697 0.36
3.605 1.728 -1.706 0.32
3.586 1.733 -1.699 0.34
3.593 1.744 -1.704 0.34
3.583 1.753 -1.702 0.3
3.574 1.762 -1.7 0.45
3.572 1.775 -1.702 0.31
3.566 1.786 -1.702 0.38
3.56 1.797 -1.702 0.32
3.558 1.81 -1.704 0.39
3.545 1.811 -1.699 0.31
3.537 1.82 -1.697 0.3
3.537 1.835 -1.7 0.33
3.531 1.846 -1.7 0.39
3.522 1.855 -1.699 0.33
3.531 1.874 -1.706 0.0
3.509 1.876 -1.698 0.0
3.43 2.212 -1.744 0.05
3.383 2.19 -1.721 0.18
3.361 2.19 -1.713 0.11
3.347 2.196 -1.708 0.17
3.334 2.202 -1.705 0.21
3.327 2.213 -1.705 0.32
3.32 2.223 -1.705 0.34
3.315 2.235 -1.706 0.34
3.3 2.24 -1.702 0.33
3.294 2.243 -1.7 0.34
3.295 2.26 -1.705 0.39
3.288 2.27 -1.705 0.33
3.289 2.285 -1.709 0.0
3.272 2.289 -1.704 0.0
3.121 2.646 -1.749 0.04
3.078 2.627 -1.728 0.16
3.036 2.606 -1.708 0.25
3.021 2.61 -1.704 0.27
3.01 2.617 -1.702 0.34
2.992 2.618 -1.696 0.34
2.985 2.62 -1.694 0.36
2.996 2.647 -1.706 0.32
2.979 2.649 -1.701 0.36
2.972 2.659 -1.702 0.4
2.971 2.675 -1.706 0.34
2.954 2.677 -1.701 0.33
2.951 2.691 -1.704 0.36
2.955 2.703 -1.709 0.42
2.927 2.694 -1.697 0.33
2.923 2.708 -1.7 0.36
2.926 2.727 -1.707 0.34
2.905 2.725 -1.699 0.37
2.904 2.741 -1.704 0.33
2.9 2.754 -1.707 0.39
2.882 2.755 -1.701 0.35
2.876 2.758 -1.7 0.39
2.879 2.778 -1.708 0.32
2.863 2.78 -1.703 0.31
2.86 2.795 -1.707 0.41
2.856 2.808 -1.709 0.34
2.834 2.804 -1.701 0.31
2.835 2.823 -1.708 0.39
2.83 2.826 -1.707 0.34
2.812 2.826 -1.701 0.34
2.81 2.843 -1.706 0.38
2.812 2.862 -1.713 0.31
2.79 2.858 -1.704 0.43
2.786 2.872 -1.708 0.32
2.78 2.883 -1.709 0.37
2.769 2.881 -1.705 0.31
2.765 2.895 -1.708 0.36
2.753 2.901 -1.707 0.4
2.743 2.908 -1.706 0.34
2.736 2.919 -1.708 0.37
2.726 2.927 -1.707 0.35
2.718 2.937 -1.708 0.37
2.711 2.938 -1.706 0.37
2.703 2.948 -1.707 0.34
2.692 2.955 -1.706 0.3
2.685 2.966 -1.708 0.4
2.675 2.973 -1.707 0.34
2.665 2.982 -1.707 0.38
2.656 2.99 -1.707 0.33
2.651 2.994 -1.707 0.32
2.644 3.005 -1.708 0.32
2.634 3.012 -1.708 0.43
2.624 3.02 -1.708 0.32
2.617 3.031 -1.709 0.34
2.607 3.04 -1.709 0.36
2.599 3.049 -1.71 0.37
2.598 3.057 -1.713 0.37
2.586 3.063 -1.711 0.35
2.587 3.084 -1.718 0.25
2.566 3.079 -1.711 0.49
2.552 3.081 -1.708 0.32
2.544 3.091 -1.708 0.3
2.537 3.103 -1.711 0.33
2.529 3.112 -1.712 0.32
2.52 3.112 -1.709 0.39
2.514 3.124 -1.712 0.36
2.501 3.128 -1.709 0.38
2.494 3.14 -1.712 0.29
2.48 3.142 -1.708 0.39
2.472 3.153 -1.71 0.3
2.461 3.159 -1.709 0.38
2.461 3.169 -1.713 0.32
2.451 3.176 -1.713 0.36
2.442 3.186 -1.713 0.38
2.433 3.195 -1.714 0.3
2.422 3.201 -1.713 0.34
2.412 3.208 -1.713 0.43
2.392 3.203 -1.706 0.27
2.396 3.218 -1.713 0.35
2.386 3.227 -1.713 0.37
2.377 3.236 -1.714 0.32
2.365 3.241 -1.713 0.41
2.353 3.245 -1.711 0.28
2.346 3.257 -1.713 0.3
2.339 3.269 -1.716 0.36
2.33 3.268 -1.713 0.35
2.32 3.275 -1.713 0.36
2.309 3.281 -1.713 0.35
2.301 3.291 -1.714 0.41
2.285 3.291 -1.71 0.34
2.278 3.303 -1.713 0.29
2.27 3.314 -1.715 0.36
2.262 3.313 -1.713 0.34
2.252 3.321 -1.713 0.42
2.239 3.325 -1.711 0.32
2.231 3.335 -1.713 0.29
2.225 3.349 -1.717 0.37
2.211 3.35 -1.713 0.31
2.205 3.365 -1.718 0.41
2.199 3.367 -1.717 0.32
2.191 3.378 -1.719 0.42
2.175 3.376 -1.714 0.28
2.164 3.383 -1.714 0.35
2.158 3.397 -1.718 0.37
2.147 3.402 -1.718 0.3
2.134 3.406 -1.716 0.35
2.128 3.42 -1.72 0.37
2.12 3.419 -1.718 0.36
2.109 3.426 -1.718 0.32
2.1 3.435 -1.719 0.33
2.088 3.439 -1.718 0.38
2.079 3.449 -1.719 0.36
2.066 3.452 -1.718 0.3
2.055 3.458 -1.718 0.35
2.05 3.462 -1.718 0.37
2.039 3.468 -1.718 0.36
2.032 3.481 -1.721 0.35
2.018 3.482 -1.718 0.36
2.006 3.487 -1.718 0.38
1.997 3.497 -1.719 0.31
1.989 3.508 -1.722 0.34
1.982 3.509 -1.721 0.35
1.97 3.514 -1.72 0.37
1.961 3.523 -1.722 0.36
1.95 3.529 -1.722 0.37
1.94 3.537 -1.723 0.38
1.928 3.541 -1.722 0.33
1.913 3.541 -1.718 0.32
1.907 3.557 -1.723 0.3
1.899 3.555 -1.721 0.42
1.887 3.559 -1.72 0.3
1.879 3.572 -1.723 0.41
1.865 3.573 -1.721 0.3
1.857 3.585 -1.724 0.38
1.844 3.586 -1.722 0.32
1.833 3.593 -1.723 0.32
1.828 3.598 -1.723 0.4
1.811 3.592 -1.718 0.38
1.804 3.606 -1.722 0.31
1.789 3.603 -1.718 0.38
1.781 3.616 -1.721 0.36
1.769 3.621 -1.721 0.29
1.757 3.625 -1.72 0.42
1.747 3.634 -1.722 0.31
1.741 3.635 -1.721 0.34
1.727 3.635 -1.718 0.38
1.719 3.649 -1.723 0.39
1.708 3.654 -1.723 0.33
1.697 3.661 -1.723 0.39
1.687 3.67 -1.725 0.29
1.673 3.669 -1.722 0.37
1.668 3.673 -1.723 0.34
1.662 3.692 -1.729 0.4
1.645 3.685 -1.723 0.33
1.639 3.702 -1.729 0.32
1.621 3.694 -1.723 0.41
1.61 3.7 -1.723 0.38
1.602 3.714 -1.728 0.36
1.593 3.708 -1.723 0.34
1.586 3.723 -1.728 0.31
1.571 3.721 -1.725 0.36
1.559 3.724 -1.724 0.4
1.547 3.729 -1.724 0.36
1.535 3.733 -1.723 0.31
1.523 3.737 -1.723 0.39
1.517 3.74 -1.723 0.33
1.505 3.744 -1.723 0.39
1.495 3.754 -1.726 0.38
1.484 3.759 -1.726 0.33
1.467 3.75 -1.719 0.34
1.457 3.761 -1.723 0.36
1.446 3.766 -1.723 0.33
1.436 3.776 -1.725 0.47
1.426 3.768 -1.72 0.29
1.417 3.781 -1.724 0.32
1.408 3.792 -1.728 0.34
1.397 3.798 -1.728 0.4
1.383 3.797 -1.726 0.3
1.374 3.812 -1.731 0.38
1.354 3.792 -1.719 0.31
1.351 3.803 -1.723 0.34
1.344 3.821 -1.73 0.35
1.327 3.811 -1.723 0.36
1.318 3.824 -1.728 0.32
1.306 3.826 -1.727 0.42
1.288 3.815 -1.719 0.41
1.28 3.829 -1.724 0.32
1.275 3.837 -1.727 0.34
1.259 3.827 -1.72 0.4
1.249 3.838 -1.723 0.33
1.239 3.847 -1.726 0.3
1.224 3.842 -1.722 0.35
1.217 3.861 -1.729 0.43
1.204 3.865 -1.729 0.29
1.195 3.857 -1.724 0.43
1.182 3.857 -1.723 0.33
1.172 3.866 -1.725 0.34
1.156 3.857 -1.719 0.38
1.144 3.863 -1.72 0.37
1.135 3.877 -1.725 0.34
1.123 3.882 -1.726 0.35
1.114 3.894 -1.73 0.32
1.105 3.887 -1.726 0.39
1.093 3.892 -1.727 0.4
1.079 3.889 -1.723 0.32
1.07 3.903 -1.728 0.33
1.056 3.901 -1.726 0.41
1.043 3.902 -1.725 0.34
1.03 3.902 -1.723 0.34
1.025 3.907 -1.725 0.38
1.014 3.916 -1.728 0.36
1.001 3.915 -1.726 0.38
0.989 3.918 -1.726 0.29
0.975 3.914 -1.723 0.34
0.965 3.928 -1.728 0.4
0.952 3.928 -1.726 0.32
0.947 3.934 -1.728 0.38
0.934 3.936 -1.728 0.33
0.92 3.931 -1.724 0.38
0.908 3.938 -1.726 0.36
0.896 3.941 -1.726 0.33
0.884 3.943 -1.726 0.36
0.87 3.941 -1.723 0.34
0.858 3.947 -1.725 0.34
0.855 3.963 -1.732 0.34
0.841 3.955 -1.727 0.38
0.828 3.959 -1.728 0.32
0.818 3.971 -1.732 0.31
0.805 3.97 -1.73 0.39
0.792 3.972 -1.73 0.34
0.779 3.969 -1.728 0.41
0.773 3.972 -1.728 0.32
0.761 3.978 -1.73 0.37
0.747 3.972 -1.726 0.36
0.737 3.986 -1.732 0.32
0.723 3.982 -1.728 0.38
0.71 3.982 -1.728 0.36
0.699 3.991 -1.731 0.37
0.691 3.985 -1.728 0.29
0.679 3.991 -1.729 0.39
0.668 4.002 -1.733 0.31
0.654 3.995 -1.729 0.39
0.642 3.997 -1.729 0.36
0.63 4.006 -1.733 0.28
0.618 4.01 -1.733 0.5
0.61 4.002 -1.729 0.3
0.598 4.008 -1.731 0.32
0.586 4.011 -1.732 0.36
0.574 4.02 -1.735 0.36
0.561 4.019 -1.733 0.36
0.549 4.026 -1.736 0.36
0.536 4.022 -1.733 0.36
0.523 4.022 -1.733 0.31
0.516 4.019 -1.731 0.42
0.503 4.013 -1.728 0.3
0.492 4.031 -1.735 0.35
0.478 4.018 -1.728 0.41
0.467 4.036 -1.736 0.33
0.453 4.027 -1.731 0.39
0.44 4.03 -1.732 0.35
0.435 4.034 -1.733 0.34
0.421 4.03 -1.731 0.39
0.409 4.033 -1.732 0.36
0.397 4.04 -1.734 0.36
0.383 4.032 -1.73 0.39
0.371 4.039 -1.733 0.34
0.359 4.043 -1.734 0.36
0.352 4.04 -1.733 0.35
0.339 4.041 -1.733 0.36
0.327 4.052 -1.737 0.32
0.314 4.047 -1.734 0.37
0.302 4.057 -1.738 0.31
0.289 4.062 -1.74 0.37
0.276 4.055 -1.737 0.4
0.264 4.056 -1.737 0.41
0.257 4.049 -1.733 0.36
0.245 4.061 -1.738 0.33
0.231 4.055 -1.735 0.39
0.219 4.059 -1.737 0.41
0.206 4.05 -1.733 0.3
0.193 4.06 -1.737 0.37
0.18 4.05 -1.732 0.38
0.174 4.054 -1.733 0.33
0.162 4.063 -1.738 0.37
0.149 4.06 -1.736 0.32
0.136 4.057 -1.734 0.34
0.123 4.067 -1.738 0.38
0.111 4.067 -1.738 0.32
0.098 4.062 -1.736 0.38
0.091 4.062 -1.736 0.32
0.079 4.062 -1.736 0.39
0.066 4.062 -1.736 0.32
0.053 4.064 -1.737 0.39
0.04 4.066 -1.738 0.38
0.027 4.067 -1.738 0.32
0.015 4.07 -1.739 0.36
0.002 4.078 -1.743 0.41
-0.004 4.067 -1.738 0.33
-0.017 4.065 -1.737 0.35
-0.03 4.063 -1.736 0.36
-0.043 4.066 -1.738 0.36
-0.055 4.061 -1.735 0.36
-0.068 4.062 -1.736 0.36
-0.081 4.068 -1.738 0.33
-0.088 4.066 -1.738 0.33
-0.1 4.067 -1.738 0.42
-0.113 4.063 -1.737 0.34
-0.126 4.072 -1.741 0.35
-0.139 4.066 -1.738 0.36
-0.151 4.064 -1.738 0.35
-0.164 4.069 -1.74 0.35
-0.177 4.07 -1.741 0.36
-0.184 4.079 -1.745 0.32
-0.197 4.073 -1.743 0.39
-0.209 4.067 -1.74 0.37
-0.222 4.064 -1.739 0.36
-0.235 4.073 -1.743 0.38
-0.248 4.07 -1.743 0.32
-0.26 4.06 -1.738 0.36
-0.267 4.072 -1.744 0.31
-0.28 4.072 -1.744 0.34
-0.293 4.078 -1.747 0.38
-0.307 4.082 -1.75 0.31
-0.318 4.069 -1.744 0.4
-0.331 4.064 -1.743 0.38
-0.344 4.068 -1.745 0.37
-0.351 4.07 -1.746 0.34
-0.364 4.07 -1.747 0.34
-0.376 4.067 -1.746 0.31
-0.389 4.066 -1.746 0.39
-0.402 4.065 -1.746 0.34
-0.414 4.056 -1.743 0.37
-0.427 4.057 -1.743 0.37
-0.433 4.06 -1.745 0.37
-0.447 4.064 -1.747 0.34
-0.46 4.064 -1.748 0.38
-0.472 4.054 -1.744 0.37
-0.485 4.058 -1.747 0.34
-0.498 4.058 -1.747 0.34
-0.511 4.056 -1.747 0.36
-0.524 4.057 -1.748 0.35
-0.53 4.052 -1.747 0.34
-0.542 4.051 -1.747 0.35
-0.556 4.056 -1.75 0.36
-0.569 4.054 -1.75 0.39
-0.581 4.052 -1.75 0.33
-0.595 4.058 -1.753 0.37
-0.606 4.043 -1.747 0.39
-0.613 4.044 -1.748 0.32
-0.628 4.058 -1.756 0.36
-0.638 4.037 -1.747 0.38
-0.651 4.038 -1.748 0.38
-0.665 4.045 -1.752 0.37
-0.675 4.027 -1.745 0.34
-0.69 4.041 -1.752 0.33
-0.698 4.047 -1.756 0.39
-0.709 4.034 -1.751 0.32
-0.721 4.028 -1.749 0.41
-0.735 4.035 -1.753 0.36
-0.745 4.02 -1.747 0.34
-0.758 4.019 -1.748 0.37
-0.774 4.031 -1.755 0.34
-0.783 4.013 -1.747 0.37
-0.79 4.011 -1.747 0.36
-0.807 4.03 -1.757 0.36
-0.817 4.017 -1.752 0.33
-0.828 4.007 -1.749 0.4
-0.844 4.019 -1.756 0.43
-0.854 4.004 -1.75 0.27
-0.867 4.005 -1.752 0.36
-0.878 4.025 -1.762 0.38
-0.885 3.999 -1.751 0.34
-0.901 4.007 -1.756 0.32
-0.915 4.011 -1.759 0.36
-0.924 3.992 -1.752 0.39
-0.937 3.993 -1.753 0.37
-0.951 3.997 -1.757 0.38
-0.955 3.985 -1.752 0.36
-0.968 3.985 -1.753 0.35
-0.983 3.993 -1.758 0.31
-0.994 3.983 -1.755 0.34
-1.007 3.979 -1.755 0.34
-1.022 3.985 -1.759 0.36
-1.031 3.971 -1.754 0.34
-1.043 3.966 -1.753 0.37
-1.052 3.973 -1.757 0.35
-1.061 3.96 -1.752 0.37
-1.075 3.96 -1.754 0.36
-1.093 3.976 -1.763 0.32
-1.098 3.948 -1.752 0.35
-1.115 3.96 -1.759 0.33
-1.129 3.96 -1.761 0.43
-1.131 3.946 -1.755 0.32
-1.143 3.941 -1.754 0.33
-1.16 3.953 -1.762 0.39
-1.167 3.93 -1.752 0.32
-1.183 3.938 -1.758 0.38
-1.199 3.947 -1.764 0.38
-1.206 3.927 -1.757 0.32
-1.216 3.915 -1.752 0.36
-1.228 3.93 -1.761 0.35
-1.234 3.907 -1.752 0.34
-1.246 3.902 -1.751 0.37
-1.264 3.917 -1.76 0.34
-1.271 3.897 -1.752 0.34
-1.288 3.905 -1.758 0.33
-1.303 3.91 -1.762 0.39
-1.303 3.891 -1.754 0.35
-1.32 3.9 -1.761 0.36
-1.338 3.912 -1.768 0.3
-1.34 3.88 -1.755 0.4
-1.354 3.879 -1.757 0.36
-1.371 3.89 -1.764 0.38
-1.375 3.864 -1.753 0.35
-1.386 3.873 -1.759 0.32
-1.402 3.881 -1.765 0.39
-1.414 3.875 -1.764 0.3
-1.42 3.855 -1.757 0.42
-1.44 3.871 -1.767 0.35
-1.447 3.851 -1.759 0.32
-1.461 3.852 -1.762 0.36
-1.477 3.857 -1.767 0.39
-1.477 3.841 -1.76 0.3
-1.49 3.837 -1.76 0.38
-1.505 3.841 -1.764 0.33
-1.514 3.829 -1.761 0.33
-1.525 3.821 -1.759 0.47
-1.541 3.826 -1.764 0.28
-1.548 3.81 -1.758 0.4
-1.557 3.814 -1.762 0.33
-1.573 3.819 -1.767 0.35
-1.582 3.806 -1.762 0.39
-1.591 3.796 -1.76 0.33
-1.608 3.802 -1.766 0.28
-1.618 3.792 -1.763 0.39
-1.629 3.785 -1.762 0.38
-1.643 3.8 -1.771 0.3
-1.649 3.781 -1.764 0.31
-1.66 3.776 -1.764 0.39
-1.679 3.786 -1.772 0.35
-1.686 3.769 -1.766 0.34
-1.701 3.772 -1.77 0.32
-1.714 3.768 -1.771 0.44
-1.718 3.746 -1.762 0.29
-1.729 3.753 -1.767 0.39
-1.74 3.748 -1.767 0.39
-1.748 3.734 -1.763 0.29
-1.769 3.747 -1.772 0.32
-1.776 3.733 -1.768 0.43
-1.783 3.717 -1.763 0.32
-1.799 3.72 -1.767 0.36
-1.806 3.72 -1.769 0.32
-1.812 3.703 -1.763 0.39
-1.833 3.715 -1.772 0.3
-1.841 3.703 -1.769 0.34
-1.853 3.697 -1.769 0.36
-1.87 3.701 -1.774 0.34
-1.879 3.691 -1.772 0.36
-1.887 3.678 -1.768 0.38
-1.899 3.686 -1.774 0.34
-1.912 3.684 -1.776 0.39
-1.916 3.663 -1.768 0.37
-1.931 3.664 -1.772 0.36
-1.945 3.662 -1.774 0.38
-1.957 3.658 -1.775 0.34
-1.968 3.65 -1.774 0.4
-1.974 3.647 -1.774 0.38
-1.983 3.638 -1.772 0.33
-1.999 3.639 -1.777 0.37
-2.01 3.631 -1.776 0.34
-2.021 3.625 -1.776 0.33
-2.032 3.619 -1.776 0.42
-2.038 3.603 -1.771 0.33
-2.049 3.607 -1.775 0.31
-2.054 3.592 -1.77 0.38
-2.071 3.595 -1.775 0.25
-2.081 3.585 -1.773 0.44
-2.095 3.583 -1.776 0.4
-2.105 3.575 -1.775 0.36
-2.115 3.567 -1.774 0.31
-2.125 3.557 -1.772 0.37
-2.135 3.561 -1.777 0.32
-2.143 3.55 -1.774 0.33
-2.158 3.549 -1.777 0.35
-2.165 3.536 -1.774 0.37
-2.177 3.53 -1.774 0.37
-2.191 3.527 -1.777 0.35
-2.203 3.522 -1.777 0.34
-2.211 3.523 -1.78 0.35
-2.22 3.513 -1.778 0.44
-2.231 3.506 -1.778 0.27
-2.245 3.504 -1.781 0.35
-2.256 3.497 -1.781 0.37
-2.264 3.485 -1.778 0.41
-2.277 3.481 -1.78 0.33
-2.281 3.476 -1.779 0.36
-2.292 3.469 -1.779 0.36
-2.305 3.464 -1.781 0.36
-2.313 3.453 -1.778 0.39
-2.327 3.45 -1.781 0.29
-2.333 3.435 -1.777 0.46
-2.346 3.431 -1.778 0.3
-2.364 3.434 -1.784 0.32
-2.363 3.421 -1.779 0.38
-2.375 3.415 -1.78 0.29
-2.389 3.414 -1.783 0.39
-2.392 3.394 -1.777 0.34
-2.409 3.395 -1.781 0.34
-2.424 3.394 -1.785 0.32
-2.43 3.38 -1.781 0.39
-2.436 3.378 -1.782 0.36
-2.452 3.378 -1.786 0.33
-2.455 3.36 -1.781 0.45
-2.47 3.358 -1.784 0.27
-2.486 3.357 -1.788 0.38
-2.489 3.339 -1.782 0.29
-2.5 3.331 -1.782 0.35
-2.514 3.329 -1.786 0.4
-2.52 3.325 -1.786 0.34
-2.528 3.315 -1.784 0.36
-2.539 3.308 -1.785 0.35
-2.544 3.293 -1.781 0.32
-2.539 3.265 -1.769 0.06
-0.903 1.155 -0.552 0.0
-1.107 1.416 -0.703 0.0
-2.563 3.274 -1.779 0.0
-0.906 1.151 -0.551 0.0
-2.569 3.262 -1.777 0.0
-0.918 1.159 -0.558 0.0
-0.959 1.201 -0.584 0.0
-0.985 1.225 -0.6 0.0
-1.044 1.292 -0.641 0.0
-1.026 1.262 -0.625 0.0
-1.032 1.261 -0.627 0.0
-1.02 1.239 -0.615 0.0
-1.025 1.237 -0.616 0.0
-1.166 1.394 -0.712 0.0
-0.961 1.066 -0.538 0.0
-0.997 1.047 -0.543 0.0
-3.139 2.822 -1.808 0.0
-3.137 2.803 -1.801 0.02
-3.121 2.771 -1.786 0.04
-3.142 2.772 -1.794 0.03
-3.164 2.773 -1.801 0.0
-3.152 2.745 -1.789 0.0
-3.16 2.735 -1.789 0.0
-3.166 2.723 -1.787 0.0
-3.184 2.73 -1.796 0.0
-3.197 2.723 -1.798 0.0
-3.494 2.392 -1.814 0.0
-3.504 2.383 -1.816 0.05
-3.497 2.362 -1.807 0.15
-3.489 2.341 -1.799 0.21
-3.502 2.334 -1.802 0.2
-3.505 2.32 -1.8 0.26
-3.509 2.314 -1.8 0.3
-3.524 2.308 -1.804 0.26
-3.517 2.288 -1.796 0.38
-3.521 2.275 -1.795 0.3
-3.527 2.263 -1.794 0.33
-3.537 2.254 -1.796 0.38
-3.546 2.244 -1.796 0.36
-3.553 2.232 -1.796 0.35
-3.558 2.228 -1.797 0.33
-3.568 2.219 -1.799 0.44
-3.578 2.209 -1.801 0.25
-3.577 2.193 -1.796 0.25
-3.576 2.177 -1.792 0.3
-3.591 2.171 -1.796 0.22
-3.599 2.16 -1.797 0.11
-3.606 2.157 -1.799 0.21
-3.606 2.142 -1.796 0.0
-3.608 2.128 -1.793 0.0
-3.619 2.119 -1.796 0.0
-3.626 2.108 -1.796 0.0
-3.634 2.097 -1.796 0.0
-3.657 2.095 -1.805 0.0
-3.655 2.086 -1.802 0.0
-3.665 2.076 -1.804 0.0
-3.667 2.062 -1.801 0.0
-3.678 2.053 -1.804 0.0
-3.683 2.041 -1.803 0.0
-3.684 2.027 -1.801 0.0
-3.692 2.016 -1.801 0.0
-3.702 2.006 -1.803 0.0
-3.702 1.999 -1.801 0.0
-3.71 1.988 -1.802 0.0
-3.409 -2.146 -1.72 0.02
-3.409 -2.161 -1.723 0.13
-3.364 -2.139 -1.701 0.22
-3.359 -2.151 -1.702 0.31
-3.35 -2.16 -1.701 0.34
-3.347 -2.173 -1.703 0.34
-3.338 -2.182 -1.702 0.45
-3.356 -2.209 -1.715 0.29
-3.337 -2.212 -1.708 0.45
-3.316 -2.213 -1.701 0.44
-3.279 -2.196 -1.683 0.29
-3.3 -2.224 -1.698 0.34
-3.296 -2.237 -1.699 0.36
-3.275 -2.238 -1.692 0.39
-3.274 -2.252 -1.695 0.33
-3.258 -2.256 -1.69 0.36
-3.248 -2.264 -1.689 0.32
-3.271 -2.288 -1.704 0.3
-3.285 -2.313 -1.715 0.29
-3.285 -2.329 -1.719 0.23
-3.245 -2.316 -1.701 0.21
-3.218 -2.312 -1.69 0.25
-3.242 -2.345 -1.708 0.22
-3.255 -2.37 -1.719 0.31
-3.248 -2.373 -1.718 0.29
-3.263 -2.4 -1.73 0.32
-3.263 -2.415 -1.734 0.28
-3.242 -2.416 -1.727 0.32
-3.218 -2.414 -1.718 0.28
-3.18 -2.401 -1.7 0.32
-3.173 -2.411 -1.7 0.42
-3.214 -2.45 -1.726 0.37
-3.206 -2.46 -1.726 0.39
-3.183 -2.458 -1.717 0.38
-3.175 -2.468 -1.717 0.32
-3.181 -2.489 -1.725 0.3
-3.158 -2.487 -1.716 0.34
-3.14 -2.489 -1.71 0.33
-3.128 -2.487 -1.705 0.41
-3.123 -2.499 -1.707 0.39
-3.125 -2.517 -1.713 0.34
-3.121 -2.53 -1.715 0.37
-3.128 -2.552 -1.724 0.48
-3.144 -2.582 -1.738 0.28
-3.119 -2.578 -1.728 0.19
-3.135 -2.608 -1.743 0.31
-3.124 -2.607 -1.738 0.47
-3.125 -2.625 -1.744 0.34
-3.123 -2.639 -1.747 0.37
-3.065 -2.606 -1.718 0.0
-3.054 -2.613 -1.716 0.0
-3.058 -2.634 -1.723 0.0
-3.032 -2.628 -1.713 0.0
-3.041 -2.645 -1.721 0.0
-2.827 -2.905 -1.732 0.01
-2.772 -2.857 -1.699 0.11
-2.763 -2.866 -1.699 0.17
-2.748 -2.868 -1.694 0.23
-2.72 -2.857 -1.682 0.24
-2.705 -2.859 -1.678 0.31
-2.697 -2.868 -1.679 0.33
-2.671 -2.858 -1.667 0.33
-2.663 -2.858 -1.665 0.35
-2.659 -2.872 -1.668 0.34
-2.634 -2.863 -1.657 0.33
-2.614 -2.859 -1.65 0.28
-2.607 -2.87 -1.651 0.25
-2.586 -2.864 -1.643 0.22
-2.592 -2.889 -1.653 0.0
-2.565 -2.868 -1.638 0.0
-2.543 -2.861 -1.629 0.0
-0.972 -1.108 -0.555 0.0
-0.88 -1.143 -0.541 0.0
-0.96 -1.393 -0.655 0.0
-0.9 -1.313 -0.609 0.0
-0.899 -1.32 -0.612 0.0
-0.849 -1.253 -0.574 0.0
-0.804 -1.189 -0.538 0.0
-0.798 -1.186 -0.535 0.0
-0.802 -1.201 -0.542 0.0
-0.846 -1.279 -0.583 0.0
-0.867 -1.322 -0.604 0.0
-2.184 -3.474 -1.754 0.14
-2.161 -3.449 -1.739 0.23
-2.142 -3.442 -1.732 0.28
-2.129 -3.446 -1.73 0.31
-2.125 -3.463 -1.736 0.29
-2.128 -3.493 -1.748 0.29
-2.115 -3.497 -1.747 0.4
-2.102 -3.5 -1.745 0.3
-2.108 -3.522 -1.755 0.35
-2.093 -3.523 -1.752 0.32
-2.081 -3.528 -1.751 0.34
-2.077 -3.547 -1.757 0.25
-2.085 -3.587 -1.775 0.18
-2.071 -3.588 -1.772 0.47
-2.069 -3.611 -1.781 0.33
-2.053 -3.596 -1.772 0.43
-2.027 -3.576 -1.757 0.39
-1.996 -3.547 -1.739 0.32
-1.999 -3.579 -1.752 0.37
-1.989 -3.587 -1.753 0.4
-1.98 -3.598 -1.756 0.32
-1.976 -3.619 -1.763 0.36
-1.97 -3.62 -1.762 0.32
-1.964 -3.636 -1.767 0.44
-1.96 -3.656 -1.775 0.3
-1.936 -3.64 -1.763 0.43
-1.93 -3.656 -1.768 0.32
-1.909 -3.644 -1.759 0.41
-1.891 -3.637 -1.752 0.41
-1.89 -3.65 -1.757 0.38
-1.884 -3.665 -1.762 0.33
-1.86 -3.647 -1.75 0.39
-1.855 -3.666 -1.757 0.37
-1.844 -3.672 -1.757 0.36
-1.839 -3.692 -1.764 0.33
-1.832 -3.706 -1.768 0.39
-1.815 -3.702 -1.763 0.33
-1.797 -3.679 -1.75 0.48
-1.794 -3.702 -1.759 0.32
-1.799 -3.744 -1.777 0.39
-1.778 -3.728 -1.767 0.38
-1.765 -3.732 -1.766 0.34
-1.746 -3.721 -1.757 0.42
-1.738 -3.735 -1.762 0.36
-1.73 -3.734 -1.76 0.44
-1.722 -3.748 -1.764 0.38
-1.711 -3.753 -1.764 0.27
-1.697 -3.754 -1.762 0.46
-1.68 -3.747 -1.756 0.45
-1.669 -3.756 -1.757 0.4
-1.657 -3.76 -1.757 0.36
-1.65 -3.759 -1.755 0.36
-1.644 -3.779 -1.762 0.36
-1.633 -3.786 -1.763 0.34
-1.619 -3.786 -1.761 0.39
-1.607 -3.791 -1.761 0.44
-1.584 -3.769 -1.747 0.29
-1.567 -3.761 -1.741 0.41
-1.568 -3.78 -1.749 0.33
-1.558 -3.79 -1.752 0.39
-1.559 -3.829 -1.768 0.26
-1.535 -3.803 -1.753 0.61
-1.499 -3.747 -1.723 0.38
-1.486 -3.748 -1.722 0.36
-1.47 -3.741 -1.716 0.34
-1.466 -3.748 -1.718 0.35
-1.455 -3.755 -1.719 0.33
-1.442 -3.757 -1.718 0.35
-1.432 -3.765 -1.72 0.34
-1.421 -3.773 -1.722 0.34
-1.407 -3.771 -1.718 0.37
-1.395 -3.775 -1.718 0.35
-1.389 -3.777 -1.718 0.35
-1.377 -3.78 -1.718 0.36
-1.37 -3.8 -1.725 0.27
-1.351 -3.783 -1.715 0.38
-1.334 -3.774 -1.708 0.41
-1.319 -3.768 -1.704 0.45
-1.312 -3.786 -1.71 0.36
-1.318 -3.822 -1.727 0.4
-1.301 -3.814 -1.721 0.41
-1.291 -3.824 -1.723 0.34
-1.267 -3.791 -1.706 0.36
-1.261 -3.813 -1.714 0.23
-1.242 -3.794 -1.704 0.57
-1.235 -3.815 -1.712 0.33
-1.224 -3.821 -1.713 0.47
-1.225 -3.845 -1.723 0.35
-1.205 -3.825 -1.712 0.55
-1.207 -3.872 -1.733 0.27
-1.192 -3.869 -1.729 0.54
-1.186 -3.892 -1.738 0.34
-1.169 -3.88 -1.731 0.61
-1.157 -3.883 -1.731 0.28
-1.138 -3.842 -1.71 0.46
-1.129 -3.854 -1.714 0.33
-1.114 -3.849 -1.71 0.48
-1.103 -3.857 -1.713 0.45
-1.093 -3.868 -1.716 0.34
-1.082 -3.875 -1.718 0.42
-1.062 -3.85 -1.704 0.42
-1.046 -3.813 -1.686 0.34
-1.032 -3.809 -1.683 0.43
-1.023 -3.823 -1.688 0.37
-1.02 -3.861 -1.704 0.33
-1.006 -3.858 -1.701 0.42
-0.993 -3.859 -1.7 0.35
-0.983 -3.869 -1.704 0.41
-0.981 -3.887 -1.711 0.39
-0.966 -3.881 -1.707 0.4
-0.959 -3.903 -1.716 0.34
-0.943 -3.89 -1.708 0.52
-0.929 -3.884 -1.704 0.36
-0.914 -3.877 -1.699 0.41
-0.904 -3.892 -1.705 0.39
-0.907 -3.931 -1.723 0.48
-0.903 -3.973 -1.741 0.38
-0.884 -3.947 -1.728 0.44
-0.873 -3.953 -1.729 0.36
-0.859 -3.951 -1.727 0.42
-0.846 -3.95 -1.725 0.38
-0.832 -3.947 -1.723 0.42
-0.831 -3.973 -1.734 0.32
-0.82 -3.981 -1.737 0.45
-0.808 -3.986 -1.738 0.39
-0.8 -4.015 -1.75 0.28
-0.784 -3.996 -1.74 0.51
-0.763 -3.954 -1.719 0.62
-0.748 -3.942 -1.713 0.34
-0.74 -3.936 -1.709 0.36
-0.728 -3.94 -1.71 0.33
-0.716 -3.942 -1.71 0.3
-0.705 -3.951 -1.713 0.42
-0.689 -3.934 -1.704 0.32
-0.678 -3.947 -1.709 0.32
-0.668 -3.963 -1.716 0.38
-0.652 -3.94 -1.704 0.32
-0.646 -3.945 -1.706 0.3
-0.636 -3.961 -1.713 0.38
-0.622 -3.951 -1.707 0.33
-0.61 -3.96 -1.71 0.36
-0.598 -3.964 -1.711 0.33
-0.586 -3.965 -1.711 0.3
-0.576 -3.985 -1.719 0.31
-0.57 -3.99 -1.721 0.4
-0.554 -3.963 -1.708 0.46
-0.543 -3.982 -1.716 0.41
-0.535 -4.013 -1.729 0.29
-0.519 -3.991 -1.718 0.56
-0.505 -3.984 -1.714 0.38
-0.494 -3.996 -1.719 0.4
-0.488 -3.997 -1.719 0.3
-0.476 -4.006 -1.723 0.4
-0.463 -4.002 -1.72 0.44
-0.45 -4.001 -1.719 0.41
-0.438 -4.001 -1.718 0.45
-0.425 -3.999 -1.717 0.45
-0.411 -3.987 -1.711 0.55
-0.403 -3.972 -1.704 0.48
-0.39 -3.962 -1.699 0.36
-0.379 -3.98 -1.706 0.31
-0.366 -3.986 -1.708 0.41
-0.355 -3.998 -1.713 0.25
-0.341 -3.985 -1.707 0.44
-0.328 -3.984 -1.706 0.39
-0.321 -3.964 -1.697 0.55
-0.308 -3.965 -1.697 0.36
-0.297 -3.979 -1.703 0.36
-0.285 -3.993 -1.708 0.32
-0.272 -3.988 -1.706 0.45
-0.259 -3.974 -1.699 0.45
-0.247 -3.993 -1.708 0.45
-0.241 -3.996 -1.708 0.35
-0.227 -3.973 -1.698 0.54
-0.212 -3.913 -1.67 0.12
-0.198 -3.885 -1.657 0.18
-0.186 -3.887 -1.658 0.16
-0.177 -3.97 -1.695 0.21
-0.165 -3.972 -1.696 0.54
-0.153 -4.002 -1.709 0.29
-0.148 -4.053 -1.733 0.26
-0.136 -4.052 -1.732 0.5
-0.123 -4.034 -1.723 0.46
-0.109 -3.994 -1.705 0.42
-0.097 -4.022 -1.718 0.32
-0.085 -4.042 -1.727 0.43
-0.078 -4.033 -1.723 0.41
-0.065 -4.035 -1.723 0.36
-0.053 -4.004 -1.709 0.49
-0.04 -3.997 -1.706 0.45
-0.027 -4.014 -1.713 0.31
-0.015 -4.025 -1.718 0.46
-0.002 -4.05 -1.73 0.3
0.01 -4.021 -1.717 0.45
0.017 -4.014 -1.713 0.42
0.029 -4.008 -1.711 0.54
0.042 -4.003 -1.708 0.3
0.054 -3.993 -1.704 0.39
0.066 -3.982 -1.699 0.28
0.079 -3.995 -1.705 0.36
0.092 -3.991 -1.704 0.29
0.098 -3.991 -1.704 0.36
0.111 -3.994 -1.705 0.27
0.123 -3.997 -1.707 0.41
0.136 -3.99 -1.704 0.29
0.148 -3.995 -1.706 0.32
0.161 -3.991 -1.704 0.34
0.173 -3.992 -1.705 0.38
0.179 -3.988 -1.704 0.31
0.192 -3.982 -1.701 0.34
0.205 -3.989 -1.704 0.29
0.22 -4.033 -1.725 0.32
0.233 -4.033 -1.725 0.39
0.245 -4.023 -1.721 0.27
0.258 -4.033 -1.726 0.4
0.265 -4.038 -1.728 0.38
0.277 -4.032 -1.726 0.5
0.288 -4.004 -1.713 0.34
0.299 -3.99 -1.708 0.43
0.311 -3.978 -1.703 0.4
0.325 -3.993 -1.71 0.35
0.337 -3.994 -1.711 0.34
0.332 -3.867 -1.653 0.36
0.355 -3.98 -1.705 0.21
0.366 -3.961 -1.697 0.3
0.378 -3.954 -1.694 0.26
0.392 -3.976 -1.705 0.21
0.41 -4.024 -1.728 0.0
0.418 -3.983 -1.709 0.0
0.424 -3.98 -1.708 0.0
0.438 -3.986 -1.712 0.0
0.525 -4.022 -1.733 0.0
0.53 -3.966 -1.708 0.0
0.54 -3.946 -1.699 0.0
0.552 -3.937 -1.696 0.0
0.608 -3.934 -1.699 0.02
0.625 -3.959 -1.711 0.07
0.634 -3.936 -1.701 0.14
0.647 -3.937 -1.703 0.29
0.659 -3.937 -1.704 0.25
0.673 -3.942 -1.707 0.34
0.679 -3.939 -1.706 0.29
0.69 -3.932 -1.704 0.43
0.705 -3.942 -1.709 0.42
0.726 -3.985 -1.73 0.3
0.737 -3.977 -1.728 0.31
0.741 -3.93 -1.707 0.21
0.754 -3.933 -1.709 0.4
0.765 -3.955 -1.72 0.31
0.773 -3.931 -1.71 0.31
0.782 -3.909 -1.701 0.26
0.793 -3.903 -1.699 0.18
0.805 -3.901 -1.699 0.27
0.824 -3.928 -1.713 0.24
0.834 -3.915 -1.708 0.16
0.836 -3.894 -1.699 0.29
0.847 -3.884 -1.696 0.25
0.86 -3.889 -1.699 0.22
0.869 -3.87 -1.692 0.25
0.884 -3.878 -1.697 0.1
0.905 -3.916 -1.716 0.0
0.907 -3.871 -1.696 0.0
0.911 -3.859 -1.691 0.0
0.925 -3.865 -1.695 0.0
0.933 -3.846 -1.688 0.0
0.952 -3.868 -1.699 0.0
0.981 -3.931 -1.731 0.0
1.542 -3.743 -1.729 0.0
1.557 -3.747 -1.733 0.0
1.555 -3.71 -1.718 0.0
1.557 -3.699 -1.713 0.0
1.555 -3.663 -1.698 0.0
1.567 -3.66 -1.699 0.0
1.56 -3.611 -1.677 0.13
1.584 -3.636 -1.692 0.05
1.585 -3.608 -1.68 0.16
1.601 -3.611 -1.684 0.19
1.612 -3.622 -1.691 0.1
1.623 -3.615 -1.69 0.19
1.636 -3.615 -1.693 0.11
1.642 -3.599 -1.687 0.18
1.654 -3.593 -1.687 0.23
1.667 -3.591 -1.689 0.16
1.676 -3.583 -1.687 0.25
1.676 -3.569 -1.681 0.23
1.701 -3.591 -1.695 0.23
1.728 -3.619 -1.712 0.27
1.738 -3.61 -1.71 0.25
1.756 -3.618 -1.717 0.36
1.767 -3.612 -1.717 0.36
1.76 -3.569 -1.698 0.32
1.759 -3.553 -1.691 0.32
1.768 -3.544 -1.689 0.31
1.774 -3.529 -1.684 0.42
1.784 -3.52 -1.683 0.37
1.8 -3.524 -1.688 0.32
1.811 -3.519 -1.688 0.38
1.828 -3.524 -1.694 0.35
1.837 -3.528 -1.697 0.4
1.839 -3.506 -1.689 0.45
1.874 -3.544 -1.711 0.36
1.89 -3.547 -1.716 0.42
1.865 -3.476 -1.682 0.39
1.881 -3.478 -1.686 0.33
1.907 -3.501 -1.701 0.32
1.907 -3.474 -1.69 0.38
1.908 -3.463 -1.686 0.38
1.919 -3.457 -1.686 0.4
1.918 -3.43 -1.675 0.41
1.933 -3.432 -1.679 0.36
1.941 -3.421 -1.677 0.44
1.945 -3.403 -1.67 0.4
1.976 -3.431 -1.689 0.37
1.99 -3.444 -1.697 0.41
2.006 -3.445 -1.701 0.34
2.001 -3.412 -1.687 0.6
2.028 -3.434 -1.702 0.34
2.024 -3.403 -1.689 0.33
2.025 -3.381 -1.68 0.52
2.045 -3.39 -1.689 0.38
2.053 -3.391 -1.691 0.32
2.075 -3.402 -1.7 0.34
2.073 -3.375 -1.689 0.45
2.061 -3.333 -1.67 0.34
2.062 -3.312 -1.662 0.43
2.083 -3.322 -1.671 0.32
2.103 -3.331 -1.679 0.45
2.146 -3.386 -1.711 0.24
2.131 -3.339 -1.689 0.58
2.108 -3.282 -1.662 0.28
2.132 -3.295 -1.673 0.38
2.149 -3.299 -1.679 0.36
2.15 -3.279 -1.671 0.41
2.167 -3.281 -1.676 0.38
2.169 -3.273 -1.674 0.41
2.17 -3.253 -1.666 0.27
2.226 -3.314 -1.704 0.23
2.235 -3.304 -1.702 0.54
2.232 -3.277 -1.691 0.29
2.248 -3.279 -1.696 0.51
2.255 -3.267 -1.694 0.42
2.259 -3.251 -1.689 0.47
2.267 -3.252 -1.691 0.39
2.267 -3.23 -1.683 0.42
2.271 -3.214 -1.678 0.42
2.233 -3.141 -1.64 0.0
2.126 -2.973 -1.55 0.0
2.1 -2.918 -1.523 0.0
2.105 -2.906 -1.519 0.0
2.115 -2.91 -1.523 0.04
2.122 -2.9 -1.522 0.15
2.133 -2.896 -1.523 0.22
2.145 -2.892 -1.525 0.25
2.148 -2.878 -1.521 0.27
2.157 -2.872 -1.521 0.28
2.174 -2.875 -1.527 0.28
2.179 -2.872 -1.527 0.33
2.194 -2.873 -1.532 0.35
2.209 -2.874 -1.536 0.35
2.222 -2.872 -1.539 0.32
2.234 -2.868 -1.541 0.38
2.245 -2.864 -1.543 0.36
2.257 -2.87 -1.548 0.36
2.277 -2.876 -1.556 0.36
2.31 -2.899 -1.573 0.36
2.324 -2.898 -1.577 0.33
2.339 -2.898 -1.582 0.34
2.359 -2.903 -1.589 0.34
2.371 -2.9 -1.592 0.38
2.383 -2.896 -1.593 0.36
2.396 -2.902 -1.599 0.36
2.408 -2.898 -1.601 0.35
2.426 -2.9 -1.607 0.32
2.442 -2.901 -1.612 0.34
2.458 -2.902 -1.617 0.34
2.474 -2.902 -1.622 0.37
2.489 -2.901 -1.626 0.36
2.494 -2.897 -1.626 0.33
2.505 -2.892 -1.628 0.37
2.519 -2.89 -1.631 0.35
2.533 -2.887 -1.635 0.35
2.549 -2.887 -1.64 0.34
2.56 -2.881 -1.64 0.32
2.572 -2.877 -1.643 0.36
2.573 -2.869 -1.64 0.35
2.59 -2.869 -1.645 0.29
2.602 -2.864 -1.648 0.37
2.614 -2.859 -1.65 0.31
2.622 -2.849 -1.649 0.36
2.635 -2.846 -1.652 0.31
2.649 -2.843 -1.655 0.24
2.649 -2.834 -1.652 0.45
2.653 -2.82 -1.649 0.38
2.677 -2.828 -1.659 0.35
2.708 -2.843 -1.674 0.3
2.726 -2.844 -1.679 0.38
2.725 -2.825 -1.673 0.3
2.741 -2.824 -1.678 0.25
2.787 -2.861 -1.704 0.33
2.802 -2.859 -1.708 0.51
2.771 -2.81 -1.683 0.62
2.762 -2.783 -1.671 0.35
2.765 -2.769 -1.668 0.4
2.772 -2.758 -1.666 0.38
2.789 -2.758 -1.672 0.31
2.812 -2.772 -1.684 0.34
2.815 -2.758 -1.68 0.5
2.865 -2.788 -1.706 0.28
2.869 -2.775 -1.704 0.45
2.881 -2.769 -1.705 0.36
2.875 -2.746 -1.696 0.54
2.833 -2.69 -1.665 0.45
2.837 -2.685 -1.665 0.35
2.848 -2.679 -1.666 0.3
2.876 -2.687 -1.678 0.31
2.891 -2.684 -1.682 0.41
2.934 -2.707 -1.704 0.21
2.964 -2.717 -1.717 0.45
2.969 -2.704 -1.714 0.36
2.958 -2.678 -1.703 0.49
2.962 -2.673 -1.703 0.52
2.949 -2.645 -1.689 0.35
2.944 -2.623 -1.681 0.39
2.96 -2.621 -1.686 0.36
2.967 -2.611 -1.685 0.34
2.986 -2.611 -1.692 0.33
2.99 -2.598 -1.689 0.41
2.983 -2.584 -1.683 0.45
2.983 -2.567 -1.678 0.38
2.985 -2.553 -1.674 0.34
2.991 -2.542 -1.673 0.37
2.996 -2.53 -1.671 0.38
2.998 -2.516 -1.668 0.38
3.01 -2.51 -1.67 0.39
3.011 -2.503 -1.669 0.31
3.016 -2.491 -1.667 0.55
3.007 -2.468 -1.657 0.34
3.002 -2.448 -1.65 0.31
3.035 -2.459 -1.665 0.34
3.08 -2.479 -1.686 0.38
3.108 -2.485 -1.698 0.34
3.126 -2.491 -1.706 0.39
3.137 -2.484 -1.708 0.3
3.12 -2.455 -1.694 0.54
3.118 -2.437 -1.688 0.39
3.133 -2.433 -1.692 0.4
3.123 -2.41 -1.682 0.39
3.112 -2.386 -1.671 0.39
2.976 -2.276 -1.592 0.0
3.079 -2.338 -1.646 0.0
3.298 -2.011 -1.645 0.0
3.262 -1.975 -1.622 0.0
3.223 -1.938 -1.598 0.0
3.231 -1.929 -1.599 0.0
3.24 -1.92 -1.601 0.0
3.243 -1.908 -1.599 0.0
3.244 -1.895 -1.597 0.0
3.244 -1.889 -1.595 0.0
3.818 -1.805 -1.809 0.01
3.748 -1.758 -1.771 0.16
3.707 -1.725 -1.747 0.2
3.704 -1.71 -1.743 0.29
3.704 -1.696 -1.741 0.28
3.71 -1.684 -1.741 0.39
3.717 -1.68 -1.743 0.34
3.722 -1.669 -1.743 0.36
3.726 -1.656 -1.743 0.39
3.74 -1.648 -1.747 0.34
3.736 -1.633 -1.743 0.39
3.735 -1.618 -1.739 0.38
3.721 -1.599 -1.73 0.35
3.709 -1.587 -1.723 0.39
3.717 -1.576 -1.724 0.3
3.73 -1.568 -1.728 0.34
3.734 -1.556 -1.728 0.33
3.73 -1.54 -1.723 0.34
3.738 -1.53 -1.725 0.32
3.752 -1.522 -1.729 0.33
3.747 -1.513 -1.726 0.37
3.752 -1.501 -1.726 0.3
3.752 -1.488 -1.723 0.32
3.761 -1.478 -1.726 0.35
3.762 -1.465 -1.724 0.33
3.757 -1.449 -1.719 0.44
3.76 -1.436 -1.718 0.3
3.776 -1.436 -1.725 0.34
3.765 -1.418 -1.718 0.36
3.778 -1.409 -1.722 0.29
3.789 -1.4 -1.725 0.4
3.788 -1.386 -1.723 0.35
3.786 -1.372 -1.719 0.33
3.797 -1.362 -1.723 0.32
3.787 -1.346 -1.716 0.36
3.793 -1.341 -1.718 0.38
3.809 -1.333 -1.723 0.29
3.81 -1.32 -1.722 0.29
3.798 -1.303 -1.714 0.4
3.721 -1.264 -1.675 0.0
3.803 -1.278 -1.713 0.0
3.659 1.356 -1.704 0.09
3.66 1.369 -1.706 0.2
3.665 1.377 -1.709 0.34
3.667 1.391 -1.713 0.32
3.656 1.4 -1.709 0.26
3.643 1.409 -1.705 0.3
3.644 1.422 -1.708 0.38
3.643 1.435 -1.709 0.28
3.635 1.445 -1.708 0.35
3.624 1.447 -1.704 0.31
3.631 1.463 -1.709 0.31
3.625 1.474 -1.709 0.34
3.622 1.486 -1.709 0.32
3.621 1.499 -1.711 0.33
3.606 1.506 -1.706 0.29
3.601 1.517 -1.706 0.39
3.6 1.53 -1.708 0.31
3.597 1.536 -1.708 0.35
3.594 1.548 -1.709 0.25
3.591 1.56 -1.709 0.36
3.586 1.571 -1.709 0.29
3.579 1.582 -1.709 0.37
3.576 1.594 -1.709 0.29
3.584 1.611 -1.716 0.4
3.568 1.61 -1.709 0.32
3.578 1.628 -1.717 0.25
3.57 1.638 -1.715 0.0
3.566 1.65 -1.716 0.0
3.571 1.666 -1.721 0.0
3.414 1.946 -1.716 0.0
3.408 1.957 -1.716 0.04
3.406 1.97 -1.719 0.14
3.408 1.978 -1.721 0.1
3.387 1.981 -1.714 0.21
3.397 2.001 -1.722 0.11
3.389 2.01 -1.721 0.0
3.379 2.019 -1.72 0.0
3.381 2.034 -1.724 0.0
3.364 2.038 -1.718 0.0
3.368 2.056 -1.724 0.0
3.115 2.392 -1.715 0.1
3.114 2.406 -1.719 0.21
3.094 2.407 -1.712 0.26
3.095 2.423 -1.717 0.36
3.095 2.439 -1.721 0.35
3.08 2.443 -1.717 0.31
3.075 2.447 -1.716 0.36
3.081 2.467 -1.725 0.28
3.058 2.465 -1.715 0.35
3.047 2.472 -1.714 0.32
3.05 2.49 -1.72 0.32
3.04 2.498 -1.719 0.38
3.017 2.495 -1.709 0.25
3.029 2.512 -1.719 0.36
3.012 2.515 -1.714 0.31
3.013 2.531 -1.719 0.33
3.003 2.54 -1.718 0.35
2.986 2.541 -1.712 0.32
2.978 2.55 -1.712 0.29
2.986 2.574 -1.722 0.41
2.962 2.569 -1.712 0.34
2.963 2.578 -1.715 0.34
2.967 2.598 -1.723 0.31
2.944 2.594 -1.714 0.36
2.934 2.602 -1.713 0.3
2.936 2.62 -1.719 0.34
2.915 2.618 -1.711 0.33
2.919 2.638 -1.719 0.34
2.919 2.647 -1.721 0.36
2.905 2.651 -1.718 0.36
2.897 2.66 -1.718 0.25
2.886 2.667 -1.716 0.33
2.879 2.677 -1.717 0.37
2.869 2.685 -1.716 0.31
2.862 2.695 -1.717 0.34
2.855 2.697 -1.715 0.36
2.855 2.713 -1.72 0.32
2.842 2.719 -1.718 0.4
2.835 2.729 -1.719 0.3
2.826 2.738 -1.719 0.34
2.814 2.743 -1.716 0.34
2.805 2.752 -1.716 0.37
2.806 2.761 -1.72 0.29
2.795 2.767 -1.718 0.36
2.787 2.777 -1.719 0.34
2.777 2.785 -1.718 0.32
2.774 2.799 -1.721 0.34
2.76 2.802 -1.718 0.29
2.756 2.816 -1.721 0.34
2.75 2.819 -1.72 0.37
2.735 2.821 -1.716 0.31
2.729 2.832 -1.718 0.3
2.722 2.844 -1.72 0.32
2.711 2.85 -1.718 0.38
2.703 2.859 -1.719 0.3
2.698 2.872 -1.721 0.36
2.694 2.876 -1.721 0.28
2.683 2.883 -1.72 0.3
2.677 2.894 -1.722 0.41
2.669 2.904 -1.723 0.32
2.655 2.907 -1.72 0.39
2.646 2.915 -1.72 0.31
2.635 2.922 -1.719 0.38
2.632 2.937 -1.723 0.27
2.627 2.941 -1.723 0.38
2.617 2.948 -1.722 0.29
2.606 2.955 -1.721 0.32
2.595 2.961 -1.72 0.3
2.587 2.97 -1.72 0.37
2.573 2.973 -1.717 0.29
2.573 2.992 -1.724 0.35
2.567 2.994 -1.723 0.34
2.554 2.998 -1.72 0.28
2.552 3.015 -1.726 0.35
2.533 3.012 -1.719 0.31
2.525 3.022 -1.72 0.3
2.518 3.033 -1.722 0.37
2.512 3.045 -1.725 0.34
2.507 3.049 -1.725 0.29
2.498 3.057 -1.725 0.37
2.486 3.062 -1.723 0.35
2.475 3.068 -1.722 0.29
2.468 3.079 -1.724 0.35
2.457 3.085 -1.723 0.33
2.446 3.091 -1.722 0.28
2.448 3.104 -1.727 0.41
2.438 3.111 -1.727 0.23
2.427 3.118 -1.726 0.4
2.42 3.128 -1.728 0.26
2.407 3.131 -1.726 0.38
2.397 3.139 -1.726 0.34
2.386 3.145 -1.725 0.31
2.381 3.149 -1.725 0.35
2.374 3.161 -1.727 0.37
2.364 3.168 -1.727 0.33
2.354 3.175 -1.727 0.33
2.342 3.18 -1.726 0.26
2.338 3.195 -1.73 0.41
2.324 3.197 -1.727 0.3
2.32 3.203 -1.728 0.37
2.309 3.208 -1.727 0.29
2.299 3.216 -1.727 0.33
2.29 3.224 -1.728 0.37
2.28 3.231 -1.728 0.31
2.267 3.234 -1.726 0.32
2.261 3.247 -1.729 0.37
2.248 3.251 -1.727 0.31
2.245 3.258 -1.729 0.32
2.231 3.259 -1.726 0.32
2.226 3.273 -1.73 0.36
2.21 3.273 -1.726 0.3
2.206 3.289 -1.731 0.32
2.198 3.299 -1.732 0.37
2.185 3.301 -1.73 0.26
2.183 3.311 -1.733 0.36
2.176 3.322 -1.736 0.34
2.161 3.321 -1.731 0.32
2.152 3.331 -1.733 0.3
2.136 3.329 -1.728 0.25
2.13 3.343 -1.732 0.35
2.122 3.353 -1.734 0.27
2.119 3.361 -1.737 0.46
2.104 3.36 -1.732 0.29
2.094 3.368 -1.733 0.27
2.084 3.374 -1.733 0.35
2.074 3.382 -1.734 0.32
2.061 3.386 -1.732 0.28
2.05 3.391 -1.731 0.32
2.041 3.4 -1.733 0.35
2.036 3.403 -1.733 0.36
2.028 3.414 -1.736 0.35
2.017 3.421 -1.736 0.34
2.005 3.426 -1.735 0.34
1.992 3.427 -1.732 0.32
1.984 3.438 -1.735 0.34
1.968 3.435 -1.73 0.25
1.969 3.449 -1.736 0.41
1.959 3.458 -1.737 0.34
1.947 3.461 -1.736 0.3
1.935 3.466 -1.735 0.38
1.924 3.472 -1.735 0.34
1.914 3.479 -1.736 0.27
1.901 3.482 -1.734 0.38
1.894 3.495 -1.737 0.33
1.89 3.501 -1.739 0.25
1.877 3.503 -1.737 0.34
1.866 3.509 -1.737 0.38
1.855 3.515 -1.737 0.27
1.843 3.518 -1.736 0.38
1.832 3.525 -1.737 0.37
1.819 3.526 -1.734 0.25
1.817 3.535 -1.737 0.36
1.805 3.539 -1.737 0.34
1.796 3.55 -1.739 0.34
1.779 3.544 -1.733 0.29
1.771 3.556 -1.737 0.29
1.76 3.562 -1.737 0.29
1.75 3.569 -1.737 0.41
1.743 3.57 -1.737 0.3
1.738 3.589 -1.743 0.25
1.725 3.589 -1.741 0.48
1.708 3.583 -1.735 0.29
1.698 3.59 -1.736 0.3
1.69 3.604 -1.74 0.37
1.676 3.602 -1.737 0.29
1.672 3.61 -1.739 0.37
1.659 3.612 -1.737 0.3
1.652 3.625 -1.742 0.37
1.638 3.625 -1.739 0.29
1.626 3.629 -1.738 0.33
1.612 3.629 -1.736 0.34
1.603 3.637 -1.737 0.38
1.596 3.652 -1.742 0.28
1.585 3.645 -1.737 0.36
1.575 3.652 -1.738 0.28
1.566 3.663 -1.742 0.32
1.552 3.663 -1.739 0.32
1.54 3.666 -1.738 0.38
1.531 3.676 -1.741 0.31
1.515 3.671 -1.736 0.35
1.509 3.673 -1.736 0.31
1.505 3.695 -1.744 0.41
1.485 3.679 -1.734 0.26
1.479 3.699 -1.742 0.37
1.467 3.702 -1.741 0.29
1.449 3.691 -1.733 0.3
1.444 3.713 -1.742 0.42
1.435 3.707 -1.737 0.3
1.422 3.708 -1.736 0.38
1.415 3.724 -1.742 0.34
1.402 3.725 -1.74 0.29
1.387 3.721 -1.736 0.35
1.383 3.744 -1.745 0.41
1.366 3.735 -1.738 0.27
1.359 3.733 -1.737 0.38
1.349 3.745 -1.74 0.28
1.336 3.745 -1.738 0.25
1.325 3.751 -1.739 0.45
1.315 3.759 -1.741 0.28
1.303 3.765 -1.742 0.36
1.291 3.767 -1.741 0.33
1.279 3.771 -1.741 0.35
1.273 3.771 -1.74 0.29
1.26 3.772 -1.738 0.35
1.249 3.779 -1.74 0.32
1.236 3.781 -1.739 0.32
1.225 3.785 -1.739 0.36
1.212 3.786 -1.737 0.3
1.202 3.796 -1.741 0.33
1.195 3.795 -1.739 0.38
1.184 3.802 -1.741 0.28
1.172 3.806 -1.741 0.35
1.158 3.804 -1.738 0.32
1.148 3.811 -1.74 0.37
1.134 3.81 -1.737 0.3
1.124 3.818 -1.74 0.37
1.119 3.825 -1.742 0.31
1.106 3.825 -1.741 0.29
1.093 3.825 -1.739 0.34
1.084 3.839 -1.744 0.36
1.07 3.836 -1.741 0.27
1.056 3.834 -1.738 0.29
1.045 3.84 -1.74 0.37
1.034 3.845 -1.741 0.34
1.027 3.845 -1.74 0.36
1.014 3.845 -1.738 0.29
1.003 3.852 -1.74 0.36
0.992 3.86 -1.742 0.32
0.977 3.851 -1.737 0.3
0.966 3.859 -1.739 0.36
0.956 3.869 -1.742 0.39
0.949 3.866 -1.74 0.34
0.937 3.87 -1.741 0.29
0.926 3.877 -1.742 0.34
0.913 3.878 -1.742 0.32
0.901 3.881 -1.742 0.33
0.887 3.876 -1.738 0.32
