# .PCD v.7 - Point Cloud Data file format
VERSION .7
FIELDS x y z intensity
SIZE 4 4 4 4
TYPE F F F F
COUNT 1 1 1 1
WIDTH 1916
HEIGHT 1
VIEWPOINT 0 0 0 1 0 0 0
POINTS 1916
DATA ascii
38.661 -14.895 0.838 0.0
39.182 -14.955 0.846 0.06
39.95 -15.106 0.857 0.11
40.153 -15.038 0.86 0.24
40.443 -15.075 0.864 0.17
41.064 -15.16 0.874 0.22
41.042 -15.005 0.872 0.23
41.183 -14.91 0.874 0.0
41.431 -14.853 0.877 0.0
42.805 -15.195 0.899 0.0
43.26 -15.204 0.905 0.0
43.656 -15.267 0.911 0.12
33.624 -11.634 0.749 0.0
44.345 -15.196 0.921 0.0
44.692 -15.158 0.926 0.0
45.518 -15.28 0.938 0.0
46.065 -15.303 0.946 0.0
46.533 -15.296 0.953 0.0
47.02 -15.375 0.96 0.0
47.534 -15.378 0.968 0.0
48.072 -15.386 0.976 0.0
48.617 -15.392 0.983 0.0
49.148 -15.391 0.991 0.0
49.754 -15.409 1.0 0.0
50.334 -15.416 1.009 0.0
50.881 -15.409 1.016 0.0
51.275 -15.441 1.022 0.0
51.735 -15.403 1.029 0.0
52.723 -15.517 1.044 0.0
53.419 -15.54 1.054 0.0
54.065 -15.544 1.063 0.0
54.702 -15.542 1.073 0.0
55.438 -15.563 1.084 0.0
56.098 -15.654 1.094 0.0
56.802 -15.658 1.104 0.0
57.573 -15.677 1.115 0.0
58.328 -15.686 1.127 0.0
58.746 -15.601 1.132 0.0
59.886 -15.703 1.15 0.0
60.667 -15.704 1.161 0.0
61.516 -15.822 1.174 0.0
62.324 -15.821 1.186 0.0
63.178 -15.827 1.199 0.0
64.066 -15.836 1.212 0.0
64.988 -15.848 1.225 0.0
65.848 -15.839 1.238 0.0
66.782 -15.842 1.252 0.0
67.833 -15.98 1.268 0.0
68.9 -16.003 1.284 0.0
70.025 -16.033 1.301 0.0
71.16 -16.058 1.317 0.0
54.902 -12.202 1.063 0.0
73.607 -16.126 1.354 0.0
74.793 -16.14 1.372 0.0
75.646 -16.2 1.385 0.0
50.452 -10.465 0.992 0.0
77.572 -15.85 1.412 0.0
64.294 -9.487 1.196 0.0
69.417 -9.8 1.274 0.0
74.391 -3.895 1.341 0.74
74.395 -3.661 1.341 0.0
64.655 11.376 0.871 0.0
64.574 11.571 0.87 0.0
54.608 11.652 0.771 0.0
54.563 11.822 0.771 0.0
54.556 11.91 0.771 0.0
69.888 17.699 0.936 0.0
70.247 18.025 0.94 0.0
44.636 12.118 0.675 0.04
44.474 12.225 0.673 0.0
44.43 12.363 0.673 0.0
63.717 17.957 0.876 0.0
63.331 17.955 0.872 0.0
62.903 18.048 0.868 0.0
62.462 18.133 0.864 0.0
62.025 18.218 0.86 0.0
61.609 18.306 0.857 0.0
61.202 18.395 0.853 0.0
60.763 18.471 0.849 0.0
60.348 18.552 0.845 0.0
58.761 18.773 0.831 0.0
58.416 18.865 0.827 0.0
58.195 18.996 0.826 0.0
57.799 19.067 0.822 0.0
57.467 19.058 0.819 0.0
56.954 19.086 0.814 0.0
56.604 19.167 0.811 0.0
56.366 19.284 0.809 0.0
55.997 19.354 0.806 0.0
55.641 19.427 0.803 0.0
55.157 19.452 0.798 0.0
54.859 19.444 0.795 0.0
54.634 19.557 0.794 0.0
54.27 19.619 0.79 0.0
53.941 19.692 0.787 0.0
53.477 19.713 0.783 0.0
53.138 19.778 0.78 0.0
52.796 19.84 0.777 0.0
52.715 19.904 0.777 0.0
39.414 15.016 0.633 0.05
39.298 15.114 0.633 0.0
39.121 15.187 0.631 0.0
39.023 15.29 0.631 0.0
39.358 15.564 0.635 0.0
39.166 15.631 0.633 0.0
38.822 15.564 0.63 0.0
38.731 15.669 0.629 0.0
38.535 15.73 0.628 0.0
38.53 15.87 0.628 0.07
38.241 15.891 0.626 0.08
38.228 16.027 0.626 0.14
38.205 16.159 0.626 0.22
38.16 16.21 0.626 0.12
36.385 15.726 0.608 0.91
36.244 15.8 0.607 0.94
36.033 15.843 0.605 0.82
36.186 16.046 0.607 0.0
38.141 17.058 0.629 0.0
37.973 17.126 0.628 0.0
38.517 17.445 0.634 0.0
38.332 17.506 0.633 0.0
38.342 17.657 0.634 0.0
38.286 17.777 0.634 0.0
38.089 17.831 0.632 0.0
37.445 17.673 0.626 0.0
37.59 17.886 0.628 0.0
37.684 18.003 0.629 0.0
37.591 18.104 0.629 0.0
37.371 18.143 0.627 0.0
37.155 18.183 0.625 0.0
37.537 18.516 0.63 0.0
27.792 13.81 0.521 0.11
27.697 13.872 0.52 0.16
27.666 13.911 0.52 0.0
27.69 14.032 0.521 0.0
27.665 14.129 0.521 0.05
27.381 14.092 0.518 0.16
27.154 14.083 0.516 0.3
27.173 14.202 0.517 0.11
26.967 14.202 0.515 0.15
27.049 14.3 0.516 0.12
26.946 14.353 0.516 0.16
27.073 14.531 0.518 0.31
26.922 14.559 0.517 0.2
26.701 14.547 0.514 0.16
26.795 14.708 0.516 0.0
26.869 14.859 0.518 0.11
26.979 14.975 0.519 0.0
37.004 20.703 0.636 0.0
36.94 20.82 0.636 0.07
27.038 15.343 0.521 0.15
27.014 15.442 0.522 0.0
27.044 15.572 0.523 0.0
54.757 31.79 0.847 0.0
54.853 31.961 0.849 0.0
54.876 32.206 0.85 0.0
54.909 32.458 0.852 0.0
54.946 32.713 0.853 0.0
54.976 32.966 0.855 0.0
55.013 33.223 0.857 0.0
55.054 33.484 0.858 0.0
55.1 33.75 0.86 0.0
55.173 33.914 0.862 0.06
28.165 17.42 0.542 0.14
27.999 17.439 0.541 0.22
27.801 17.437 0.539 0.2
27.658 17.468 0.538 0.23
23.698 15.068 0.491 0.16
23.54 15.071 0.49 0.16
23.42 15.046 0.489 0.17
23.267 15.051 0.487 0.1
23.119 15.058 0.486 0.14
22.983 15.073 0.485 0.16
22.827 15.073 0.484 0.16
22.683 15.08 0.482 0.16
22.548 15.041 0.481 0.23
22.431 15.065 0.48 0.11
22.284 15.068 0.479 0.16
22.157 15.084 0.478 0.15
21.919 15.022 0.476 0.13
21.687 14.964 0.473 0.33
21.624 15.02 0.473 0.41
21.523 15.001 0.472 0.18
21.492 15.08 0.473 0.16
21.384 15.104 0.472 0.12
21.237 15.101 0.471 0.17
21.135 15.128 0.47 0.28
21.004 15.134 0.469 0.19
20.936 15.185 0.469 0.18
20.952 15.298 0.469 0.34
20.977 15.366 0.47 0.19
21.005 15.489 0.471 0.23
20.981 15.573 0.471 0.18
21.004 15.693 0.472 0.23
20.981 15.779 0.473 0.2
20.994 15.892 0.473 0.22
20.976 15.982 0.474 0.2
21.013 16.063 0.475 0.3
20.997 16.155 0.475 0.19
21.022 16.28 0.476 0.35
21.021 16.385 0.477 0.2
21.015 16.487 0.477 0.13
21.002 16.584 0.478 0.18
21.006 16.695 0.478 0.29
21.06 16.792 0.479 0.19
21.043 16.886 0.48 0.34
21.058 17.008 0.481 0.19
21.06 17.119 0.481 0.14
21.033 17.207 0.482 0.17
21.056 17.337 0.483 0.21
21.026 17.423 0.483 0.0
20.974 17.436 0.483 0.06
20.966 17.541 0.483 0.14
20.966 17.654 0.484 0.25
20.845 17.664 0.483 0.29
20.736 17.684 0.483 0.31
20.612 17.69 0.482 0.29
20.501 17.706 0.481 0.3
20.396 17.672 0.48 0.3
20.262 17.667 0.479 0.29
20.155 17.686 0.478 0.3
20.031 17.688 0.477 0.3
19.926 17.707 0.477 0.32
19.806 17.712 0.476 0.32
19.682 17.713 0.475 0.31
19.596 17.691 0.474 0.32
19.481 17.699 0.473 0.32
19.368 17.707 0.472 0.35
16.867 15.514 0.439 0.18
16.785 15.535 0.438 0.36
16.726 15.579 0.438 0.35
16.697 15.65 0.439 0.2
18.809 17.746 0.469 0.32
18.721 17.719 0.468 0.33
18.615 17.729 0.467 0.3
18.514 17.744 0.466 0.33
18.394 17.74 0.465 0.29
18.284 17.745 0.465 0.3
18.192 17.767 0.464 0.33
18.085 17.774 0.463 0.29
18.001 17.747 0.463 0.32
17.896 17.754 0.462 0.31
17.796 17.767 0.461 0.32
17.687 17.769 0.461 0.32
17.577 17.77 0.46 0.31
17.482 17.785 0.459 0.32
17.372 17.784 0.458 0.33
17.291 17.757 0.458 0.32
17.202 17.777 0.457 0.33
17.081 17.763 0.456 0.32
17.0 17.79 0.456 0.3
16.896 17.793 0.455 0.33
16.799 17.802 0.455 0.35
16.706 17.815 0.454 0.36
16.644 17.805 0.454 0.36
16.543 17.809 0.453 0.36
16.435 17.805 0.452 0.37
16.347 17.821 0.452 0.36
16.241 17.817 0.451 0.37
16.146 17.825 0.45 0.36
16.061 17.843 0.45 0.38
15.981 17.81 0.449 0.38
15.89 17.822 0.449 0.37
15.805 17.838 0.448 0.38
15.705 17.838 0.447 0.39
15.61 17.842 0.447 0.39
15.514 17.846 0.446 0.37
15.424 17.855 0.446 0.39
15.353 17.83 0.445 0.39
15.262 17.837 0.444 0.37
15.167 17.839 0.444 0.38
15.088 17.859 0.443 0.39
14.992 17.859 0.443 0.39
14.898 17.861 0.442 0.38
14.814 17.874 0.442 0.4
14.72 17.874 0.441 0.43
12.616 15.363 0.408 0.33
12.541 15.37 0.408 0.39
12.474 15.386 0.407 0.35
12.389 15.38 0.407 0.39
12.315 15.386 0.406 0.38
12.24 15.391 0.406 0.38
12.157 15.386 0.405 0.37
12.116 15.383 0.405 0.35
12.043 15.389 0.405 0.35
11.97 15.395 0.404 0.4
11.897 15.401 0.404 0.34
11.824 15.407 0.404 0.36
11.749 15.409 0.403 0.36
11.675 15.412 0.403 0.36
11.631 15.403 0.402 0.37
11.559 15.409 0.402 0.36
11.487 15.413 0.402 0.36
11.415 15.417 0.401 0.37
11.345 15.424 0.401 0.38
11.268 15.421 0.4 0.36
11.208 15.44 0.4 0.37
11.156 15.419 0.4 0.38
11.09 15.429 0.399 0.38
11.017 15.43 0.399 0.36
10.949 15.436 0.399 0.38
10.878 15.44 0.398 0.39
10.801 15.433 0.398 0.42
10.667 15.343 0.396 0.3
10.593 15.339 0.396 0.34
10.552 15.331 0.395 0.51
10.524 15.394 0.396 0.3
10.494 15.455 0.396 0.4
10.428 15.461 0.396 0.4
10.359 15.464 0.395 0.38
10.299 15.478 0.395 0.34
10.229 15.479 0.395 0.41
10.189 15.471 0.394 0.39
10.118 15.468 0.394 0.38
10.053 15.474 0.394 0.4
9.989 15.482 0.393 0.38
9.921 15.483 0.393 0.34
9.851 15.481 0.393 0.53
9.82 15.54 0.393 0.29
9.843 15.63 0.394 0.32
9.854 15.758 0.395 0.38
9.847 15.858 0.396 0.31
9.853 15.98 0.397 0.32
9.858 16.101 0.398 0.32
9.86 16.219 0.399 0.35
9.853 16.324 0.4 0.31
9.876 16.42 0.401 0.33
9.882 16.547 0.402 0.34
9.887 16.674 0.403 0.33
9.882 16.786 0.404 0.32
9.882 16.909 0.405 0.3
9.892 17.049 0.406 0.33
9.886 17.161 0.407 0.3
9.913 17.272 0.409 0.32
9.92 17.411 0.41 0.31
9.916 17.531 0.411 0.23
10.047 17.896 0.415 0.19
9.796 17.577 0.411 0.15
9.918 17.929 0.414 0.27
9.856 17.949 0.414 0.23
9.783 17.95 0.414 0.14
9.791 18.032 0.415 0.39
9.718 18.033 0.414 0.4
9.65 18.042 0.414 0.45
9.582 18.051 0.414 0.36
9.508 18.048 0.413 0.47
9.441 18.058 0.413 0.38
9.37 18.059 0.413 0.39
9.327 18.047 0.413 0.45
9.258 18.051 0.412 0.37
9.189 18.057 0.412 0.39
9.121 18.063 0.412 0.39
9.052 18.066 0.411 0.47
8.982 18.068 0.411 0.38
8.912 18.069 0.411 0.39
8.874 18.065 0.411 0.39
8.806 18.069 0.41 0.39
8.739 18.075 0.41 0.39
8.673 18.085 0.41 0.39
8.605 18.086 0.41 0.4
8.538 18.094 0.409 0.39
8.467 18.089 0.409 0.39
8.403 18.1 0.409 0.4
8.36 18.082 0.409 0.41
8.294 18.088 0.408 0.4
8.23 18.098 0.408 0.41
8.162 18.1 0.408 0.4
8.091 18.094 0.408 0.4
8.026 18.099 0.407 0.4
7.959 18.103 0.407 0.41
7.926 18.104 0.407 0.41
7.858 18.103 0.407 0.39
7.794 18.111 0.407 0.41
7.728 18.115 0.406 0.41
7.661 18.116 0.406 0.4
7.595 18.117 0.406 0.41
7.53 18.121 0.406 0.41
7.492 18.11 0.405 0.43
7.43 18.121 0.405 0.41
7.365 18.126 0.405 0.42
7.299 18.125 0.405 0.41
7.237 18.134 0.405 0.41
7.172 18.138 0.404 0.42
7.106 18.137 0.404 0.41
7.044 18.148 0.404 0.42
7.008 18.138 0.404 0.42
6.943 18.14 0.404 0.43
6.879 18.143 0.403 0.42
6.817 18.151 0.403 0.38
6.761 18.174 0.403 0.62
5.736 15.557 0.375 0.19
5.679 15.555 0.375 0.33
5.653 15.558 0.375 0.43
5.606 15.581 0.375 0.37
6.46 18.147 0.402 0.26
6.402 18.164 0.402 0.43
6.337 18.161 0.402 0.41
6.274 18.164 0.401 0.43
6.211 18.167 0.401 0.42
6.183 18.176 0.401 0.34
6.116 18.167 0.401 0.45
6.053 18.167 0.401 0.43
5.988 18.163 0.401 0.43
5.928 18.173 0.4 0.43
5.863 18.166 0.4 0.42
5.799 18.164 0.4 0.41
5.74 18.176 0.4 0.39
5.707 18.172 0.4 0.4
5.646 18.176 0.4 0.39
5.587 18.188 0.4 0.39
5.525 18.188 0.399 0.4
5.461 18.185 0.399 0.39
5.399 18.182 0.399 0.38
5.337 18.184 0.399 0.38
5.304 18.177 0.399 0.39
5.244 18.184 0.399 0.46
5.185 18.195 0.398 0.38
5.119 18.18 0.398 0.38
5.062 18.196 0.398 0.4
5.003 18.204 0.398 0.39
4.939 18.193 0.398 0.4
4.905 18.183 0.398 0.39
4.849 18.2 0.398 0.38
4.785 18.19 0.397 0.38
4.726 18.197 0.397 0.38
4.669 18.216 0.397 0.39
4.604 18.198 0.397 0.41
4.549 18.22 0.397 0.41
4.517 18.213 0.397 0.4
4.454 18.206 0.397 0.41
4.398 18.226 0.397 0.4
4.338 18.228 0.397 0.41
4.273 18.208 0.396 0.4
4.219 18.233 0.396 0.4
4.158 18.231 0.396 0.41
4.095 18.218 0.396 0.41
4.064 18.215 0.396 0.39
4.004 18.216 0.396 0.41
3.948 18.231 0.396 0.41
3.887 18.229 0.396 0.41
3.829 18.237 0.396 0.41
3.767 18.226 0.395 0.41
3.712 18.247 0.395 0.41
3.681 18.243 0.395 0.41
3.622 18.245 0.395 0.42
3.564 18.254 0.395 0.41
3.504 18.25 0.395 0.41
3.445 18.251 0.395 0.41
3.385 18.246 0.395 0.4
3.324 18.241 0.395 0.41
3.296 18.25 0.395 0.4
3.238 18.254 0.395 0.41
3.18 18.262 0.395 0.41
3.122 18.266 0.395 0.43
3.063 18.268 0.394 0.42
3.004 18.27 0.394 0.43
2.947 18.277 0.394 0.41
2.916 18.272 0.394 0.41
2.857 18.269 0.394 0.41
2.799 18.274 0.394 0.41
2.74 18.273 0.394 0.41
2.681 18.271 0.394 0.41
2.624 18.28 0.394 0.42
2.564 18.268 0.394 0.42
2.507 18.28 0.394 0.42
2.476 18.27 0.394 0.43
2.42 18.282 0.394 0.43
2.362 18.291 0.394 0.42
2.305 18.298 0.394 0.42
2.245 18.288 0.393 0.41
2.187 18.291 0.393 0.41
2.129 18.29 0.393 0.43
2.1 18.293 0.393 0.43
2.042 18.291 0.393 0.42
1.983 18.286 0.393 0.41
1.927 18.31 0.393 0.38
1.874 18.354 0.394 0.63
1.513 15.763 0.367 0.38
1.463 15.765 0.367 0.41
1.439 15.77 0.367 0.42
1.39 15.788 0.367 0.37
1.339 15.774 0.367 0.44
1.29 15.785 0.367 0.38
1.239 15.773 0.367 0.45
1.189 15.768 0.367 0.39
1.14 15.778 0.367 0.36
1.114 15.764 0.367 0.6
1.066 15.789 0.367 0.33
1.015 15.771 0.367 0.47
0.967 15.794 0.367 0.37
0.916 15.787 0.367 0.43
0.866 15.779 0.367 0.54
0.817 15.796 0.367 0.35
0.792 15.793 0.367 0.45
0.742 15.784 0.367 0.52
0.693 15.802 0.367 0.36
0.643 15.786 0.367 0.55
0.594 15.798 0.367 0.4
0.544 15.806 0.367 0.42
0.494 15.781 0.367 0.61
0.445 15.801 0.367 0.3
0.42 15.816 0.367 0.44
0.37 15.801 0.367 0.48
0.321 15.818 0.367 0.36
0.271 15.821 0.367 0.45
0.222 15.814 0.367 0.42
0.172 15.814 0.367 0.43
0.122 15.797 0.367 0.58
0.097 15.817 0.367 0.33
0.048 15.817 0.367 0.5
-0.002 15.821 0.367 0.38
-0.052 15.815 0.367 0.45
-0.101 15.823 0.367 0.38
-0.151 15.816 0.367 0.51
-0.201 15.832 0.367 0.39
-0.226 15.82 0.367 0.56
-0.276 15.839 0.367 0.34
-0.326 15.838 0.367 0.41
-0.375 15.821 0.367 0.45
-0.425 15.833 0.367 0.37
-0.474 15.822 0.367 0.53
-0.525 15.835 0.367 0.32
-0.574 15.833 0.367 0.46
-0.599 15.832 0.367 0.43
-0.649 15.842 0.367 0.41
-0.7 15.856 0.368 0.38
-0.748 15.824 0.367 0.48
-0.799 15.841 0.368 0.38
-0.849 15.846 0.368 0.42
-0.898 15.834 0.368 0.43
-0.924 15.844 0.368 0.37
-0.974 15.847 0.368 0.39
-1.024 15.846 0.368 0.43
-1.075 15.853 0.368 0.33
-1.124 15.839 0.368 0.51
-1.176 15.866 0.368 0.32
-1.224 15.84 0.368 0.54
-1.456 18.416 0.394 0.27
-1.514 18.407 0.394 0.41
-1.572 18.406 0.394 0.42
-1.63 18.409 0.394 0.42
-1.689 18.408 0.394 0.41
-1.748 18.414 0.394 0.42
-1.806 18.413 0.394 0.42
-1.864 18.409 0.394 0.41
-1.894 18.422 0.394 0.41
-1.953 18.424 0.394 0.41
-2.011 18.414 0.394 0.41
-2.071 18.429 0.395 0.42
-2.129 18.424 0.395 0.41
-2.188 18.424 0.395 0.41
-2.247 18.427 0.395 0.41
-2.278 18.443 0.395 0.41
-2.337 18.442 0.395 0.41
-2.395 18.438 0.395 0.41
-2.454 18.44 0.395 0.42
-2.513 18.439 0.395 0.4
-2.573 18.442 0.395 0.41
-2.63 18.43 0.395 0.41
-2.662 18.448 0.396 0.4
-2.721 18.445 0.396 0.41
-2.781 18.449 0.396 0.41
-2.84 18.45 0.396 0.41
-2.899 18.449 0.396 0.41
-2.958 18.443 0.396 0.4
-3.018 18.448 0.396 0.4
-3.079 18.454 0.396 0.41
-3.11 18.461 0.396 0.41
-3.169 18.459 0.397 0.41
-3.23 18.465 0.397 0.42
-3.29 18.466 0.397 0.4
-3.35 18.464 0.397 0.4
-3.409 18.463 0.397 0.39
-3.472 18.478 0.397 0.41
-3.501 18.47 0.397 0.4
-3.564 18.487 0.398 0.39
-3.622 18.475 0.398 0.4
-3.682 18.472 0.398 0.39
-3.743 18.474 0.398 0.41
-3.804 18.478 0.398 0.4
-3.864 18.475 0.398 0.41
-3.925 18.477 0.398 0.41
-3.956 18.482 0.398 0.4
-4.02 18.497 0.399 0.4
-4.079 18.488 0.399 0.4
-4.14 18.485 0.399 0.39
-4.204 18.499 0.399 0.4
-4.264 18.496 0.399 0.4
-4.324 18.488 0.399 0.39
-4.358 18.505 0.399 0.4
-4.419 18.501 0.399 0.39
-4.48 18.5 0.4 0.39
-4.541 18.496 0.4 0.46
-4.604 18.503 0.4 0.38
-4.665 18.5 0.4 0.43
-4.733 18.522 0.4 0.38
-4.764 18.522 0.401 0.38
-4.823 18.509 0.401 0.46
-4.89 18.529 0.401 0.37
-4.947 18.509 0.401 0.46
-5.011 18.517 0.401 0.38
-5.076 18.524 0.401 0.45
-5.141 18.531 0.402 0.32
-5.196 18.503 0.401 0.61
-4.387 15.544 0.37 0.23
-4.425 15.494 0.37 0.3
-4.468 15.461 0.37 0.39
-4.528 15.487 0.37 0.41
-4.583 15.492 0.371 0.39
-6.805 22.699 0.447 0.3
-6.82 22.492 0.445 0.36
-6.794 22.282 0.443 0.34
-6.805 22.069 0.441 0.32
-6.818 21.869 0.439 0.33
-6.827 21.656 0.437 0.32
-6.835 21.448 0.435 0.33
-6.849 21.261 0.433 0.35
-6.852 21.046 0.431 0.36
-6.836 20.887 0.429 0.35
-6.845 20.692 0.427 0.35
-6.852 20.498 0.426 0.32
-6.863 20.321 0.424 0.34
-6.877 20.154 0.422 0.35
-6.884 19.968 0.421 0.37
-6.895 19.799 0.419 0.37
-6.903 19.624 0.417 0.38
-6.879 19.459 0.416 0.36
-6.888 19.292 0.414 0.34
-6.9 19.135 0.413 0.39
-6.902 18.955 0.411 0.35
-6.915 18.806 0.41 0.38
-6.925 18.655 0.408 0.39
-6.933 18.496 0.407 0.39
-6.914 18.358 0.405 0.34
-6.921 18.206 0.404 0.41
-6.922 18.038 0.403 0.4
-6.93 17.89 0.401 0.38
-6.939 17.749 0.4 0.39
-6.948 17.608 0.399 0.31
-7.005 17.592 0.399 0.41
-7.043 17.607 0.399 0.41
-7.104 17.597 0.399 0.41
-7.17 17.603 0.399 0.4
-7.239 17.613 0.4 0.41
-7.4 17.843 0.402 0.43
-7.471 17.857 0.403 0.43
-7.542 17.868 0.403 0.42
-7.607 17.865 0.403 0.34
-7.646 17.879 0.404 0.45
-7.713 17.88 0.404 0.44
-7.774 17.865 0.404 0.43
-7.837 17.857 0.404 0.41
-7.911 17.872 0.405 0.42
-7.974 17.864 0.405 0.42
-8.044 17.87 0.405 0.43
-8.088 17.892 0.406 0.43
-8.15 17.879 0.406 0.42
-8.222 17.888 0.406 0.41
-8.296 17.9 0.407 0.42
-8.358 17.887 0.407 0.42
-8.429 17.891 0.407 0.43
-8.499 17.893 0.407 0.42
-8.563 17.883 0.408 0.41
-8.606 17.9 0.408 0.42
-8.677 17.903 0.408 0.42
-8.743 17.896 0.409 0.42
-8.816 17.902 0.409 0.41
-8.889 17.908 0.409 0.41
-8.955 17.9 0.41 0.41
-9.026 17.902 0.41 0.42
-9.071 17.92 0.41 0.4
-9.139 17.915 0.41 0.41
-9.211 17.916 0.411 0.4
-9.282 17.915 0.411 0.39
-9.357 17.923 0.412 0.4
-9.423 17.912 0.412 0.39
-9.499 17.919 0.412 0.4
-9.534 17.916 0.412 0.47
-9.62 17.943 0.413 0.32
-9.684 17.926 0.413 0.48
-9.758 17.928 0.414 0.38
-9.835 17.935 0.414 0.38
-9.905 17.929 0.414 0.39
-9.975 17.922 0.415 0.4
-10.049 17.922 0.415 0.46
-10.103 17.953 0.415 0.38
-10.173 17.944 0.416 0.39
-10.25 17.948 0.416 0.39
-10.322 17.944 0.416 0.45
-10.394 17.937 0.417 0.37
-10.476 17.949 0.417 0.45
-10.553 17.951 0.418 0.37
-10.596 17.96 0.418 0.38
-10.675 17.964 0.418 0.44
-10.758 17.975 0.419 0.38
-10.832 17.971 0.419 0.39
-10.91 17.971 0.42 0.44
-10.987 17.97 0.42 0.36
-11.055 17.955 0.42 0.43
-11.141 17.967 0.421 0.38
-11.18 17.967 0.421 0.43
-11.264 17.976 0.422 0.35
-11.338 17.969 0.422 0.43
-11.42 17.974 0.422 0.37
-11.43 17.865 0.422 0.57
-11.521 17.883 0.422 0.19
-11.719 18.003 0.424 0.33
-11.794 17.994 0.425 0.42
-11.878 17.999 0.425 0.42
-11.961 18.001 0.426 0.41
-12.046 18.005 0.426 0.34
-12.12 17.994 0.426 0.43
-12.202 17.994 0.427 0.42
-12.26 18.017 0.427 0.41
-12.344 18.018 0.428 0.41
-12.424 18.014 0.428 0.41
-12.516 18.026 0.429 0.39
-12.59 18.011 0.429 0.39
-12.681 18.02 0.43 0.41
-12.765 18.02 0.43 0.38
-12.846 18.013 0.431 0.39
-12.911 18.044 0.431 0.39
-12.992 18.037 0.432 0.38
-13.077 18.035 0.432 0.39
-13.16 18.031 0.433 0.39
-13.253 18.038 0.433 0.38
-13.337 18.033 0.434 0.38
-13.425 18.034 0.434 0.35
-13.485 18.055 0.435 0.56
-13.552 18.027 0.435 0.27
-11.546 15.264 0.401 0.35
-11.688 15.352 0.402 0.3
-11.75 15.333 0.402 0.21
-13.928 18.05 0.438 0.34
-14.029 18.063 0.438 0.38
-14.078 18.067 0.439 0.41
-14.167 18.064 0.439 0.4
-14.265 18.071 0.44 0.35
-14.357 18.07 0.44 0.41
-14.437 18.054 0.441 0.43
-14.524 18.046 0.441 0.41
-14.635 18.067 0.442 0.34
-14.856 18.223 0.445 0.0
-14.609 17.864 0.44 0.0
-14.828 18.015 0.443 0.0
-14.923 18.015 0.444 0.0
-15.003 17.995 0.444 0.0
-15.136 18.04 0.445 0.0
-15.068 17.844 0.443 0.0
-15.326 18.034 0.446 0.0
-15.393 18.056 0.447 0.0
-15.475 18.036 0.447 0.0
-15.513 17.853 0.446 0.17
-15.528 17.757 0.446 0.34
-15.549 17.669 0.445 0.35
-15.554 17.563 0.444 0.39
-15.56 17.459 0.444 0.38
-15.539 17.381 0.443 0.33
-15.542 17.274 0.442 0.39
-15.554 17.18 0.441 0.45
-15.576 17.095 0.441 0.0
-15.791 17.114 0.443 0.36
-18.127 19.517 0.476 0.21
-18.092 19.418 0.475 0.2
-18.119 19.325 0.475 0.36
-15.577 16.411 0.436 0.33
-15.576 16.307 0.435 0.36
-15.581 16.211 0.434 0.37
-15.59 16.119 0.434 0.36
-15.565 16.043 0.433 0.37
-15.564 15.941 0.432 0.38
-15.579 15.856 0.432 0.35
-15.578 15.756 0.431 0.38
-15.594 15.673 0.431 0.39
-15.599 15.58 0.43 0.38
-15.588 15.472 0.429 0.37
-15.582 15.418 0.429 0.33
-15.584 15.323 0.428 0.47
-15.554 15.198 0.427 0.36
-15.799 15.34 0.43 0.0
-15.462 14.92 0.424 0.0
-15.603 14.961 0.426 0.0
-15.683 14.944 0.426 0.0
-16.051 15.198 0.431 0.0
-16.119 15.214 0.431 0.0
-16.24 15.232 0.432 0.0
-16.33 15.22 0.433 0.09
-16.212 15.015 0.431 0.0
-16.455 15.144 0.433 0.0
-16.65 15.227 0.435 0.0
-16.696 15.173 0.435 0.0
-16.876 15.24 0.437 0.0
-16.812 15.135 0.436 0.0
-16.803 15.031 0.435 0.0
-17.16 15.253 0.439 0.0
-17.25 15.236 0.44 0.0
-17.382 15.255 0.441 0.0
-17.396 15.172 0.441 0.06
-17.362 15.047 0.439 0.0
-17.671 15.265 0.443 0.0
-17.764 15.248 0.444 0.0
-17.905 15.271 0.445 0.0
-17.939 15.203 0.445 0.0
-17.921 15.092 0.444 0.0
-18.241 15.263 0.448 0.0
-18.303 15.218 0.448 0.0
-18.401 15.25 0.449 0.0
-18.458 15.2 0.449 0.0
-18.47 15.113 0.448 0.09
-22.711 18.338 0.502 0.32
-22.765 18.264 0.502 0.14
-23.003 18.336 0.504 0.25
-23.105 18.358 0.505 0.32
-23.251 18.355 0.507 0.32
-23.409 18.361 0.508 0.29
-23.568 18.366 0.509 0.3
-23.707 18.355 0.51 0.32
-23.87 18.361 0.512 0.31
-24.034 18.367 0.513 0.3
-24.173 18.353 0.514 0.3
-24.312 18.398 0.515 0.3
-24.47 18.397 0.517 0.3
-24.624 18.392 0.518 0.29
-24.804 18.405 0.519 0.31
-24.966 18.404 0.521 0.31
-25.122 18.398 0.522 0.29
-25.288 18.397 0.523 0.27
-25.41 18.424 0.524 0.29
-25.557 18.409 0.526 0.28
-25.762 18.434 0.527 0.27
-25.936 18.435 0.529 0.29
-26.102 18.43 0.53 0.28
-26.281 18.433 0.532 0.29
-26.452 18.429 0.533 0.28
-26.615 18.481 0.535 0.27
-26.804 18.486 0.536 0.28
-26.956 18.466 0.537 0.24
-27.134 18.464 0.539 0.31
-27.142 18.345 0.538 0.3
-27.157 18.231 0.538 0.3
-27.149 18.102 0.537 0.27
-27.152 17.981 0.536 0.23
-27.06 17.859 0.535 0.0
-27.145 17.793 0.535 0.13
-22.911 14.92 0.484 0.2
-27.16 17.56 0.534 0.26
-27.075 17.385 0.532 0.0
-27.248 17.375 0.534 0.0
-29.749 18.771 0.563 0.0
-29.772 18.655 0.562 0.0
-27.183 16.798 0.53 0.28
-27.196 16.689 0.53 0.29
-27.19 16.568 0.529 0.29
-27.189 16.45 0.528 0.28
-27.169 16.38 0.528 0.31
-27.175 16.268 0.527 0.27
-27.19 16.161 0.527 0.29
-27.189 16.045 0.526 0.29
-27.196 15.934 0.526 0.25
-27.113 15.771 0.524 0.0
-27.175 15.693 0.524 0.0
-27.073 15.578 0.523 0.0
-27.179 15.525 0.524 0.0
-27.513 15.601 0.527 0.0
-27.727 15.608 0.529 0.0
-27.954 15.62 0.531 0.0
-28.234 15.66 0.533 0.0
-28.394 15.632 0.535 0.0
-28.662 15.662 0.537 0.0
-28.889 15.727 0.54 0.0
-29.128 15.739 0.542 0.0
-29.407 15.77 0.544 0.0
-29.55 15.727 0.545 0.0
-29.879 15.781 0.549 0.0
-30.079 15.766 0.55 0.0
-36.717 18.874 0.624 0.13
-36.885 18.814 0.626 0.27
-37.137 18.795 0.628 0.26
-37.462 18.812 0.631 0.26
-37.757 18.812 0.633 0.27
-38.047 18.807 0.636 0.26
-38.345 18.804 0.639 0.2
-38.35 18.732 0.638 0.21
-38.397 18.606 0.638 0.12
-38.643 18.575 0.64 0.11
-40.103 19.121 0.656 0.32
-40.103 18.967 0.655 0.2
-40.106 18.814 0.655 0.18
-40.132 18.673 0.654 0.13
-40.258 18.655 0.656 0.0
-40.509 18.616 0.658 0.04
-40.953 18.665 0.662 0.15
-41.319 18.675 0.665 0.16
-41.67 18.676 0.669 0.09
-42.039 18.683 0.672 0.14
-42.4 18.683 0.675 0.09
-42.718 18.743 0.679 0.09
-43.118 18.757 0.682 0.08
-32.079 13.843 0.56 0.14
-32.126 13.743 0.56 0.3
-32.127 13.624 0.56 0.27
-32.007 13.455 0.558 0.2
-32.058 13.359 0.558 0.34
-32.066 13.303 0.558 0.21
-32.171 13.228 0.559 0.0
-32.314 13.168 0.56 0.0
-46.729 18.859 0.716 0.0
-47.106 18.839 0.72 0.0
-47.648 18.882 0.725 0.0
-48.046 18.865 0.729 0.0
-44.991 17.586 0.695 0.0
-45.003 17.428 0.695 0.0
-50.645 19.427 0.755 0.0
-48.169 18.305 0.728 0.0
-50.665 19.07 0.754 0.0
-50.663 18.888 0.754 0.0
-48.157 17.783 0.726 0.03
-48.1 17.59 0.725 0.0
-48.064 17.491 0.724 0.0
-48.233 17.382 0.725 0.0
-48.806 17.415 0.731 0.0
-49.267 17.405 0.735 0.0
-49.777 17.409 0.74 0.0
-50.294 17.412 0.745 0.0
-50.731 17.385 0.749 0.0
-51.323 17.497 0.755 0.0
-41.192 13.905 0.647 0.0
-41.025 13.705 0.644 0.0
-41.117 13.592 0.645 0.0
-41.333 13.52 0.647 0.0
-54.084 17.307 0.781 0.0
-54.563 17.271 0.785 0.0
-55.237 17.389 0.792 0.0
-55.774 17.365 0.797 0.0
-49.91 12.831 0.728 0.0
-50.013 12.69 0.729 0.0
-50.221 12.575 0.73 0.0
-50.12 12.466 0.729 0.0
-56.747 13.733 0.797 0.0
-56.831 13.564 0.798 0.0
-55.65 12.638 0.784 0.0
-55.865 12.502 0.786 0.0
-54.553 11.67 0.771 0.0
-54.527 11.486 0.77 0.0
-54.75 11.353 0.772 0.0
-55.007 11.226 0.774 0.0
-55.21 10.817 0.776 0.0
-55.173 10.629 0.775 0.0
-55.703 10.55 0.78 0.0
-55.602 10.35 0.779 0.0
-55.687 10.185 0.779 0.0
-59.725 -17.338 0.836 0.0
-59.63 -17.514 0.835 0.0
-58.005 -17.731 0.82 0.0
-57.609 -17.808 0.816 0.0
-54.173 -17.118 0.781 0.0
-55.397 -17.697 0.795 0.0
-54.635 -17.642 0.787 0.0
-30.702 -10.009 0.534 0.07
-30.612 -10.032 0.533 0.17
-30.621 -10.142 0.533 0.18
-30.463 -10.196 0.532 0.14
-30.479 -10.308 0.532 0.13
-29.759 -10.168 0.525 0.15
-29.687 -10.248 0.525 0.22
-29.459 -10.272 0.522 0.18
-29.545 -10.407 0.524 0.34
-29.08 -10.294 0.519 0.27
-29.686 -10.614 0.526 0.18
-27.21 -9.823 0.5 0.36
-27.521 -10.033 0.503 0.27
-27.678 -10.19 0.505 0.11
-28.089 -10.442 0.51 0.2
-28.022 -10.517 0.51 0.12
-24.621 -9.282 0.473 0.43
-24.476 -9.315 0.472 0.26
-24.531 -9.424 0.473 0.11
-24.402 -9.462 0.472 0.16
-24.73 -9.679 0.476 0.13
-24.406 -9.641 0.472 0.19
-24.505 -9.769 0.474 0.3
-24.894 -9.97 0.478 0.0
-24.337 -9.835 0.472 0.13
-24.178 -9.859 0.471 0.16
-23.681 -9.743 0.466 0.16
-23.929 -9.933 0.469 0.11
-23.658 -9.908 0.466 0.34
-23.628 -9.983 0.466 0.19
-23.869 -10.129 0.469 0.29
-23.743 -10.163 0.468 0.26
-23.685 -10.227 0.468 0.25
-23.737 -10.338 0.469 0.29
-23.772 -10.442 0.47 0.2
-23.632 -10.469 0.468 0.2
-23.564 -10.528 0.468 0.3
-23.738 -10.696 0.47 0.14
-24.257 -10.976 0.476 0.26
-24.308 -11.091 0.477 0.0
-36.041 -16.595 0.608 0.0
-35.575 -16.516 0.604 0.06
-35.179 -16.467 0.6 0.0
-34.881 -16.461 0.597 0.11
-34.47 -16.399 0.593 0.23
-34.119 -16.298 0.589 0.11
-34.023 -16.383 0.589 0.14
-33.792 -16.402 0.587 0.0
-33.598 -16.439 0.585 0.13
-33.326 -16.436 0.583 0.16
-32.995 -16.401 0.58 0.1
-32.746 -16.406 0.577 0.0
-31.843 -16.078 0.568 0.1
-31.759 -16.098 0.567 0.0
-31.7 -16.193 0.567 0.07
-31.746 -16.343 0.568 0.08
-31.542 -16.364 0.566 0.14
-31.368 -16.399 0.565 0.09
-30.993 -16.326 0.561 0.16
-30.842 -16.309 0.56 0.23
-30.598 -16.303 0.558 0.25
-30.355 -16.295 0.555 0.2
-30.163 -16.315 0.554 0.17
-30.055 -16.379 0.553 0.0
-29.713 -16.313 0.55 0.14
-29.626 -16.387 0.549 0.29
-29.404 -16.384 0.547 0.26
-29.254 -16.361 0.546 0.2
-29.166 -16.432 0.546 0.18
-28.859 -16.378 0.543 0.22
-28.536 -16.314 0.539 0.2
-28.374 -16.34 0.538 0.21
-28.049 -16.27 0.535 0.18
-27.974 -16.344 0.535 0.23
-27.767 -16.281 0.532 0.18
-27.681 -16.348 0.532 0.18
-27.427 -16.314 0.53 0.42
-27.336 -16.377 0.529 0.23
-27.187 -16.403 0.528 0.18
-26.995 -16.403 0.526 0.41
-26.836 -16.422 0.525 0.23
-26.594 -16.389 0.523 0.25
-26.422 -16.34 0.521 0.19
-26.07 -16.236 0.518 0.25
-25.97 -16.287 0.517 0.23
-25.853 -16.326 0.516 0.41
-25.506 -16.219 0.513 0.21
-25.452 -16.297 0.513 0.24
-25.288 -16.305 0.511 0.2
-25.158 -16.277 0.51 0.2
-24.976 -16.27 0.508 0.42
-24.758 -16.239 0.506 0.23
-24.65 -16.279 0.506 0.2
-24.391 -16.218 0.503 0.39
-24.172 -16.182 0.501 0.21
-23.967 -16.154 0.499 0.23
-23.915 -16.173 0.499 0.39
-23.709 -16.143 0.497 0.23
-23.595 -16.174 0.496 0.2
-23.257 -16.049 0.493 0.42
-23.091 -16.042 0.491 0.25
-22.978 -16.071 0.491 0.26
-22.893 -16.119 0.49 0.26
-22.788 -16.098 0.489 0.3
-22.75 -16.179 0.489 0.3
-22.482 -16.094 0.487 0.28
-22.436 -16.168 0.487 0.27
-22.027 -15.979 0.482 0.21
-21.934 -16.016 0.482 0.37
-21.861 -16.068 0.481 0.27
-21.635 -16.007 0.479 0.27
-21.685 -16.097 0.48 0.25
-21.38 -15.974 0.477 0.34
-21.146 -15.903 0.475 0.28
-21.125 -15.991 0.475 0.25
-20.971 -15.979 0.474 0.29
-20.814 -15.963 0.472 0.29
-20.674 -15.958 0.471 0.23
-20.598 -15.952 0.471 0.3
-20.454 -15.942 0.469 0.33
-20.199 -15.846 0.467 0.27
-20.111 -15.879 0.466 0.29
-19.999 -15.893 0.465 0.36
-19.968 -15.97 0.466 0.24
-19.874 -15.998 0.465 0.33
-19.817 -16.004 0.465 0.31
-19.696 -16.008 0.464 0.27
-19.545 -15.987 0.462 0.3
-19.43 -15.995 0.462 0.31
-19.262 -15.959 0.46 0.3
-19.117 -15.94 0.459 0.29
-19.05 -15.986 0.459 0.32
-19.026 -16.017 0.459 0.27
-18.926 -16.034 0.458 0.3
-18.778 -16.01 0.457 0.36
-18.684 -16.031 0.456 0.31
-18.494 -15.97 0.454 0.22
-18.364 -15.958 0.453 0.38
-18.32 -16.021 0.453 0.3
-18.164 -15.935 0.451 0.26
-18.054 -15.939 0.451 0.32
-17.974 -15.969 0.45 0.34
-17.88 -15.986 0.45 0.38
-17.889 -16.096 0.45 0.22
-17.612 -15.947 0.447 0.34
-17.463 -15.912 0.446 0.3
-17.444 -15.944 0.446 0.34
-17.347 -15.956 0.445 0.27
-17.245 -15.963 0.445 0.43
-17.167 -15.991 0.444 0.3
-17.007 -15.942 0.443 0.3
-16.789 -15.836 0.44 0.25
-16.704 -15.855 0.44 0.33
-16.627 -15.882 0.44 0.35
-16.584 -15.891 0.439 0.34
-16.507 -15.917 0.439 0.31
-16.372 -15.886 0.438 0.34
-16.275 -15.891 0.437 0.29
-16.153 -15.871 0.436 0.34
-16.069 -15.888 0.436 0.39
-16.016 -15.935 0.436 0.25
-15.936 -15.905 0.435 0.41
-15.881 -15.951 0.435 0.33
-15.824 -15.994 0.435 0.24
-15.582 -15.848 0.432 0.33
-15.487 -15.851 0.431 0.29
-15.347 -15.806 0.43 0.35
-15.282 -15.838 0.43 0.33
-15.182 -15.784 0.429 0.32
-15.097 -15.794 0.428 0.31
-15.025 -15.818 0.428 0.29
-14.941 -15.829 0.427 0.37
-14.878 -15.861 0.427 0.3
-14.826 -15.907 0.427 0.34
-14.746 -15.921 0.427 0.46
-14.65 -15.917 0.426 0.25
-14.567 -15.877 0.425 0.3
-14.497 -15.9 0.425 0.41
-14.447 -15.945 0.425 0.34
-14.303 -15.887 0.423 0.33
-14.24 -15.917 0.423 0.34
-14.177 -15.946 0.423 0.29
-14.124 -15.988 0.423 0.34
-14.039 -15.942 0.422 0.34
-13.943 -15.934 0.421 0.34
-13.832 -15.906 0.42 0.32
-13.754 -15.918 0.42 0.36
-13.643 -15.89 0.419 0.32
-13.588 -15.926 0.419 0.3
-13.503 -15.928 0.418 0.4
-13.484 -15.956 0.418 0.36
-13.416 -15.977 0.418 0.32
-13.325 -15.97 0.417 0.4
-13.271 -16.007 0.417 0.34
-13.204 -16.029 0.417 0.31
-13.127 -16.038 0.417 0.39
-13.013 -16.001 0.416 0.32
-12.981 -16.012 0.416 0.29
-12.874 -15.983 0.415 0.35
-12.783 -15.972 0.414 0.35
-12.716 -15.991 0.414 0.34
-12.637 -15.995 0.413 0.38
-12.544 -15.98 0.413 0.31
-12.486 -16.009 0.412 0.36
-12.369 -15.911 0.411 0.37
-12.326 -15.959 0.411 0.38
-12.31 -16.042 0.412 0.29
-12.174 -15.968 0.41 0.36
-12.062 -15.924 0.409 0.25
-12.007 -15.956 0.409 0.36
-11.936 -15.964 0.409 0.41
-11.868 -15.978 0.408 0.37
-11.756 -15.879 0.407 0.39
-11.778 -16.014 0.408 0.29
-11.653 -15.949 0.407 0.32
-11.525 -15.877 0.406 0.38
-11.509 -15.96 0.406 0.33
-11.42 -15.943 0.405 0.36
-11.311 -15.895 0.404 0.36
-11.27 -15.89 0.404 0.3
-11.176 -15.864 0.403 0.3
-11.107 -15.871 0.403 0.36
-11.027 -15.863 0.402 0.45
-10.999 -15.929 0.403 0.24
-10.907 -15.902 0.402 0.39
-10.858 -15.938 0.402 0.35
-10.804 -15.912 0.402 0.49
-10.784 -15.99 0.402 0.27
-10.686 -15.953 0.401 0.28
-10.604 -15.938 0.401 0.47
-10.505 -15.898 0.4 0.29
-10.399 -15.845 0.399 0.35
-10.358 -15.891 0.399 0.3
-10.284 -15.887 0.399 0.37
-10.239 -15.871 0.398 0.39
-10.198 -15.917 0.398 0.27
-10.119 -15.903 0.398 0.44
-10.021 -15.858 0.397 0.37
-9.939 -15.839 0.396 0.38
-9.907 -15.899 0.397 0.38
-9.779 -15.804 0.395 0.41
-9.737 -15.79 0.395 0.24
-9.614 -15.701 0.393 0.4
-9.539 -15.689 0.393 0.36
-9.506 -15.746 0.393 0.35
-9.443 -15.754 0.393 0.44
-9.371 -15.745 0.392 0.3
-9.287 -15.716 0.392 0.51
-9.298 -15.791 0.392 0.32
-9.245 -15.815 0.392 0.35
-9.149 -15.764 0.391 0.29
-9.128 -15.842 0.392 0.3
-8.998 -15.729 0.39 0.43
-8.944 -15.751 0.39 0.33
-8.891 -15.772 0.39 0.36
-8.847 -15.753 0.39 0.43
-8.793 -15.772 0.39 0.41
-8.82 -15.937 0.391 0.41
-8.817 -16.051 0.392 0.35
-8.681 -15.922 0.391 0.32
-8.692 -16.062 0.392 0.34
-8.59 -15.994 0.391 0.37
-8.497 -15.879 0.389 0.27
-8.426 -15.866 0.389 0.45
-8.396 -15.93 0.389 0.32
-8.253 -15.779 0.387 0.31
-8.237 -15.869 0.388 0.37
-8.145 -15.813 0.387 0.39
-8.066 -15.781 0.386 0.31
-8.048 -15.806 0.386 0.49
-8.087 -16.008 0.388 0.28
-7.948 -15.857 0.386 0.34
-7.944 -15.973 0.388 0.26
-7.764 -15.734 0.385 0.39
-7.712 -15.755 0.385 0.31
-7.66 -15.773 0.384 0.33
-7.609 -15.731 0.384 0.44
-7.574 -15.784 0.384 0.36
-7.521 -15.801 0.384 0.27
-7.449 -15.777 0.384 0.43
-7.387 -15.773 0.383 0.38
-7.349 -15.822 0.384 0.39
-7.275 -15.792 0.383 0.36
-7.18 -15.715 0.382 0.35
-7.139 -15.691 0.381 0.46
-7.09 -15.714 0.381 0.38
-7.023 -15.698 0.381 0.23
-6.993 -15.762 0.382 0.31
-6.883 -15.646 0.38 0.42
-6.859 -15.726 0.381 0.25
-6.794 -15.711 0.38 0.45
-6.761 -15.701 0.38 0.4
-6.696 -15.686 0.38 0.34
-6.618 -15.64 0.379 0.51
-6.721 -16.025 0.383 0.32
-6.643 -15.979 0.382 0.27
-6.588 -15.989 0.382 0.23
-6.528 -15.985 0.382 0.19
-6.397 -15.732 0.379 0.37
-6.323 -15.693 0.378 0.41
-6.274 -15.713 0.378 0.37
-6.2 -15.671 0.378 0.37
-6.278 -16.017 0.381 0.27
-6.189 -15.935 0.38 0.44
-5.997 -15.585 0.376 0.38
-5.967 -15.579 0.376 0.38
-5.916 -15.593 0.376 0.36
-5.852 -15.572 0.375 0.37
-5.836 -15.678 0.376 0.38
-5.785 -15.693 0.376 0.32
-5.813 -15.921 0.379 0.38
-5.775 -15.973 0.379 0.39
-5.703 -15.931 0.378 0.34
-5.666 -15.906 0.378 0.54
-5.616 -15.924 0.378 0.29
-3.628 -10.363 0.318 0.32
-3.586 -10.348 0.318 0.41
-3.556 -10.365 0.318 0.38
-3.519 -10.364 0.318 0.39
-3.486 -10.373 0.318 0.48
-3.478 -10.404 0.318 0.3
-3.448 -10.424 0.318 0.48
-3.423 -10.459 0.318 0.37
-5.15 -15.948 0.377 0.36
-4.948 -15.484 0.372 0.32
-5.012 -15.858 0.375 0.39
-4.99 -15.964 0.376 0.45
-4.963 -15.968 0.376 0.38
-4.902 -15.945 0.376 0.31
-4.844 -15.935 0.376 0.41
-4.793 -15.947 0.376 0.29
-4.715 -15.869 0.375 0.39
-4.665 -15.882 0.375 0.3
-4.609 -15.876 0.374 0.39
-4.586 -15.889 0.374 0.48
-4.536 -15.905 0.374 0.26
-2.841 -10.047 0.313 0.27
-2.804 -10.035 0.313 0.33
-2.764 -10.013 0.312 0.42
-2.73 -10.012 0.312 0.4
-2.701 -10.03 0.312 0.41
-2.688 -10.044 0.312 0.44
-2.666 -10.091 0.313 0.3
-2.702 -10.359 0.315 0.43
-2.678 -10.402 0.316 0.3
-2.643 -10.403 0.316 0.59
-2.609 -10.405 0.316 0.36
-3.925 -15.92 0.373 0.29
-3.905 -15.948 0.373 0.49
-3.848 -15.933 0.373 0.22
-3.755 -15.762 0.371 0.34
-3.731 -15.881 0.372 0.27
-3.647 -15.744 0.371 0.43
-3.601 -15.773 0.371 0.36
-3.586 -15.941 0.372 0.36
-3.537 -15.956 0.372 0.43
-3.511 -15.957 0.372 0.29
-3.454 -15.935 0.372 0.31
-3.399 -15.922 0.372 0.46
-3.352 -15.947 0.372 0.39
-3.299 -15.943 0.372 0.31
-3.239 -15.905 0.371 0.3
-3.176 -15.848 0.371 0.3
-3.16 -15.9 0.371 0.37
-3.106 -15.888 0.371 0.41
-3.06 -15.922 0.371 0.33
-3.008 -15.918 0.371 0.49
-2.961 -15.945 0.371 0.37
-2.909 -15.946 0.371 0.32
-2.846 -15.878 0.37 0.45
-2.826 -15.91 0.371 0.33
-2.772 -15.895 0.37 0.44
-2.718 -15.884 0.37 0.35
-2.666 -15.881 0.37 0.39
-2.619 -15.905 0.37 0.33
-2.561 -15.864 0.37 0.44
-2.513 -15.88 0.37 0.37
-2.485 -15.866 0.37 0.39
-2.434 -15.87 0.37 0.43
-2.385 -15.879 0.37 0.41
-2.338 -15.908 0.37 0.34
-2.286 -15.9 0.37 0.45
-2.234 -15.897 0.369 0.38
-2.182 -15.884 0.369 0.45
-2.157 -15.885 0.369 0.37
-2.105 -15.878 0.369 0.47
-2.056 -15.891 0.369 0.37
-2.006 -15.897 0.369 0.44
-1.953 -15.878 0.369 0.43
-1.901 -15.87 0.369 0.36
-1.851 -15.874 0.369 0.34
-1.824 -15.859 0.369 0.48
-1.776 -15.88 0.369 0.39
-1.725 -15.876 0.369 0.31
-1.671 -15.839 0.368 0.47
-1.617 -15.801 0.368 0.36
-1.565 -15.78 0.368 0.41
-1.516 -15.793 0.368 0.33
-1.466 -15.793 0.368 0.45
-1.446 -15.855 0.368 0.45
-1.375 -15.615 0.366 0.4
-1.324 -15.591 0.365 0.31
-1.28 -15.659 0.366 0.38
-1.239 -15.769 0.367 0.36
-1.191 -15.792 0.367 0.38
-1.142 -15.81 0.367 0.44
-1.115 -15.772 0.367 0.41
-1.063 -15.737 0.367 0.45
-1.014 -15.759 0.367 0.32
-0.967 -15.8 0.367 0.48
-0.917 -15.795 0.367 0.36
-0.867 -15.795 0.367 0.43
-0.817 -15.778 0.367 0.44
-0.794 -15.827 0.367 0.23
-0.747 -15.88 0.368 0.51
-0.695 -15.84 0.367 0.29
-0.644 -15.814 0.367 0.44
-0.593 -15.774 0.367 0.35
-0.541 -15.698 0.366 0.44
-0.495 -15.821 0.367 0.34
-0.47 -15.81 0.367 0.4
-0.42 -15.79 0.367 0.48
-0.37 -15.783 0.367 0.41
-0.321 -15.802 0.367 0.41
-0.271 -15.789 0.367 0.3
-0.221 -15.808 0.367 0.48
-0.172 -15.802 0.367 0.4
-0.147 -15.769 0.367 0.47
-0.097 -15.815 0.367 0.3
-0.048 -15.757 0.366 0.41
0.002 -15.759 0.367 0.37
0.052 -15.791 0.367 0.39
0.101 -15.793 0.367 0.45
0.151 -15.796 0.367 0.37
0.176 -15.78 0.367 0.46
0.225 -15.766 0.367 0.41
0.274 -15.765 0.367 0.3
0.325 -15.8 0.367 0.41
0.373 -15.747 0.366 0.46
0.425 -15.816 0.367 0.3
0.474 -15.794 0.367 0.5
0.524 -15.823 0.367 0.4
0.548 -15.794 0.367 0.32
0.597 -15.784 0.367 0.41
0.646 -15.764 0.367 0.41
0.695 -15.744 0.367 0.42
0.748 -15.818 0.367 0.27
0.796 -15.779 0.367 0.58
0.82 -15.77 0.367 0.34
0.87 -15.777 0.367 0.34
0.92 -15.77 0.367 0.45
0.969 -15.763 0.367 0.38
1.019 -15.768 0.367 0.46
1.071 -15.795 0.367 0.41
1.12 -15.788 0.367 0.38
1.165 -15.73 0.367 0.42
1.185 -15.666 0.366 0.32
1.245 -15.79 0.367 0.42
1.293 -15.772 0.367 0.43
1.34 -15.736 0.367 0.29
1.387 -15.7 0.367 0.58
0.962 -10.26 0.311 0.41
0.975 -10.221 0.311 0.44
1.008 -10.23 0.311 0.32
1.038 -10.203 0.311 0.49
1.073 -10.235 0.311 0.34
1.105 -10.228 0.311 0.64
1.141 -10.258 0.312 0.38
1.822 -15.804 0.368 0.34
1.847 -15.798 0.368 0.34
1.9 -15.818 0.368 0.3
1.949 -15.81 0.368 0.38
1.996 -15.785 0.368 0.34
2.048 -15.797 0.368 0.33
2.098 -15.79 0.368 0.32
2.151 -15.81 0.368 0.38
2.176 -15.806 0.368 0.36
2.223 -15.779 0.368 0.3
2.273 -15.776 0.368 0.32
2.326 -15.795 0.369 0.34
2.378 -15.799 0.369 0.32
2.427 -15.792 0.369 0.36
2.477 -15.784 0.369 0.25
1.66 -10.527 0.315 0.34
1.688 -10.489 0.315 0.3
1.718 -10.467 0.314 0.46
1.753 -10.472 0.315 0.35
1.784 -10.46 0.315 0.43
1.824 -10.492 0.315 0.31
1.857 -10.486 0.315 0.62
2.858 -15.774 0.369 0.34
2.885 -15.782 0.369 0.3
2.933 -15.767 0.369 0.3
2.982 -15.751 0.369 0.34
3.043 -15.803 0.37 0.18
3.085 -15.756 0.37 0.55
3.137 -15.756 0.37 0.44
3.192 -15.774 0.37 0.29
3.216 -15.767 0.37 0.33
3.271 -15.782 0.37 0.29
3.321 -15.773 0.37 0.24
3.373 -15.777 0.37 0.36
3.424 -15.77 0.37 0.34
3.475 -15.769 0.37 0.35
3.526 -15.762 0.37 0.36
3.554 -15.77 0.371 0.38
3.603 -15.758 0.371 0.36
3.658 -15.769 0.371 0.39
3.712 -15.776 0.371 0.38
3.76 -15.761 0.371 0.32
3.811 -15.753 0.371 0.36
3.864 -15.754 0.371 0.32
3.891 -15.758 0.371 0.38
3.945 -15.763 0.371 0.34
3.994 -15.751 0.371 0.37
4.051 -15.767 0.372 0.31
4.1 -15.75 0.372 0.37
4.151 -15.745 0.372 0.3
4.206 -15.753 0.372 0.3
4.231 -15.745 0.372 0.39
4.281 -15.735 0.372 0.29
4.341 -15.76 0.372 0.35
4.387 -15.735 0.372 0.29
4.443 -15.742 0.373 0.32
4.495 -15.738 0.373 0.39
4.546 -15.727 0.373 0.32
4.575 -15.736 0.373 0.3
4.632 -15.748 0.373 0.34
4.685 -15.745 0.373 0.35
4.736 -15.736 0.373 0.38
4.794 -15.75 0.374 0.3
4.846 -15.742 0.374 0.38
4.898 -15.734 0.374 0.33
4.929 -15.746 0.374 0.34
4.975 -15.721 0.374 0.3
5.038 -15.747 0.374 0.33
5.092 -15.744 0.374 0.26
5.142 -15.73 0.374 0.36
5.196 -15.729 0.375 0.38
5.25 -15.726 0.375 0.24
3.152 -9.426 0.308 0.3
3.188 -9.433 0.308 0.35
3.212 -9.406 0.308 0.52
3.244 -9.404 0.308 0.3
3.273 -9.392 0.308 0.58
3.297 -9.366 0.308 0.31
3.313 -9.32 0.307 0.39
3.332 -9.279 0.307 0.47
3.404 -9.434 0.309 0.43
3.357 -9.213 0.306 0.3
3.399 -9.238 0.307 0.47
3.431 -9.235 0.307 0.27
3.437 -9.164 0.306 0.45
3.492 -9.222 0.307 0.5
3.559 -9.308 0.308 0.36
3.645 -9.489 0.31 0.43
3.569 -9.206 0.307 0.38
3.594 -9.185 0.307 0.37
3.62 -9.167 0.307 0.39
3.662 -9.189 0.307 0.27
3.678 -9.145 0.307 0.48
3.713 -9.149 0.307 0.41
3.766 -9.235 0.308 0.41
3.78 -9.188 0.308 0.38
3.78 -9.106 0.307 0.54
3.8 -9.074 0.307 0.19
3.797 -8.989 0.306 0.36
3.807 -8.934 0.305 0.61
3.834 -8.92 0.305 0.32
3.822 -8.854 0.305 0.44
3.844 -8.829 0.305 0.43
4.118 -9.373 0.311 0.29
4.163 -9.396 0.311 0.39
4.171 -9.336 0.311 0.47
4.212 -9.346 0.311 0.27
4.238 -9.326 0.311 0.48
4.266 -9.348 0.311 0.31
4.389 -9.538 0.313 0.5
4.377 -9.434 0.312 0.41
4.25 -9.089 0.309 0.4
4.383 -9.294 0.311 0.36
4.42 -9.296 0.311 0.25
4.436 -9.255 0.311 0.5
4.467 -9.283 0.311 0.34
4.485 -9.247 0.311 0.53
4.509 -9.222 0.311 0.47
7.744 -15.67 0.384 0.41
7.8 -15.66 0.384 0.3
7.859 -15.655 0.384 0.32
7.919 -15.652 0.385 0.33
7.953 -15.659 0.385 0.34
8.012 -15.652 0.385 0.36
8.075 -15.653 0.385 0.32
8.14 -15.658 0.386 0.3
8.195 -15.645 0.386 0.32
8.264 -15.656 0.386 0.32
8.324 -15.651 0.386 0.35
8.383 -15.642 0.387 0.32
8.427 -15.664 0.387 0.39
8.482 -15.648 0.387 0.31
8.536 -15.632 0.387 0.26
8.612 -15.653 0.388 0.32
8.676 -15.653 0.388 0.34
8.728 -15.631 0.388 0.3
8.796 -15.637 0.389 0.31
8.838 -15.654 0.389 0.36
8.9 -15.649 0.389 0.31
8.966 -15.651 0.39 0.36
9.022 -15.633 0.39 0.32
9.09 -15.637 0.39 0.34
9.16 -15.645 0.39 0.31
9.215 -15.626 0.391 0.3
9.254 -15.636 0.391 0.31
9.316 -15.627 0.391 0.28
9.384 -15.63 0.391 0.39
9.456 -15.638 0.392 0.26
9.523 -15.638 0.392 0.32
9.594 -15.643 0.393 0.31
9.624 -15.637 0.393 0.32
9.691 -15.635 0.393 0.31
9.761 -15.639 0.394 0.36
9.821 -15.625 0.394 0.31
9.894 -15.631 0.394 0.28
9.967 -15.639 0.395 0.38
10.022 -15.616 0.395 0.33
10.093 -15.618 0.395 0.32
10.132 -15.625 0.395 0.33
10.187 -15.602 0.396 0.28
10.274 -15.628 0.396 0.32
10.338 -15.618 0.397 0.33
10.399 -15.603 0.397 0.28
10.471 -15.605 0.397 0.34
10.54 -15.601 0.398 0.32
10.593 -15.627 0.398 0.33
10.657 -15.615 0.398 0.32
10.721 -15.603 0.399 0.29
10.796 -15.607 0.399 0.36
10.869 -15.607 0.399 0.3
10.934 -15.596 0.4 0.3
10.993 -15.576 0.4 0.32
11.044 -15.597 0.4 0.29
11.121 -15.601 0.401 0.34
11.189 -15.592 0.401 0.34
11.257 -15.582 0.402 0.28
11.329 -15.579 0.402 0.27
11.408 -15.584 0.402 0.35
11.485 -15.587 0.403 0.32
11.526 -15.591 0.403 0.27
11.607 -15.598 0.404 0.29
11.68 -15.593 0.404 0.31
11.762 -15.6 0.405 0.29
11.807 -15.558 0.405 0.25
11.897 -15.575 0.405 0.32
11.971 -15.569 0.406 0.32
12.022 -15.585 0.406 0.3
12.109 -15.596 0.407 0.32
12.184 -15.591 0.407 0.3
12.254 -15.579 0.408 0.31
12.336 -15.583 0.408 0.32
12.395 -15.557 0.408 0.31
12.466 -15.546 0.409 0.27
12.562 -15.564 0.409 0.25
12.601 -15.563 0.41 0.3
12.679 -15.559 0.41 0.26
12.752 -15.548 0.41 0.26
12.837 -15.551 0.411 0.28
12.92 -15.552 0.412 0.23
13.007 -15.558 0.412 0.29
13.081 -15.546 0.413 0.3
13.137 -15.563 0.413 0.36
13.216 -15.557 0.414 0.24
13.283 -15.537 0.414 0.18
13.379 -15.549 0.415 0.33
13.446 -15.529 0.415 0.22
13.529 -15.525 0.415 0.24
13.628 -15.54 0.416 0.36
13.672 -15.541 0.416 0.23
13.751 -15.532 0.417 0.27
13.832 -15.525 0.417 0.23
13.835 -15.431 0.417 0.27
13.929 -15.438 0.417 0.41
13.976 -15.392 0.417 0.36
14.015 -15.338 0.417 0.35
14.064 -15.342 0.418 0.31
14.117 -15.304 0.418 0.3
14.206 -15.304 0.418 0.32
14.242 -15.246 0.418 0.31
14.334 -15.247 0.419 0.48
14.547 -15.376 0.421 0.32
14.657 -15.396 0.422 0.3
14.732 -15.426 0.423 0.34
14.767 -15.365 0.423 0.35
14.875 -15.381 0.423 0.38
14.975 -15.387 0.424 0.2
14.879 -15.193 0.422 0.29
15.066 -15.287 0.424 0.43
15.226 -15.353 0.426 0.25
15.225 -15.303 0.425 0.39
15.349 -15.332 0.426 0.32
15.376 -15.262 0.426 0.36
15.511 -15.3 0.427 0.29
15.645 -15.335 0.429 0.3
15.644 -15.238 0.428 0.36
15.765 -15.26 0.429 0.25
15.738 -15.138 0.428 0.42
15.784 -15.134 0.428 0.36
15.909 -15.159 0.429 0.24
15.967 -15.118 0.429 0.34
16.061 -15.112 0.43 0.36
16.217 -15.162 0.432 0.35
16.339 -15.181 0.433 0.26
16.403 -15.192 0.433 0.31
16.612 -15.289 0.435 0.36
16.705 -15.277 0.436 0.2
16.781 -15.25 0.436 0.41
16.721 -15.101 0.435 0.28
16.892 -15.159 0.437 0.38
16.977 -15.139 0.437 0.37
17.042 -15.148 0.438 0.29
17.194 -15.187 0.439 0.3
17.299 -15.183 0.44 0.36
17.331 -15.115 0.44 0.31
17.485 -15.153 0.441 0.35
17.613 -15.167 0.442 0.27
17.672 -15.122 0.442 0.27
17.817 -15.149 0.444 0.34
17.833 -15.114 0.443 0.29
17.902 -15.076 0.444 0.29
18.04 -15.096 0.445 0.34
18.144 -15.086 0.446 0.31
18.284 -15.105 0.447 0.32
18.346 -15.059 0.447 0.28
18.55 -15.129 0.449 0.31
18.612 -15.131 0.45 0.34
18.656 -15.07 0.45 0.38
18.769 -15.064 0.45 0.28
18.873 -15.05 0.451 0.36
18.997 -15.051 0.452 0.28
19.233 -15.14 0.455 0.21
19.29 -15.087 0.455 0.36
19.448 -15.161 0.456 0.28
19.482 -15.09 0.456 0.29
19.63 -15.105 0.458 0.27
19.661 -15.031 0.457 0.19
19.821 -15.055 0.459 0.3
20.292 -15.312 0.464 0.2
20.358 -15.261 0.464 0.14
20.391 -15.236 0.464 0.44
20.569 -15.268 0.466 0.22
20.564 -15.165 0.465 0.18
20.55 -15.055 0.465 0.34
20.626 -15.012 0.465 0.28
20.793 -15.033 0.467 0.33
20.837 -14.966 0.466 0.34
20.95 -14.997 0.468 0.29
21.071 -14.983 0.469 0.23
21.078 -14.889 0.468 0.49
21.371 -14.995 0.471 0.24
21.515 -14.995 0.472 0.23
21.629 -14.974 0.473 0.3
21.701 -14.923 0.473 0.29
21.825 -14.958 0.475 0.29
22.17 -15.091 0.478 0.23
22.373 -15.127 0.48 0.3
22.43 -15.063 0.48 0.29
22.606 -15.078 0.482 0.31
22.683 -15.027 0.482 0.2
22.89 -15.061 0.484 0.42
22.966 -15.059 0.485 0.24
23.132 -15.064 0.486 0.25
23.205 -15.007 0.486 0.22
23.423 -15.044 0.489 0.41
23.528 -15.007 0.489 0.21
24.074 -15.248 0.495 0.35
24.262 -15.261 0.497 0.24
23.672 -14.787 0.489 0.13
23.685 -14.743 0.489 0.41
23.738 -14.673 0.489 0.2
24.699 -15.053 0.5 0.44
24.763 -14.985 0.5 0.25
25.05 -15.051 0.503 0.26
25.158 -15.008 0.503 0.23
25.24 -15.004 0.504 0.14
25.661 -15.145 0.508 0.17
25.734 -15.079 0.509 0.28
25.8 -15.009 0.509 0.24
26.005 -15.019 0.511 0.25
26.168 -15.004 0.512 0.27
26.297 -14.968 0.513 0.21
26.364 -14.951 0.514 0.28
26.427 -14.877 0.514 0.23
26.872 -15.016 0.518 0.21
27.006 -14.98 0.519 0.39
27.097 -14.919 0.52 0.24
27.314 -14.927 0.522 0.22
27.501 -14.917 0.523 0.28
27.699 -14.968 0.525 0.17
27.732 -14.873 0.525 0.18
28.066 -14.939 0.529 0.26
28.129 -14.859 0.529 0.21
28.463 -14.921 0.532 0.36
28.735 -14.948 0.535 0.24
28.894 -14.916 0.536 0.3
29.038 -14.932 0.537 0.18
29.245 -14.923 0.539 0.26
29.315 -14.843 0.539 0.18
29.739 -14.94 0.544 0.31
30.0 -14.953 0.546 0.19
30.173 -14.921 0.547 0.35
30.327 -14.878 0.549 0.19
30.618 -14.961 0.552 0.17
30.883 -14.971 0.554 0.13
31.137 -14.973 0.556 0.15
31.164 -14.866 0.556 0.21
31.471 -14.891 0.559 0.3
31.703 -14.878 0.561 0.0
32.032 -14.91 0.564 0.13
32.326 -14.985 0.567 0.16
32.504 -14.943 0.569 0.18
32.618 -14.872 0.569 0.32
32.889 -14.87 0.572 0.11
33.273 -14.918 0.576 0.14
33.471 -14.881 0.577 0.18
33.686 -14.85 0.579 0.18
33.933 -14.831 0.581 0.19
34.154 -14.864 0.584 0.28
34.335 -14.814 0.585 0.2
34.545 -14.776 0.587 0.14
34.84 -14.773 0.59 0.14
35.011 -14.716 0.591 0.16
35.388 -14.743 0.595 0.3
35.55 -14.68 0.596 0.2
35.622 -14.644 0.596 0.16
35.888 -14.621 0.599 0.16
36.206 -14.618 0.602 0.18
36.746 -14.702 0.607 0.0
37.039 -14.684 0.61 0.0
37.774 -14.838 0.617 0.0
38.311 -14.91 0.623 0.0
38.502 -14.914 0.624 0.0
39.419 -15.127 0.634 0.0
39.837 -15.143 0.638 0.0
40.204 -15.138 0.641 0.0
40.36 -15.052 0.642 0.0
40.998 -15.143 0.649 0.0
41.031 -15.009 0.649 0.0
41.037 -14.938 0.649 0.0
42.217 -15.217 0.661 0.0
42.698 -15.239 0.665 0.0
43.106 -15.232 0.669 0.0
33.381 -11.683 0.565 0.0
33.502 -11.608 0.566 0.0
33.637 -11.536 0.567 0.0
44.615 -15.214 0.684 0.0
45.413 -15.327 0.692 0.0
45.888 -15.326 0.696 0.0
46.391 -15.332 0.701 0.0
46.924 -15.345 0.706 0.0
47.454 -15.353 0.711 0.0
48.006 -15.365 0.717 0.0
48.501 -15.439 0.722 0.0
49.057 -15.446 0.727 0.0
49.615 -15.451 0.732 0.0
50.208 -15.462 0.738 0.0
50.817 -15.475 0.744 0.0
51.233 -15.426 0.748 0.0
51.583 -15.354 0.751 0.0
52.619 -15.572 0.762 0.0
53.271 -15.583 0.768 0.0
53.938 -15.594 0.775 0.0
54.622 -15.605 0.781 0.0
55.29 -15.608 0.788 0.0
56.052 -15.633 0.795 0.0
56.762 -15.639 0.802 0.0
58.268 -15.758 0.817 0.0
58.667 -15.668 0.821 0.0
61.437 -15.788 0.848 0.0
62.354 -15.815 0.857 0.0
63.128 -15.905 0.865 0.0
64.936 -15.927 0.883 0.0
65.759 -15.909 0.891 0.0
54.739 -12.431 0.774 0.0
54.7 -12.242 0.774 0.0
54.818 -12.088 0.774 0.0
50.424 -10.458 0.728 0.0
74.187 -4.211 0.958 0.62
74.192 -3.977 0.958 0.51
74.328 -3.75 0.959 0.0
70.338 11.292 0.431 0.0
64.549 11.408 0.413 0.0
64.531 11.509 0.413 0.0
54.584 11.609 0.383 0.12
54.485 11.766 0.383 0.0
54.504 11.95 0.383 0.0
69.848 17.623 0.434 0.0
70.196 17.945 0.435 0.0
44.552 12.073 0.352 0.18
44.414 12.185 0.352 0.23
44.437 12.342 0.352 0.15
63.626 17.875 0.415 0.08
63.175 17.963 0.414 0.09
62.755 18.057 0.413 0.14
62.346 18.045 0.411 0.09
61.917 18.132 0.41 0.15
61.485 18.216 0.409 0.1
61.066 18.301 0.408 0.16
60.663 18.388 0.407 0.23
60.253 18.471 0.405 0.24
59.8 18.538 0.404 0.11
59.427 18.525 0.403 0.0
59.084 18.622 0.402 0.16
58.673 18.695 0.401 0.12
58.206 18.95 0.4 0.61
57.818 19.227 0.399 0.19
56.837 19.0 0.396 0.15
56.559 19.105 0.395 0.17
56.662 19.338 0.396 0.0
55.928 19.284 0.393 0.0
55.787 19.433 0.393 0.0
51.579 18.15 0.379 0.0
51.384 18.264 0.379 0.08
51.142 18.268 0.378 0.2
50.607 18.257 0.376 0.24
50.406 18.364 0.376 0.25
49.986 18.389 0.375 0.1
49.755 18.482 0.374 0.0
49.594 18.599 0.374 0.13
49.288 18.662 0.373 0.12
41.115 15.646 0.345 0.14
39.525 15.184 0.34 0.12
39.16 15.185 0.339 0.32
39.064 15.289 0.339 0.22
39.028 15.417 0.339 0.2
39.169 15.615 0.34 0.15
38.729 15.581 0.338 0.17
38.713 15.716 0.339 0.3
38.688 15.777 0.339 0.14
38.268 15.746 0.337 0.0
38.398 15.941 0.338 0.12
38.25 16.02 0.338 0.23
38.168 16.127 0.337 0.16
36.342 15.627 0.332 0.95
36.251 15.655 0.331 0.97
36.194 15.766 0.331 0.9
36.103 15.861 0.331 0.97
35.906 15.91 0.331 0.89
35.955 16.066 0.331 0.55
38.029 17.135 0.338 0.35
38.17 17.343 0.339 0.26
38.072 17.37 0.339 0.21
38.19 17.569 0.339 0.25
37.98 17.618 0.339 0.17
37.821 17.689 0.338 0.32
37.42 17.645 0.337 0.17
37.373 17.767 0.337 0.37
37.261 17.857 0.337 0.23
37.462 18.026 0.338 0.32
38.014 18.438 0.34 0.25
