# .PCD v.7 - Point Cloud Data file format
VERSION .7
FIELDS x y z intensity
SIZE 4 4 4 4
TYPE F F F F
COUNT 1 1 1 1
WIDTH 1890
HEIGHT 1
VIEWPOINT 0 0 0 1 0 0 0
POINTS 1890
DATA ascii
-2.184 14.244 -1.744 0.32
-2.257 14.417 -1.769 0.43
-2.238 14.153 -1.733 0.27
-2.248 13.931 -1.704 0.51
-2.309 14.03 -1.718 0.48
-2.37 14.122 -1.732 0.3
-2.412 14.103 -1.73 0.41
-2.444 14.027 -1.721 0.33
-2.492 14.04 -1.724 0.57
-2.54 14.179 -1.743 0.31
-2.56 14.036 -1.725 0.4
-2.599 14.001 -1.721 0.47
-2.648 14.02 -1.725 0.39
-2.682 13.961 -1.718 0.3
-2.75 14.075 -1.735 0.42
-2.827 14.226 -1.757 0.45
-2.911 14.411 -1.784 0.28
-2.889 14.189 -1.754 0.45
-2.966 14.339 -1.776 0.29
-3.004 14.293 -1.77 0.31
-3.044 14.26 -1.767 0.62
-3.116 14.376 -1.785 0.3
-3.156 14.343 -1.781 0.42
-3.251 14.553 -1.812 0.29
-3.252 14.454 -1.799 0.33
-3.427 15.007 -1.877 0.32
-3.327 14.367 -1.79 0.34
-3.379 14.386 -1.794 0.44
-3.474 14.581 -1.822 0.26
-3.442 14.252 -1.778 0.45
-3.503 14.305 -1.787 0.43
-3.518 14.271 -1.783 0.27
-3.553 14.221 -1.778 0.52
-3.598 14.21 -1.778 0.26
-3.654 14.243 -1.784 0.55
-3.728 14.344 -1.8 0.3
-3.725 14.15 -1.774 0.46
-3.79 14.215 -1.785 0.36
-3.821 14.242 -1.789 0.37
-3.88 14.279 -1.796 0.41
-3.917 14.24 -1.793 0.35
-3.954 14.201 -1.789 0.38
-3.992 14.166 -1.786 0.44
-4.049 14.197 -1.792 0.38
-4.096 14.192 -1.793 0.4
-4.149 14.206 -1.797 0.39
-4.181 14.233 -1.801 0.32
-4.267 14.359 -1.821 0.5
-4.377 14.558 -1.851 0.0
-2.843 9.381 -1.123 0.0
-2.837 9.258 -1.107 0.0
-2.832 9.14 -1.091 0.0
-2.851 9.101 -1.087 0.0
-2.847 9.037 -1.079 0.0
-2.859 8.979 -1.072 0.0
-2.87 8.916 -1.064 0.0
-2.883 8.863 -1.058 0.0
-2.895 8.805 -1.051 0.0
-2.911 8.762 -1.046 0.0
-2.933 8.736 -1.044 0.0
-2.949 8.693 -1.039 0.0
-2.957 8.672 -1.037 0.0
-2.975 8.636 -1.033 0.0
-2.993 8.601 -1.029 0.0
-3.02 8.591 -1.029 0.0
-3.052 8.597 -1.031 0.0
-3.07 8.563 -1.028 0.1
-3.101 8.564 -1.029 0.0
-3.098 8.513 -1.023 0.0
-3.122 8.498 -1.022 0.0
-3.16 8.517 -1.026 0.0
-3.176 8.48 -1.022 0.0
-3.205 8.475 -1.023 0.0
-3.233 8.467 -1.023 0.0
-3.266 8.475 -1.026 0.0
-3.301 8.485 -1.029 0.0
-3.308 8.463 -1.026 0.0
-3.336 8.458 -1.027 0.0
-3.373 8.472 -1.031 0.0
-3.399 8.461 -1.031 0.0
-3.429 8.46 -1.032 0.0
-3.464 8.467 -1.035 0.0
-3.475 8.456 -1.034 0.0
-3.508 8.462 -1.036 0.0
-3.538 8.458 -1.037 0.0
-3.567 8.452 -1.038 0.0
-3.594 8.443 -1.039 0.0
-3.627 8.446 -1.041 0.0
-3.662 8.455 -1.044 0.0
-3.748 8.471 -1.05 0.0
-3.875 8.468 -1.057 0.0
-3.924 8.469 -1.06 0.13
-3.955 8.466 -1.061 0.2
-3.98 8.45 -1.061 0.0
-4.013 8.45 -1.063 0.0
-4.052 8.464 -1.067 0.0
-4.081 8.457 -1.067 0.0
-4.113 8.455 -1.069 0.0
-4.147 8.456 -1.071 0.0
-4.165 8.46 -1.073 0.0
-4.201 8.466 -1.076 0.0
-4.244 8.485 -1.08 0.0
-4.265 8.461 -1.079 0.0
-4.302 8.467 -1.082 0.0
-4.343 8.482 -1.086 0.0
-4.377 8.482 -1.088 0.0
-4.412 8.517 -1.095 0.0
-4.423 8.473 -1.09 0.0
-4.459 8.477 -1.093 0.0
-4.507 8.503 -1.099 0.0
-4.545 8.51 -1.102 0.0
-4.574 8.499 -1.103 0.0
-4.599 8.483 -1.102 0.0
-4.633 8.512 -1.108 0.0
-4.665 8.508 -1.11 0.0
-4.696 8.5 -1.111 0.0
-4.746 8.527 -1.117 0.0
-4.768 8.503 -1.116 0.0
-4.817 8.528 -1.122 0.0
-4.843 8.511 -1.122 0.0
-4.887 8.527 -1.126 0.0
-4.894 8.507 -1.125 0.0
-4.918 8.488 -1.124 0.0
-4.959 8.497 -1.128 0.0
-4.936 8.397 -1.115 0.0
-4.994 8.435 -1.123 0.0
-5.068 8.499 -1.136 0.0
-5.107 8.503 -1.139 0.0
-5.13 8.51 -1.141 0.0
-5.173 8.521 -1.145 0.0
-5.212 8.525 -1.149 0.0
-5.25 8.526 -1.151 0.0
-5.289 8.529 -1.154 0.0
-5.335 8.543 -1.159 0.0
-5.367 8.535 -1.161 0.0
-5.415 8.551 -1.166 0.0
-5.454 8.583 -1.172 0.0
-5.501 8.597 -1.177 0.0
-9.233 14.297 -2.096 0.05
-9.254 14.231 -2.09 0.16
-9.288 14.187 -2.088 0.25
-9.325 14.147 -2.086 0.28
-9.374 14.124 -2.087 0.28
-9.392 14.102 -2.086 0.26
-9.456 14.102 -2.091 0.29
-9.49 14.058 -2.088 0.33
-9.536 14.03 -2.088 0.3
-9.584 14.006 -2.09 0.3
-9.616 13.958 -2.087 0.21
-9.666 13.938 -2.088 0.39
-9.695 13.932 -2.09 0.29
-9.745 13.911 -2.091 0.31
-9.789 13.881 -2.091 0.3
-9.835 13.853 -2.092 0.29
-9.881 13.825 -2.092 0.29
-9.921 13.789 -2.092 0.29
-9.971 13.768 -2.093 0.29
-10.018 13.741 -2.094 0.28
-10.038 13.724 -2.094 0.3
-10.079 13.689 -2.093 0.29
-10.132 13.672 -2.096 0.29
-10.156 13.614 -2.091 0.32
-10.217 13.606 -2.095 0.27
-10.244 13.553 -2.092 0.19
-10.299 13.537 -2.095 0.31
-10.329 13.533 -2.097 0.15
-7.492 9.764 -1.461 0.0
-7.537 9.634 -1.451 0.0
-7.516 9.545 -1.439 0.0
-7.54 9.514 -1.438 0.0
-7.53 9.471 -1.433 0.0
-7.53 9.41 -1.426 0.0
-7.526 9.345 -1.419 0.0
-7.514 9.27 -1.41 0.0
-7.501 9.196 -1.401 0.0
-7.489 9.122 -1.393 0.0
-7.493 9.069 -1.388 0.0
-7.487 9.005 -1.38 0.0
-7.47 8.955 -1.374 0.0
-7.472 8.901 -1.368 0.0
-7.466 8.837 -1.361 0.0
-7.474 8.791 -1.357 0.0
-7.477 8.739 -1.352 0.0
-7.486 8.694 -1.348 0.0
-7.484 8.636 -1.342 0.0
-7.494 8.593 -1.339 0.0
-7.476 8.546 -1.332 0.0
-7.496 8.515 -1.331 0.0
-7.512 8.479 -1.329 0.0
-7.511 8.425 -1.323 0.11
-7.5 8.36 -1.316 0.0
-7.544 8.355 -1.319 0.0
-7.593 8.356 -1.324 0.0
-7.626 8.366 -1.328 0.0
-7.651 8.341 -1.327 0.0
-7.678 8.318 -1.328 0.0
-7.74 8.332 -1.335 0.0
-7.785 8.328 -1.338 0.0
-7.822 8.315 -1.34 0.0
-7.907 8.352 -1.352 0.03
-8.091 8.519 -1.385 0.16
-8.172 8.551 -1.396 0.19
-8.236 8.563 -1.403 0.17
-8.258 8.532 -1.402 0.13
-8.272 8.493 -1.4 0.0
-8.239 8.406 -1.388 0.0
-8.183 8.297 -1.373 0.0
-8.22 8.308 -1.377 0.0
-8.277 8.313 -1.383 0.0
-8.325 8.31 -1.387 0.0
-8.371 8.303 -1.391 0.0
-8.421 8.3 -1.396 0.0
-8.483 8.308 -1.402 0.0
-8.511 8.284 -1.403 0.0
-8.573 8.292 -1.409 0.0
-8.602 8.293 -1.412 0.0
-8.651 8.288 -1.417 0.0
-8.691 8.275 -1.419 0.0
-8.739 8.268 -1.423 0.0
-8.814 8.286 -1.432 0.0
-8.853 8.271 -1.435 0.0
-8.904 8.266 -1.439 0.0
-8.939 8.272 -1.443 0.0
-8.989 8.267 -1.448 0.0
-9.043 8.264 -1.453 0.0
-9.085 8.25 -1.456 0.0
-9.141 8.248 -1.461 0.0
-9.196 8.245 -1.467 0.0
-9.246 8.237 -1.471 0.0
-9.29 8.25 -1.477 0.0
-9.348 8.25 -1.482 0.0
-9.392 8.236 -1.486 0.0
-9.446 8.231 -1.491 0.0
-9.493 8.22 -1.494 0.0
-9.548 8.214 -1.499 0.0
-9.604 8.21 -1.505 0.0
-9.652 8.199 -1.509 0.0
-9.707 8.22 -1.516 0.0
-9.757 8.21 -1.521 0.0
-9.82 8.209 -1.527 0.0
-9.874 8.202 -1.532 0.0
-9.929 8.195 -1.537 0.0
-9.981 8.185 -1.542 0.0
-10.037 8.179 -1.547 0.0
-10.086 8.192 -1.553 0.0
-10.161 8.2 -1.562 0.0
-10.269 8.233 -1.576 0.12
-10.33 8.229 -1.582 0.21
-10.381 8.217 -1.586 0.28
-10.475 8.238 -1.598 0.18
-10.471 8.182 -1.593 0.23
-10.459 8.146 -1.589 0.25
-10.516 8.137 -1.594 0.47
-10.556 8.115 -1.597 0.11
-10.594 8.091 -1.599 0.14
-10.675 8.1 -1.608 0.0
-10.832 8.165 -1.63 0.0
-10.868 8.139 -1.632 0.0
-13.722 10.167 -2.104 0.23
-13.819 10.172 -2.115 0.26
-13.837 10.118 -2.113 0.25
-13.867 10.074 -2.112 0.26
-13.894 10.027 -2.111 0.27
-13.948 9.999 -2.115 0.27
-14.02 9.984 -2.122 0.3
-14.077 9.992 -2.129 0.31
-14.148 9.975 -2.135 0.23
-14.231 9.966 -2.144 0.35
-14.309 9.954 -2.152 0.27
-14.386 9.941 -2.159 0.26
-14.44 9.911 -2.163 0.4
-14.504 9.888 -2.168 0.29
-14.552 9.888 -2.173 0.56
-14.667 9.898 -2.187 0.35
-14.697 9.851 -2.187 0.34
-14.683 9.775 -2.18 0.29
-14.667 9.699 -2.172 0.27
-14.648 9.62 -2.164 0.27
-14.65 9.555 -2.16 0.27
-14.671 9.504 -2.158 0.25
-14.66 9.464 -2.154 0.27
-14.686 9.416 -2.153 0.29
-14.692 9.354 -2.15 0.3
-14.723 9.309 -2.15 0.29
-14.725 9.246 -2.146 0.29
-14.756 9.201 -2.146 0.27
-14.775 9.148 -2.144 0.3
-14.774 9.116 -2.142 0.28
-14.806 9.071 -2.142 0.29
-14.822 9.018 -2.141 0.27
-14.834 8.961 -2.138 0.27
-14.855 8.91 -2.137 0.28
-14.878 8.86 -2.136 0.27
-14.888 8.803 -2.133 0.27
-14.904 8.781 -2.134 0.28
-14.916 8.725 -2.131 0.27
-14.942 8.677 -2.131 0.26
-14.96 8.625 -2.13 0.25
-14.968 8.568 -2.127 0.34
-14.993 8.52 -2.126 0.27
-14.999 8.461 -2.123 0.24
-14.923 8.387 -2.109 0.15
-14.727 8.217 -2.075 0.09
-14.724 8.154 -2.071 0.09
-14.766 8.117 -2.073 0.09
-14.849 8.102 -2.082 0.14
-15.004 8.125 -2.102 0.19
-15.125 8.129 -2.117 0.27
-15.144 8.078 -2.115 0.27
-15.151 8.051 -2.115 0.27
-15.162 7.996 -2.113 0.28
-15.186 7.948 -2.112 0.27
-15.202 7.896 -2.111 0.27
-15.216 7.842 -2.109 0.28
-15.237 7.793 -2.109 0.26
-15.251 7.739 -2.107 0.27
-15.263 7.715 -2.107 0.28
-15.284 7.666 -2.107 0.27
-15.325 7.626 -2.109 0.25
-15.335 7.571 -2.107 0.19
-15.346 7.517 -2.105 0.43
-15.361 7.464 -2.104 0.25
-15.379 7.413 -2.103 0.29
-15.396 7.392 -2.104 0.25
-15.383 7.326 -2.099 0.18
-15.39 7.271 -2.096 0.43
-15.4 7.216 -2.094 0.25
-15.401 7.158 -2.091 0.16
-15.404 7.1 -2.088 0.42
-15.413 7.046 -2.086 0.24
-15.417 6.99 -2.084 0.2
-15.417 6.96 -2.082 0.41
-15.428 6.907 -2.08 0.24
-15.443 6.855 -2.079 0.19
-15.455 6.803 -2.078 0.4
-15.476 6.754 -2.078 0.21
-15.465 6.692 -2.073 0.25
-15.482 6.641 -2.073 0.21
-15.48 6.612 -2.071 0.23
-15.493 6.56 -2.07 0.2
-15.51 6.51 -2.069 0.22
-15.518 6.456 -2.067 0.2
-15.536 6.406 -2.067 0.21
-15.554 6.356 -2.067 0.18
-15.563 6.303 -2.065 0.31
-15.553 6.271 -2.062 0.2
-15.574 6.222 -2.063 0.18
-15.575 6.166 -2.06 0.12
-15.598 6.119 -2.06 0.17
-15.595 6.061 -2.057 0.12
-15.61 6.011 -2.057 0.18
-15.611 5.954 -2.054 0.3
-15.603 5.924 -2.052 0.2
-15.624 5.875 -2.052 0.18
-15.609 5.814 -2.047 0.32
-15.625 5.764 -2.047 0.19
-15.626 5.709 -2.044 0.34
-15.64 5.658 -2.044 0.2
-15.623 5.597 -2.039 0.34
-15.638 5.547 -2.039 0.19
-15.624 5.514 -2.035 0.33
-15.617 5.457 -2.032 0.18
-15.633 5.407 -2.032 0.37
-15.629 5.351 -2.029 0.22
-15.631 5.297 -2.026 0.18
-15.641 5.246 -2.026 0.39
-15.635 5.189 -2.022 0.22
-15.643 5.164 -2.022 0.2
-15.643 5.11 -2.02 0.38
-15.647 5.057 -2.018 0.2
-15.648 5.003 -2.016 0.24
-15.65 4.95 -2.014 0.2
-15.67 4.902 -2.015 0.22
-15.681 4.851 -2.014 0.19
-15.677 4.823 -2.013 0.22
-15.696 4.775 -2.013 0.18
-15.692 4.72 -2.011 0.32
-15.701 4.669 -2.01 0.21
-15.727 4.623 -2.012 0.18
-15.726 4.569 -2.009 0.31
-15.718 4.513 -2.006 0.2
-15.704 4.482 -2.003 0.18
-15.703 4.429 -2.001 0.21
-15.701 4.375 -1.999 0.18
-15.675 4.315 -1.993 0.34
-15.665 4.259 -1.99 0.19
-15.646 4.202 -1.986 0.35
-15.64 4.147 -1.983 0.22
-15.587 4.107 -1.975 0.18
-15.565 4.049 -1.97 0.31
-15.574 3.999 -1.969 0.4
-15.573 3.947 -1.967 0.36
-15.56 3.892 -1.964 0.43
-15.58 3.845 -1.965 0.3
-15.592 3.796 -1.965 0.26
-15.62 3.751 -1.967 0.29
-15.645 3.731 -1.97 0.29
-15.641 3.678 -1.968 0.27
-15.668 3.632 -1.97 0.3
-15.685 3.584 -1.971 0.29
-15.706 3.537 -1.972 0.28
-15.727 3.49 -1.973 0.28
-15.716 3.436 -1.97 0.3
-15.756 3.419 -1.975 0.27
-15.765 3.369 -1.975 0.28
-15.776 3.319 -1.975 0.3
-15.782 3.269 -1.974 0.29
-15.794 3.22 -1.975 0.27
-15.82 3.173 -1.977 0.27
-15.818 3.121 -1.975 0.28
-15.836 3.073 -1.976 0.29
-15.842 3.048 -1.977 0.28
-15.846 2.998 -1.976 0.29
-15.853 2.947 -1.975 0.27
-15.87 2.899 -1.977 0.29
-15.87 2.847 -1.975 0.27
-15.894 2.8 -1.977 0.29
-15.911 2.752 -1.978 0.27
-15.909 2.726 -1.978 0.28
-15.92 2.676 -1.978 0.28
-15.932 2.627 -1.978 0.28
-15.936 2.576 -1.978 0.28
-15.954 2.527 -1.979 0.29
-15.952 2.476 -1.978 0.29
-15.958 2.425 -1.978 0.29
-15.969 2.401 -1.979 0.29
-15.971 2.35 -1.978 0.29
-15.984 2.301 -1.979 0.29
-15.979 2.249 -1.977 0.28
-16.008 2.202 -1.98 0.3
-16.009 2.151 -1.979 0.29
-16.016 2.1 -1.979 0.31
-16.029 2.077 -1.981 0.3
-16.031 2.026 -1.98 0.29
-16.034 1.975 -1.979 0.29
-16.052 1.926 -1.981 0.29
-16.038 1.873 -1.978 0.31
-16.055 1.824 -1.98 0.29
-16.069 1.774 -1.981 0.29
-16.061 1.723 -1.979 0.29
-16.075 1.699 -1.981 0.27
-16.1 1.65 -1.983 0.28
-16.095 1.598 -1.982 0.27
-16.102 1.548 -1.982 0.28
-16.127 1.499 -1.985 0.29
-16.112 1.447 -1.982 0.28
-16.114 1.396 -1.982 0.27
-16.12 1.371 -1.983 0.27
-16.109 1.319 -1.981 0.27
-16.119 1.269 -1.981 0.27
-16.125 1.219 -1.982 0.27
-16.13 1.168 -1.982 0.28
-16.12 1.116 -1.98 0.27
-16.139 1.067 -1.982 0.26
-16.111 1.04 -1.978 0.19
-16.13 0.99 -1.98 0.43
-16.147 0.94 -1.982 0.25
-16.148 0.889 -1.982 0.26
-16.175 0.84 -1.985 0.2
-16.191 0.789 -1.987 0.41
-16.184 0.738 -1.986 0.25
-16.202 0.688 -1.988 0.21
-16.211 0.663 -1.989 0.38
-16.213 0.612 -1.989 0.19
-16.22 0.561 -1.99 0.37
-16.242 0.511 -1.992 0.2
-16.228 0.459 -1.99 0.33
-16.231 0.408 -1.99 0.19
-16.242 0.358 -1.992 0.33
-16.233 0.332 -1.99 0.19
-16.224 0.281 -1.989 0.32
-16.217 0.23 -1.988 0.19
-16.193 0.178 -1.985 0.34
-16.184 0.128 -1.983 0.21
-16.164 0.077 -1.981 0.18
-16.159 0.026 -1.98 0.39
-16.135 -0.025 -1.977 0.24
-16.131 -0.05 -1.976 0.26
-16.125 -0.101 -1.975 0.27
-16.124 -0.151 -1.975 0.27
-16.11 -0.202 -1.974 0.25
-16.127 -0.253 -1.976 0.28
-16.138 -0.304 -1.978 0.26
-16.121 -0.354 -1.975 0.29
-16.134 -0.38 -1.977 0.27
-16.131 -0.43 -1.977 0.28
-16.136 -0.481 -1.978 0.27
-16.144 -0.532 -1.979 0.29
-16.132 -0.583 -1.978 0.27
-16.14 -0.634 -1.979 0.27
-16.144 -0.685 -1.98 0.26
-16.143 -0.71 -1.98 0.25
-16.153 -0.761 -1.982 0.19
-16.16 -0.813 -1.983 0.39
-16.171 -0.864 -1.985 0.19
-16.173 -0.915 -1.985 0.38
-16.187 -0.967 -1.988 0.21
-16.178 -1.017 -1.987 0.34
-16.177 -1.043 -1.987 0.19
-16.189 -1.095 -1.989 0.34
-16.196 -1.146 -1.99 0.2
-16.19 -1.197 -1.99 0.34
-16.186 -1.248 -1.99 0.21
-16.154 -1.297 -1.986 0.34
-16.146 -1.347 -1.986 0.22
-16.061 -1.365 -1.975 0.21
-16.047 -1.415 -1.973 0.19
-16.046 -1.465 -1.974 0.41
-16.024 -1.514 -1.971 0.25
-16.029 -1.565 -1.973 0.27
-16.042 -1.618 -1.975 0.29
-16.056 -1.67 -1.978 0.28
-16.08 -1.724 -1.982 0.29
-16.131 -1.755 -1.989 0.26
-16.198 -1.814 -1.999 0.27
-16.155 -1.86 -1.994 0.23
-16.125 -1.908 -1.991 0.45
-16.053 -1.951 -1.982 0.34
-15.659 -1.952 -1.929 0.28
-15.309 -1.957 -1.882 0.29
-15.139 -1.959 -1.859 0.28
-15.101 -2.002 -1.855 0.27
-15.095 -2.05 -1.855 0.23
-15.2 -2.113 -1.87 0.33
-15.205 -2.162 -1.872 0.33
-15.202 -2.211 -1.873 0.33
-15.191 -2.258 -1.872 0.32
-15.164 -2.278 -1.869 0.28
-15.153 -2.325 -1.868 0.18
-15.034 -2.355 -1.853 0.52
-15.408 -2.464 -1.905 0.21
-15.414 -2.514 -1.907 0.16
-15.551 -2.587 -1.927 0.48
-15.462 -2.622 -1.916 0.22
-15.56 -2.664 -1.93 0.22
-15.553 -2.713 -1.93 0.37
-15.554 -2.764 -1.931 0.24
-15.573 -2.818 -1.935 0.19
-15.581 -2.87 -1.937 0.42
-15.551 -2.915 -1.935 0.25
-15.53 -2.961 -1.933 0.25
-15.112 -2.93 -1.877 0.32
-15.213 -2.975 -1.891 0.21
-15.003 -2.982 -1.864 0.24
-14.72 -2.974 -1.826 0.21
-14.359 -2.947 -1.778 0.0
-14.163 -2.953 -1.752 0.07
-15.652 -3.318 -1.959 0.11
-15.611 -3.36 -1.954 0.34
-15.617 -3.387 -1.956 0.17
-15.622 -3.44 -1.958 0.35
-15.609 -3.488 -1.958 0.22
-15.602 -3.538 -1.958 0.19
-15.618 -3.593 -1.962 0.41
-15.601 -3.641 -1.961 0.25
-15.62 -3.698 -1.966 0.26
-15.597 -3.718 -1.963 0.29
-15.558 -3.76 -1.959 0.25
-15.6 -3.822 -1.967 0.32
-15.553 -3.863 -1.962 0.29
-15.58 -3.921 -1.967 0.29
-15.565 -3.97 -1.967 0.3
-15.541 -4.016 -1.966 0.3
-15.543 -4.042 -1.967 0.27
-15.509 -4.085 -1.964 0.21
-15.482 -4.13 -1.962 0.41
-15.475 -4.181 -1.963 0.22
-15.433 -4.221 -1.959 0.15
-15.422 -4.27 -1.959 0.49
-15.374 -4.309 -1.954 0.25
-15.383 -4.364 -1.957 0.26
-15.31 -4.369 -1.948 0.18
-15.288 -4.415 -1.947 0.2
-15.28 -4.464 -1.948 0.5
-14.89 -4.401 -1.895 0.23
-14.866 -4.444 -1.893 0.18
-14.875 -4.498 -1.897 0.39
-14.707 -4.498 -1.875 0.24
-14.539 -4.471 -1.852 0.26
-14.382 -4.472 -1.832 0.26
-14.167 -4.453 -1.804 0.2
-13.976 -4.441 -1.778 0.14
-13.831 -4.443 -1.76 0.08
-15.04 -4.938 -1.936 0.29
-15.03 -4.961 -1.935 0.39
-15.028 -5.013 -1.937 0.29
-14.978 -5.048 -1.932 0.22
-14.836 -5.052 -1.915 0.49
-14.821 -5.099 -1.915 0.31
-14.608 -5.077 -1.886 0.21
-14.493 -5.088 -1.872 0.38
-14.447 -5.123 -1.868 0.3
-14.418 -5.138 -1.865 0.33
-14.384 -5.176 -1.862 0.3
-14.336 -5.21 -1.858 0.26
-14.315 -5.254 -1.857 0.33
-14.217 -5.268 -1.846 0.23
-14.197 -5.311 -1.845 0.36
-14.16 -5.348 -1.842 0.37
-14.218 -5.396 -1.852 0.26
-14.079 -5.394 -1.834 0.3
-14.08 -5.445 -1.837 0.28
-14.161 -5.527 -1.851 0.27
-14.171 -5.583 -1.855 0.26
-14.074 -5.596 -1.843 0.31
-13.954 -5.598 -1.828 0.33
-13.943 -5.62 -1.828 0.3
-13.951 -5.674 -1.832 0.32
-13.94 -5.721 -1.833 0.3
-13.932 -5.768 -1.834 0.28
-13.926 -5.817 -1.836 0.3
-13.926 -5.869 -1.839 0.34
-13.913 -5.915 -1.84 0.31
-13.915 -5.941 -1.841 0.28
-13.845 -5.963 -1.834 0.26
-13.739 -5.968 -1.821 0.45
-13.59 -5.954 -1.802 0.23
-13.471 -5.953 -1.787 0.18
-13.317 -5.934 -1.767 0.41
-13.331 -5.991 -1.772 0.24
-13.221 -5.991 -1.758 0.18
-13.134 -5.977 -1.747 0.4
-13.022 -5.975 -1.733 0.24
-12.922 -5.978 -1.721 0.21
-12.807 -5.973 -1.707 0.37
-12.671 -5.958 -1.689 0.19
-12.563 -5.956 -1.676 0.35
-12.462 -5.955 -1.664 0.0
-12.385 -5.942 -1.653 0.1
-13.897 -6.725 -1.883 0.19
-13.846 -6.754 -1.878 0.3
-13.786 -6.778 -1.873 0.3
-13.786 -6.832 -1.876 0.36
-13.773 -6.88 -1.877 0.43
-13.802 -6.949 -1.885 0.27
-13.793 -6.972 -1.885 0.38
-13.762 -7.011 -1.884 0.36
-13.71 -7.038 -1.879 0.25
-13.687 -7.08 -1.879 0.34
-13.557 -7.067 -1.863 0.29
-13.586 -7.137 -1.87 0.44
-13.647 -7.224 -1.883 0.26
-13.576 -7.214 -1.874 0.27
-13.533 -7.245 -1.871 0.39
-13.503 -7.284 -1.87 0.28
-13.436 -7.302 -1.863 0.28
-13.384 -7.328 -1.859 0.27
-13.231 -7.298 -1.839 0.24
-13.161 -7.314 -1.831 0.3
-13.124 -7.347 -1.829 0.28
-13.144 -7.385 -1.834 0.37
-13.101 -7.416 -1.831 0.26
-12.973 -7.397 -1.815 0.19
-12.96 -7.444 -1.816 0.46
-12.884 -7.453 -1.808 0.24
-12.831 -7.477 -1.804 0.25
-12.741 -7.478 -1.793 0.26
-12.584 -7.412 -1.77 0.28
-12.583 -7.465 -1.774 0.26
-12.508 -7.474 -1.766 0.27
-12.434 -7.482 -1.758 0.26
-12.348 -7.483 -1.748 0.27
-12.26 -7.483 -1.738 0.28
-12.177 -7.485 -1.729 0.29
-12.1 -7.463 -1.718 0.28
-11.989 -7.446 -1.704 0.29
-11.907 -7.447 -1.695 0.29
-11.806 -7.436 -1.683 0.3
-11.729 -7.439 -1.674 0.22
-11.647 -7.438 -1.665 0.36
-11.561 -7.434 -1.654 0.11
-12.408 -8.036 -1.795 0.11
-12.5 -8.124 -1.811 0.3
-12.458 -8.152 -1.809 0.26
-12.389 -8.163 -1.802 0.34
-12.347 -8.191 -1.799 0.41
-12.32 -8.229 -1.799 0.27
-12.258 -8.243 -1.793 0.34
-12.191 -8.253 -1.786 0.36
-12.127 -8.238 -1.778 0.3
-12.05 -8.241 -1.77 0.33
-11.964 -8.237 -1.76 0.32
-11.881 -8.235 -1.75 0.29
-11.808 -8.24 -1.743 0.35
-11.729 -8.239 -1.734 0.33
-11.656 -8.242 -1.726 0.35
-11.588 -8.222 -1.717 0.3
-11.52 -8.228 -1.71 0.35
-11.428 -8.217 -1.699 0.29
-11.356 -8.219 -1.691 0.31
-11.298 -8.231 -1.686 0.32
-11.22 -8.228 -1.677 0.31
-11.144 -8.226 -1.669 0.31
-11.085 -8.209 -1.661 0.31
-11.013 -8.21 -1.653 0.32
-10.946 -8.213 -1.646 0.32
-10.883 -8.219 -1.64 0.34
-10.816 -8.222 -1.633 0.35
-10.762 -8.234 -1.628 0.36
-10.715 -8.252 -1.625 0.31
-10.734 -8.293 -1.63 0.32
-10.829 -8.422 -1.651 0.24
-10.981 -8.596 -1.681 0.27
-10.994 -8.662 -1.688 0.29
-10.94 -8.675 -1.684 0.37
-10.89 -8.691 -1.68 0.39
-10.838 -8.705 -1.676 0.34
-10.783 -8.717 -1.671 0.34
-10.687 -8.668 -1.657 0.37
-10.577 -8.633 -1.642 0.41
-10.535 -8.654 -1.64 0.43
-10.482 -8.665 -1.635 0.31
-10.416 -8.667 -1.628 0.43
-10.401 -8.709 -1.63 0.42
-10.388 -8.754 -1.633 0.36
-10.348 -8.748 -1.628 0.43
-10.301 -8.764 -1.625 0.39
-10.263 -8.787 -1.623 0.39
-10.234 -8.818 -1.623 0.38
-10.197 -8.842 -1.621 0.32
-10.141 -8.849 -1.616 0.47
-10.053 -8.829 -1.605 0.34
-10.032 -8.838 -1.604 0.48
-9.944 -8.815 -1.593 0.3
-9.96 -8.886 -1.601 0.44
-9.94 -8.924 -1.602 0.41
-9.895 -8.941 -1.599 0.39
-9.812 -8.921 -1.589 0.35
-9.778 -8.946 -1.588 0.44
-9.759 -8.958 -1.587 0.35
-9.693 -8.953 -1.58 0.43
-9.645 -8.965 -1.577 0.41
-9.612 -8.991 -1.576 0.44
-9.587 -9.024 -1.576 0.34
-9.571 -9.066 -1.579 0.38
-9.526 -9.08 -1.576 0.34
-9.481 -9.066 -1.57 0.42
-9.424 -9.068 -1.565 0.41
-9.406 -9.107 -1.567 0.34
-9.381 -9.141 -1.567 0.49
-9.35 -9.168 -1.567 0.36
-9.322 -9.198 -1.567 0.45
-9.226 -9.161 -1.554 0.35
-9.221 -9.185 -1.556 0.37
-9.181 -9.202 -1.554 0.41
-9.099 -9.178 -1.544 0.44
-9.071 -9.206 -1.544 0.34
-9.031 -9.223 -1.542 0.4
-8.984 -9.233 -1.538 0.44
-8.944 -9.25 -1.536 0.32
-8.873 -9.235 -1.528 0.45
-8.856 -9.246 -1.528 0.38
-8.85 -9.298 -1.532 0.37
-8.806 -9.31 -1.529 0.39
-8.758 -9.318 -1.525 0.41
-8.727 -9.344 -1.525 0.41
-8.683 -9.355 -1.522 0.33
-8.636 -9.363 -1.519 0.45
-8.623 -9.378 -1.519 0.41
-8.58 -9.391 -1.516 0.34
-8.541 -9.407 -1.514 0.33
-8.51 -9.432 -1.514 0.45
-8.46 -9.437 -1.51 0.39
-8.389 -9.416 -1.502 0.35
-8.35 -9.432 -1.5 0.5
-8.318 -9.455 -1.499 0.24
-8.27 -9.431 -1.493 0.56
-8.208 -9.419 -1.486 0.29
-8.181 -9.448 -1.486 0.44
-8.132 -9.451 -1.482 0.4
-8.087 -9.459 -1.479 0.39
-8.095 -9.529 -1.487 0.26
-8.04 -9.494 -1.479 0.55
-7.984 -9.488 -1.473 0.34
-7.928 -9.481 -1.468 0.35
-7.895 -9.503 -1.467 0.4
-7.873 -9.537 -1.469 0.4
-7.878 -9.605 -1.476 0.37
-7.82 -9.596 -1.47 0.4
-7.789 -9.619 -1.47 0.45
-7.764 -9.619 -1.468 0.29
-7.734 -9.643 -1.468 0.42
-7.668 -9.622 -1.46 0.37
-7.634 -9.642 -1.459 0.37
-7.591 -9.65 -1.457 0.41
-7.529 -9.633 -1.45 0.41
-7.516 -9.679 -1.454 0.41
-7.493 -9.681 -1.452 0.39
-7.433 -9.665 -1.445 0.41
-7.394 -9.677 -1.443 0.39
-7.365 -9.702 -1.444 0.4
-7.35 -9.746 -1.447 0.4
-7.338 -9.794 -1.451 0.35
-7.286 -9.789 -1.447 0.42
-7.293 -9.83 -1.452 0.41
-7.242 -9.826 -1.447 0.41
-7.205 -9.841 -1.446 0.37
-7.172 -9.86 -1.445 0.39
-7.142 -9.884 -1.446 0.44
-7.078 -9.86 -1.438 0.34
-7.044 -9.879 -1.437 0.41
-7.003 -9.853 -1.431 0.39
-6.975 -9.879 -1.432 0.39
-6.945 -9.903 -1.432 0.39
-6.892 -9.894 -1.427 0.38
-6.85 -9.899 -1.424 0.38
-6.79 -9.878 -1.417 0.38
-6.769 -9.914 -1.42 0.38
-6.737 -9.934 -1.42 0.38
-6.699 -9.911 -1.414 0.39
-6.621 -9.863 -1.403 0.38
-6.588 -9.88 -1.402 0.43
-6.588 -9.947 -1.41 0.3
-6.557 -9.97 -1.41 0.5
-6.506 -9.959 -1.405 0.36
-6.438 -9.922 -1.396 0.41
-6.432 -9.948 -1.398 0.35
-6.409 -9.981 -1.401 0.37
-6.366 -9.983 -1.398 0.43
-6.354 -10.033 -1.402 0.36
-6.326 -10.06 -1.404 0.45
-6.279 -10.054 -1.4 0.3
-6.232 -10.048 -1.396 0.46
-6.23 -10.082 -1.399 0.3
-6.185 -10.079 -1.396 0.47
-6.117 -10.038 -1.386 0.36
-6.12 -10.115 -1.395 0.33
-6.073 -10.108 -1.391 0.47
-6.015 -10.083 -1.384 0.36
-5.968 -10.076 -1.38 0.4
-5.965 -10.108 -1.384 0.41
-5.548 -9.466 -1.281 0.32
-5.479 -9.416 -1.27 0.38
-5.438 -9.413 -1.267 0.41
-5.411 -9.435 -1.268 0.37
-5.365 -9.422 -1.263 0.38
-5.341 -9.45 -1.265 0.46
-5.339 -9.48 -1.268 0.41
-5.291 -9.464 -1.263 0.4
-5.281 -9.517 -1.269 0.4
-5.246 -9.523 -1.267 0.39
-5.221 -9.55 -1.269 0.3
-5.189 -9.561 -1.268 0.45
-5.158 -9.578 -1.268 0.36
-5.106 -9.516 -1.257 0.44
-5.105 -9.586 -1.266 0.37
-5.093 -9.637 -1.271 0.45
-5.078 -9.681 -1.275 0.42
-5.068 -9.738 -1.281 0.41
-5.11 -9.895 -1.303 0.33
-5.092 -9.937 -1.307 0.37
-5.053 -9.937 -1.304 0.38
-5.026 -9.922 -1.301 0.38
-5.023 -9.995 -1.309 0.43
-5.014 -10.055 -1.316 0.32
-4.989 -10.085 -1.318 0.43
-4.949 -10.082 -1.316 0.44
-4.917 -10.098 -1.316 0.36
-4.896 -10.137 -1.319 0.43
-4.904 -10.194 -1.327 0.32
-4.956 -10.387 -1.353 0.47
-4.93 -10.417 -1.355 0.44
-4.914 -10.466 -1.36 0.36
-4.869 -10.457 -1.357 0.44
-4.872 -10.549 -1.368 0.36
-4.822 -10.528 -1.363 0.38
-4.819 -10.565 -1.367 0.38
-4.816 -10.649 -1.377 0.37
-4.777 -10.651 -1.375 0.43
-4.732 -10.641 -1.371 0.31
-4.693 -10.643 -1.37 0.45
-4.643 -10.617 -1.364 0.34
-4.614 -10.643 -1.365 0.45
-4.586 -10.623 -1.361 0.35
-4.523 -10.57 -1.351 0.43
-4.492 -10.589 -1.352 0.32
-4.438 -10.552 -1.345 0.43
-4.399 -10.551 -1.343 0.41
-4.386 -10.617 -1.35 0.42
-4.366 -10.661 -1.355 0.41
-4.322 -10.6 -1.345 0.34
-4.284 -10.605 -1.343 0.43
-4.268 -10.66 -1.35 0.43
-4.216 -10.628 -1.343 0.41
-4.214 -10.72 -1.354 0.41
-4.157 -10.672 -1.346 0.37
-4.146 -10.745 -1.354 0.39
-4.13 -10.753 -1.354 0.41
-4.092 -10.757 -1.353 0.41
-4.06 -10.773 -1.354 0.39
-4.031 -10.799 -1.355 0.39
-3.993 -10.8 -1.354 0.4
-3.955 -10.804 -1.353 0.41
-3.905 -10.771 -1.346 0.4
-3.885 -10.823 -1.352 0.41
-3.855 -10.789 -1.346 0.45
-3.813 -10.781 -1.343 0.36
-3.791 -10.825 -1.348 0.41
-3.744 -10.801 -1.343 0.41
-3.722 -10.846 -1.347 0.45
-3.688 -10.858 -1.347 0.35
-3.677 -10.939 -1.357 0.33
-3.64 -10.885 -1.349 0.49
-3.594 -10.862 -1.344 0.36
-3.58 -10.934 -1.353 0.39
-3.522 -10.873 -1.342 0.37
-3.491 -10.892 -1.343 0.4
-3.447 -10.874 -1.339 0.44
-3.411 -10.878 -1.338 0.35
-3.407 -10.925 -1.344 0.38
-3.368 -10.922 -1.342 0.38
-3.328 -10.912 -1.339 0.41
-3.277 -10.869 -1.332 0.36
-3.245 -10.885 -1.333 0.43
-3.21 -10.891 -1.332 0.24
-3.14 -10.779 -1.315 0.52
-3.157 -10.9 -1.331 0.3
-3.114 -10.882 -1.327 0.47
-3.09 -10.926 -1.332 0.4
-3.059 -10.947 -1.334 0.29
-3.023 -10.951 -1.333 0.46
-2.992 -10.975 -1.335 0.34
-2.956 -10.977 -1.334 0.42
-2.936 -10.972 -1.333 0.36
-2.887 -10.928 -1.325 0.38
-2.858 -10.956 -1.328 0.38
-2.822 -10.957 -1.327 0.44
-2.796 -11.0 -1.332 0.36
-2.747 -10.951 -1.324 0.39
-2.71 -10.949 -1.322 0.41
-2.703 -10.995 -1.328 0.37
-2.658 -10.959 -1.322 0.45
-2.619 -10.948 -1.319 0.27
-2.59 -10.982 -1.323 0.38
-2.555 -10.988 -1.322 0.39
-2.512 -10.957 -1.317 0.4
-2.457 -10.872 -1.304 0.42
-2.446 -10.984 -1.319 0.39
-2.438 -11.031 -1.324 0.39
-2.402 -11.034 -1.324 0.4
-2.369 -11.05 -1.325 0.36
-2.321 -10.993 -1.316 0.41
-2.298 -11.056 -1.324 0.33
-2.264 -11.069 -1.325 0.37
-2.225 -11.053 -1.322 0.43
-2.21 -11.07 -1.323 0.3
-2.17 -11.048 -1.319 0.46
-2.144 -11.103 -1.326 0.31
-2.101 -11.065 -1.32 0.46
-2.056 -11.015 -1.312 0.35
-2.028 -11.059 -1.317 0.37
-1.993 -11.061 -1.317 0.43
-1.975 -11.06 -1.316 0.36
-1.946 -11.1 -1.321 0.41
-1.908 -11.088 -1.318 0.36
-1.87 -11.077 -1.316 0.45
-1.831 -11.057 -1.312 0.33
-1.801 -11.094 -1.317 0.39
-1.765 -11.088 -1.315 0.43
-1.744 -11.073 -1.313 0.39
-1.713 -11.104 -1.316 0.34
-1.673 -11.074 -1.311 0.38
-1.634 -11.052 -1.308 0.33
-1.602 -11.07 -1.309 0.46
-1.57 -11.101 -1.313 0.36
-1.538 -11.122 -1.315 0.38
-1.517 -11.102 -1.312 0.37
-1.481 -11.097 -1.311 0.4
-1.445 -11.09 -1.309 0.4
-1.406 -11.065 -1.305 0.45
-1.364 -11.01 -1.297 0.39
-1.329 -11.009 -1.296 0.27
-1.299 -11.048 -1.301 0.49
-1.281 -11.048 -1.301 0.38
-1.245 -11.036 -1.299 0.38
-1.215 -11.086 -1.305 0.36
-1.185 -11.137 -1.311 0.41
-1.142 -11.067 -1.301 0.45
-1.111 -11.103 -1.306 0.34
-1.077 -11.122 -1.308 0.42
-1.036 -11.06 -1.299 0.36
-1.022 -11.095 -1.304 0.36
-0.985 -11.077 -1.301 0.43
-0.95 -11.078 -1.3 0.36
-0.914 -11.063 -1.298 0.41
-0.882 -11.101 -1.303 0.34
-0.844 -11.058 -1.297 0.45
-0.81 -11.067 -1.297 0.29
-0.788 -11.009 -1.289 0.43
-0.758 -11.077 -1.298 0.4
-0.723 -11.087 -1.299 0.31
-0.687 -11.057 -1.295 0.4
-0.652 -11.063 -1.296 0.38
-0.582 -10.402 -1.206 0.45
-0.581 -11.028 -1.29 0.29
-0.565 -11.052 -1.293 0.43
-0.531 -11.076 -1.296 0.43
-0.496 -11.072 -1.296 0.36
-0.461 -11.073 -1.296 0.38
-0.425 -11.051 -1.292 0.43
-0.388 -10.981 -1.283 0.32
-0.356 -11.059 -1.293 0.33
-0.338 -11.04 -1.291 0.44
-0.304 -11.076 -1.295 0.41
-0.27 -11.075 -1.295 0.37
-0.235 -11.104 -1.299 0.44
-0.199 -11.047 -1.291 0.36
-0.165 -11.077 -1.295 0.38
-0.13 -11.074 -1.295 0.44
-0.112 -10.943 -1.277 0.37
-0.078 -11.053 -1.292 0.31
-0.043 -11.035 -1.289 0.48
-0.009 -11.011 -1.286 0.35
0.026 -11.027 -1.288 0.43
0.061 -11.013 -1.286 0.27
0.096 -11.045 -1.291 0.43
0.113 -11.054 -1.292 0.39
0.148 -11.04 -1.29 0.32
0.183 -11.059 -1.293 0.46
0.219 -11.114 -1.3 0.3
0.252 -11.04 -1.29 0.49
0.286 -11.035 -1.29 0.32
0.32 -11.001 -1.285 0.53
0.334 -10.915 -1.274 0.3
0.37 -10.965 -1.281 0.4
0.403 -10.915 -1.274 0.36
0.44 -10.985 -1.284 0.32
0.473 -10.938 -1.277 0.44
0.507 -10.928 -1.276 0.45
0.541 -10.925 -1.276 0.27
0.559 -10.947 -1.279 0.54
0.592 -10.924 -1.276 0.34
0.625 -10.9 -1.273 0.42
0.662 -10.938 -1.279 0.35
0.699 -10.967 -1.283 0.35
0.729 -10.908 -1.275 0.49
0.765 -10.933 -1.279 0.3
0.781 -10.904 -1.275 0.46
0.818 -10.947 -1.281 0.36
0.851 -10.925 -1.279 0.34
0.883 -10.894 -1.275 0.43
0.92 -10.921 -1.279 0.42
0.951 -10.881 -1.274 0.36
0.98 -10.822 -1.266 0.41
1.02 -10.88 -1.275 0.41
1.041 -10.922 -1.281 0.33
1.07 -10.866 -1.273 0.49
1.101 -10.837 -1.27 0.32
1.136 -10.841 -1.271 0.48
1.178 -10.91 -1.281 0.36
1.207 -10.853 -1.274 0.37
1.241 -10.851 -1.274 0.4
1.255 -10.824 -1.27 0.38
1.286 -10.792 -1.267 0.41
1.321 -10.802 -1.269 0.39
1.357 -10.815 -1.271 0.39
1.395 -10.835 -1.274 0.38
1.432 -10.858 -1.278 0.41
1.468 -10.863 -1.279 0.38
1.479 -10.821 -1.274 0.39
1.514 -10.825 -1.275 0.41
1.542 -10.775 -1.269 0.39
1.577 -10.78 -1.27 0.42
1.611 -10.777 -1.27 0.36
1.643 -10.758 -1.269 0.38
1.671 -10.715 -1.264 0.41
1.689 -10.722 -1.265 0.39
1.726 -10.733 -1.267 0.35
1.76 -10.731 -1.268 0.45
1.8 -10.765 -1.273 0.29
1.828 -10.724 -1.268 0.5
1.859 -10.704 -1.266 0.19
1.881 -10.63 -1.257 0.48
1.903 -10.658 -1.261 0.45
1.944 -10.695 -1.267 0.32
1.981 -10.705 -1.269 0.42
2.003 -10.638 -1.261 0.27
2.032 -10.61 -1.258 0.46
2.068 -10.618 -1.26 0.37
2.1 -10.603 -1.259 0.45
2.121 -10.619 -1.261 0.34
2.149 -10.589 -1.258 0.4
2.177 -10.555 -1.254 0.31
2.226 -10.626 -1.265 0.39
2.258 -10.609 -1.264 0.39
2.288 -10.59 -1.262 0.33
2.33 -10.622 -1.268 0.51
2.347 -10.618 -1.268 0.3
2.378 -10.599 -1.266 0.38
2.417 -10.619 -1.27 0.43
2.428 -10.513 -1.256 0.3
2.452 -10.468 -1.251 0.49
2.48 -10.439 -1.248 0.39
2.535 -10.526 -1.261 0.2
2.524 -10.337 -1.236 0.54
2.56 -10.414 -1.247 0.34
2.622 -10.523 -1.264 0.4
2.634 -10.43 -1.252 0.43
2.658 -10.387 -1.247 0.32
2.711 -10.458 -1.258 0.38
2.737 -10.422 -1.254 0.45
2.789 -10.488 -1.265 0.33
2.815 -10.516 -1.269 0.38
2.85 -10.515 -1.27 0.44
2.892 -10.539 -1.275 0.3
2.854 -10.277 -1.239 0.48
2.947 -10.48 -1.269 0.35
2.868 -10.084 -1.215 0.37
3.028 -10.517 -1.277 0.41
2.999 -10.356 -1.255 0.38
3.055 -10.426 -1.266 0.38
3.067 -10.346 -1.256 0.37
3.107 -10.359 -1.26 0.44
3.155 -10.403 -1.267 0.31
3.186 -10.385 -1.266 0.48
3.21 -10.348 -1.262 0.36
3.233 -10.364 -1.265 0.32
3.279 -10.397 -1.271 0.43
3.304 -10.364 -1.268 0.4
3.362 -10.431 -1.279 0.42
3.388 -10.4 -1.276 0.36
3.407 -10.348 -1.27 0.45
3.439 -10.335 -1.27 0.31
3.444 -10.296 -1.265 0.5
3.521 -10.417 -1.284 0.27
3.534 -10.349 -1.276 0.52
3.561 -10.323 -1.274 0.35
3.576 -10.261 -1.266 0.38
3.626 -10.3 -1.274 0.4
3.657 -10.285 -1.273 0.46
3.654 -10.225 -1.265 0.27
3.688 -10.22 -1.266 0.37
3.726 -10.225 -1.269 0.47
3.607 -9.804 -1.21 0.21
3.6 -9.692 -1.195 0.48
3.829 -10.208 -1.271 0.45
3.741 -9.881 -1.226 0.26
3.891 -10.225 -1.276 0.48
3.884 -10.113 -1.262 0.27
3.929 -10.133 -1.267 0.4
3.984 -10.178 -1.275 0.34
4.003 -10.134 -1.27 0.41
4.036 -10.124 -1.271 0.34
4.076 -10.131 -1.274 0.42
4.093 -10.128 -1.274 0.34
4.129 -10.126 -1.276 0.38
4.165 -10.123 -1.277 0.38
4.188 -10.089 -1.274 0.4
4.207 -10.045 -1.27 0.37
4.254 -10.068 -1.275 0.44
4.293 -10.073 -1.278 0.36
4.319 -10.045 -1.276 0.43
4.293 -9.944 -1.262 0.38
4.343 -9.972 -1.268 0.36
4.413 -10.047 -1.281 0.34
4.43 -9.999 -1.276 0.4
4.44 -9.938 -1.269 0.33
4.496 -9.98 -1.277 0.41
4.525 -9.96 -1.276 0.34
4.519 -9.906 -1.269 0.4
4.484 -9.748 -1.248 0.31
4.576 -9.865 -1.268 0.42
4.611 -9.86 -1.269 0.34
4.645 -9.852 -1.27 0.37
4.691 -9.868 -1.274 0.41
4.717 -9.842 -1.273 0.41
4.714 -9.798 -1.267 0.39
4.712 -9.717 -1.257 0.36
4.756 -9.729 -1.261 0.38
4.791 -9.722 -1.263 0.38
4.811 -9.686 -1.26 0.38
4.865 -9.719 -1.267 0.45
4.857 -9.627 -1.255 0.37
4.881 -9.636 -1.258 0.32
4.902 -9.603 -1.255 0.42
4.936 -9.596 -1.256 0.4
4.973 -9.593 -1.258 0.36
5.014 -9.598 -1.261 0.46
5.073 -9.637 -1.27 0.41
5.082 -9.58 -1.264 0.41
5.109 -9.595 -1.267 0.41
5.145 -9.59 -1.269 0.41
5.178 -9.579 -1.269 0.39
5.214 -9.574 -1.271 0.45
5.237 -9.544 -1.269 0.38
5.239 -9.477 -1.261 0.34
5.282 -9.485 -1.265 0.38
5.298 -9.478 -1.265 0.39
5.313 -9.436 -1.261 0.4
5.37 -9.467 -1.269 0.36
5.419 -9.483 -1.274 0.43
5.444 -9.457 -1.273 0.36
5.46 -9.418 -1.269 0.38
5.474 -9.374 -1.265 0.38
5.46 -9.317 -1.257 0.43
5.489 -9.298 -1.257 0.35
5.558 -9.349 -1.268 0.45
5.594 -9.342 -1.269 0.31
5.591 -9.271 -1.261 0.45
5.651 -9.305 -1.269 0.38
5.697 -9.314 -1.273 0.39
5.674 -9.244 -1.264 0.43
5.713 -9.241 -1.266 0.34
5.7 -9.156 -1.256 0.41
5.701 -9.095 -1.249 0.35
5.788 -9.169 -1.263 0.45
5.76 -9.062 -1.249 0.24
5.819 -9.091 -1.257 0.48
5.836 -9.086 -1.257 0.34
5.856 -9.055 -1.255 0.38
5.901 -9.061 -1.259 0.39
5.958 -9.086 -1.266 0.38
5.975 -9.05 -1.264 0.37
5.991 -9.013 -1.261 0.45
6.001 -8.967 -1.256 0.39
6.048 -8.976 -1.261 0.36
6.054 -8.955 -1.259 0.43
6.1 -8.962 -1.263 0.36
6.133 -8.949 -1.264 0.4
6.144 -8.905 -1.26 0.34
6.191 -8.914 -1.265 0.45
6.228 -8.907 -1.267 0.39
6.251 -8.879 -1.265 0.4
6.246 -8.844 -1.261 0.36
6.302 -8.863 -1.268 0.43
6.324 -8.835 -1.266 0.32
6.354 -8.818 -1.267 0.44
6.393 -8.814 -1.269 0.35
6.442 -8.823 -1.274 0.44
6.454 -8.782 -1.271 0.38
6.442 -8.737 -1.265 0.37
6.5 -8.758 -1.272 0.43
6.554 -8.772 -1.278 0.36
6.572 -8.739 -1.276 0.45
6.611 -8.734 -1.278 0.37
6.625 -8.696 -1.275 0.46
6.688 -8.72 -1.283 0.37
6.655 -8.65 -1.273 0.42
6.717 -8.673 -1.28 0.37
6.732 -8.636 -1.278 0.45
6.768 -8.628 -1.28 0.36
6.815 -8.631 -1.284 0.46
6.853 -8.624 -1.287 0.36
6.892 -8.616 -1.289 0.41
6.903 -8.602 -1.288 0.45
6.95 -8.605 -1.293 0.42
6.984 -8.592 -1.294 0.42
7.021 -8.583 -1.296 0.35
7.049 -8.562 -1.297 0.43
7.07 -8.532 -1.295 0.38
7.117 -8.534 -1.3 0.37
7.16 -8.531 -1.303 0.39
7.17 -8.516 -1.302 0.43
7.252 -8.558 -1.314 0.32
7.292 -8.55 -1.316 0.41
7.326 -8.536 -1.318 0.35
7.362 -8.524 -1.32 0.38
7.394 -8.507 -1.321 0.42
7.414 -8.502 -1.322 0.4
7.456 -8.497 -1.326 0.34
7.47 -8.459 -1.323 0.41
7.503 -8.442 -1.324 0.4
7.551 -8.442 -1.328 0.25
7.544 -8.382 -1.322 0.48
7.588 -8.377 -1.325 0.41
7.617 -8.383 -1.328 0.4
7.634 -8.349 -1.327 0.33
7.661 -8.326 -1.327 0.37
7.689 -8.303 -1.327 0.34
7.705 -8.269 -1.325 0.25
7.757 -8.272 -1.33 0.36
7.795 -8.261 -1.333 0.31
7.83 -8.272 -1.337 0.34
7.877 -8.268 -1.341 0.34
7.929 -8.271 -1.346 0.35
7.978 -8.27 -1.351 0.35
8.023 -8.265 -1.354 0.33
8.074 -8.265 -1.359 0.35
8.124 -8.264 -1.364 0.36
8.175 -8.263 -1.369 0.37
8.208 -8.27 -1.372 0.34
8.262 -8.272 -1.378 0.36
8.314 -8.273 -1.383 0.36
8.371 -8.277 -1.389 0.36
8.414 -8.267 -1.392 0.37
8.466 -8.266 -1.397 0.36
8.516 -8.263 -1.401 0.35
8.559 -8.278 -1.407 0.35
8.612 -8.277 -1.412 0.31
8.662 -8.273 -1.416 0.34
8.719 -8.275 -1.422 0.38
8.763 -8.265 -1.425 0.33
8.827 -8.272 -1.432 0.38
8.831 -8.224 -1.428 0.34
8.872 -8.236 -1.433 0.31
8.915 -8.224 -1.437 0.29
8.936 -8.192 -1.436 0.32
8.987 -8.187 -1.44 0.42
9.013 -8.159 -1.44 0.34
9.056 -8.146 -1.444 0.34
9.037 -8.078 -1.436 0.32
9.109 -8.116 -1.446 0.29
9.167 -8.117 -1.452 0.32
9.205 -8.098 -1.454 0.0
8.625 -7.542 -1.346 0.0
8.599 -7.472 -1.337 0.0
8.645 -7.465 -1.341 0.0
8.701 -7.466 -1.347 0.16
8.737 -7.473 -1.351 0.24
8.786 -7.467 -1.356 0.18
8.855 -7.478 -1.364 0.38
8.918 -7.483 -1.371 0.25
8.978 -7.485 -1.377 0.26
9.045 -7.492 -1.385 0.26
9.108 -7.496 -1.392 0.27
9.154 -7.51 -1.398 0.26
9.214 -7.511 -1.404 0.27
9.27 -7.508 -1.41 0.27
9.337 -7.513 -1.417 0.28
9.39 -7.507 -1.422 0.27
9.441 -7.5 -1.427 0.27
9.477 -7.48 -1.429 0.26
9.506 -7.479 -1.432 0.28
9.606 -7.508 -1.445 0.26
9.652 -7.495 -1.449 0.21
9.707 -7.489 -1.454 0.41
9.759 -7.48 -1.459 0.23
9.812 -7.472 -1.464 0.23
9.894 -7.485 -1.474 0.31
9.957 -7.508 -1.483 0.26
9.986 -7.481 -1.484 0.42
9.996 -7.439 -1.481 0.37
10.03 -7.416 -1.483 0.25
10.012 -7.354 -1.476 0.26
10.006 -7.302 -1.471 0.54
10.08 -7.307 -1.48 0.29
10.097 -7.295 -1.481 0.29
10.126 -7.268 -1.482 0.27
10.168 -7.25 -1.485 0.26
10.196 -7.221 -1.486 0.26
10.215 -7.187 -1.485 0.31
10.251 -7.164 -1.487 0.31
10.257 -7.12 -1.485 0.3
10.255 -7.095 -1.483 0.28
10.261 -7.052 -1.48 0.27
10.298 -7.03 -1.482 0.3
10.367 -7.029 -1.49 0.32
10.396 -7.001 -1.491 0.41
10.396 -6.954 -1.488 0.3
10.387 -6.901 -1.483 0.32
10.445 -6.892 -1.489 0.27
10.446 -6.869 -1.487 0.36
10.482 -6.846 -1.489 0.3
10.519 -6.823 -1.492 0.36
10.563 -6.804 -1.495 0.31
10.591 -6.776 -1.497 0.37
10.582 -6.723 -1.492 0.27
10.657 -6.724 -1.5 0.43
10.632 -6.685 -1.495 0.31
10.539 -6.58 -1.477 0.0
10.433 -6.469 -1.456 0.05
9.711 -5.982 -1.339 0.14
9.767 -5.974 -1.345 0.2
9.844 -5.978 -1.354 0.19
9.919 -5.981 -1.363 0.42
9.977 -5.994 -1.371 0.25
10.063 -6.002 -1.381 0.26
10.153 -6.013 -1.392 0.27
10.222 -6.01 -1.4 0.26
10.288 -6.006 -1.408 0.26
10.367 -6.008 -1.417 0.27
10.445 -6.009 -1.426 0.29
10.499 -6.018 -1.433 0.28
10.59 -6.026 -1.444 0.28
10.644 -6.012 -1.45 0.21
10.713 -6.007 -1.457 0.41
10.749 -5.983 -1.46 0.24
10.818 -5.977 -1.468 0.25
10.849 -5.949 -1.47 0.21
10.86 -5.933 -1.47 0.41
10.847 -5.882 -1.465 0.24
10.869 -5.85 -1.466 0.26
10.915 -5.831 -1.47 0.28
10.983 -5.822 -1.477 0.21
11.031 -5.803 -1.482 0.41
11.089 -5.79 -1.488 0.25
11.12 -5.783 -1.491 0.27
11.078 -5.717 -1.482 0.25
11.127 -5.699 -1.487 0.37
11.121 -5.651 -1.483 0.28
11.096 -5.595 -1.477 0.31
11.213 -5.61 -1.492 0.29
11.143 -5.531 -1.479 0.35
11.116 -5.496 -1.473 0.27
11.055 -5.423 -1.462 0.3
11.038 -5.372 -1.456 0.46
11.212 -5.413 -1.48 0.26
11.172 -5.35 -1.471 0.38
11.119 -5.282 -1.461 0.33
11.117 -5.239 -1.458 0.43
11.162 -5.217 -1.463 0.36
11.217 -5.221 -1.47 0.26
11.239 -5.188 -1.47 0.36
11.264 -5.157 -1.472 0.43
11.306 -5.133 -1.475 0.25
11.336 -5.104 -1.478 0.55
11.351 -5.068 -1.477 0.21
11.421 -5.056 -1.485 0.31
11.489 -5.064 -1.494 0.39
11.479 -5.017 -1.49 0.4
11.548 -5.004 -1.498 0.32
11.585 -4.977 -1.501 0.34
11.544 -4.916 -1.493 0.38
11.642 -4.915 -1.505 0.42
11.893 -4.976 -1.54 0.0
11.582 -4.826 -1.493 0.0
10.829 -4.474 -1.381 0.0
10.909 -4.467 -1.391 0.12
11.017 -4.47 -1.404 0.2
11.158 -4.486 -1.423 0.25
11.275 -4.492 -1.438 0.29
11.367 -4.487 -1.449 0.2
11.468 -4.506 -1.463 0.43
11.576 -4.506 -1.476 0.25
11.639 -4.488 -1.483 0.2
11.762 -4.493 -1.499 0.41
11.813 -4.47 -1.504 0.22
11.807 -4.426 -1.501 0.26
11.953 -4.437 -1.52 0.21
11.902 -4.397 -1.512 0.36
11.932 -4.366 -1.514 0.35
11.912 -4.316 -1.51 0.32
12.047 -4.322 -1.527 0.38
12.096 -4.297 -1.532 0.28
12.114 -4.26 -1.533 0.18
12.029 -4.188 -1.519 0.49
12.13 -4.202 -1.532 0.29
12.154 -4.167 -1.534 0.24
12.156 -4.125 -1.532 0.29
12.18 -4.091 -1.534 0.21
12.187 -4.051 -1.533 0.39
12.3 -4.045 -1.547 0.3
12.343 -4.016 -1.551 0.5
12.307 -3.983 -1.545 0.21
12.329 -3.948 -1.547 0.36
12.33 -3.905 -1.545 0.36
12.323 -3.861 -1.543 0.37
12.315 -3.816 -1.54 0.32
12.359 -3.787 -1.544 0.29
12.371 -3.748 -1.544 0.39
12.405 -3.737 -1.548 0.34
12.386 -3.689 -1.544 0.47
12.434 -3.661 -1.549 0.27
12.36 -3.597 -1.537 0.39
12.417 -3.571 -1.543 0.42
12.47 -3.544 -1.549 0.27
12.41 -3.485 -1.539 0.48
12.502 -3.489 -1.551 0.3
12.515 -3.45 -1.552 0.29
12.481 -3.399 -1.545 0.46
12.49 -3.359 -1.545 0.34
12.401 -3.294 -1.531 0.0
12.499 -3.278 -1.544 0.04
11.473 -2.972 -1.399 0.15
11.609 -2.969 -1.417 0.27
11.792 -2.995 -1.442 0.3
12.009 -3.01 -1.471 0.31
12.161 -3.007 -1.49 0.3
12.298 -3.0 -1.508 0.3
12.271 -2.952 -1.503 0.3
12.228 -2.901 -1.496 0.21
12.594 -2.946 -1.545 0.2
12.489 -2.901 -1.53 0.55
12.546 -2.872 -1.537 0.34
12.588 -2.84 -1.541 0.27
12.562 -2.793 -1.536 0.36
12.522 -2.743 -1.53 0.34
12.521 -2.702 -1.528 0.38
12.539 -2.664 -1.53 0.35
12.528 -2.641 -1.528 0.32
12.452 -2.585 -1.516 0.37
12.424 -2.538 -1.511 0.34
12.447 -2.502 -1.513 0.38
12.416 -2.456 -1.508 0.34
12.367 -2.406 -1.5 0.33
12.386 -2.369 -1.502 0.39
12.392 -2.35 -1.502 0.37
12.304 -2.293 -1.489 0.37
12.328 -2.258 -1.491 0.36
12.287 -2.21 -1.485 0.34
12.278 -2.169 -1.482 0.41
12.232 -2.122 -1.475 0.37
12.274 -2.089 -1.48 0.36
12.244 -2.064 -1.475 0.31
12.266 -2.028 -1.478 0.51
12.127 -1.967 -1.458 0.3
12.135 -1.929 -1.458 0.3
12.134 -1.889 -1.457 0.28
12.139 -1.851 -1.457 0.3
12.281 -1.833 -1.475 0.3
12.489 -1.844 -1.504 0.31
12.715 -1.836 -1.533 0.31
12.931 -1.825 -1.562 0.24
13.066 -1.802 -1.58 0.32
13.079 -1.762 -1.581 0.34
13.106 -1.724 -1.584 0.36
13.112 -1.683 -1.584 0.31
13.103 -1.64 -1.582 0.31
13.021 -1.609 -1.57 0.27
13.024 -1.568 -1.57 0.3
13.031 -1.527 -1.57 0.31
13.04 -1.486 -1.571 0.3
13.038 -1.445 -1.57 0.31
13.031 -1.403 -1.568 0.29
13.043 -1.362 -1.57 0.29
13.036 -1.341 -1.568 0.32
13.044 -1.3 -1.569 0.3
13.056 -1.26 -1.57 0.3
13.048 -1.218 -1.568 0.3
13.057 -1.178 -1.569 0.27
13.045 -1.135 -1.567 0.3
13.055 -1.095 -1.568 0.28
13.046 -1.073 -1.566 0.28
13.054 -1.033 -1.567 0.28
13.057 -0.992 -1.567 0.26
13.05 -0.95 -1.566 0.27
13.053 -0.909 -1.566 0.26
13.064 -0.868 -1.567 0.25
13.061 -0.848 -1.566 0.19
13.064 -0.807 -1.566 0.41
13.074 -0.766 -1.567 0.22
13.045 -0.723 -1.563 0.18
13.059 -0.683 -1.564 0.42
13.061 -0.642 -1.564 0.25
13.073 -0.601 -1.566 0.28
13.069 -0.56 -1.565 0.29
13.071 -0.539 -1.565 0.28
13.071 -0.498 -1.565 0.26
13.086 -0.458 -1.567 0.27
13.076 -0.416 -1.565 0.28
13.071 -0.375 -1.564 0.29
13.074 -0.334 -1.565 0.29
13.071 -0.293 -1.564 0.3
13.07 -0.272 -1.564 0.3
13.075 -0.231 -1.564 0.3
13.079 -0.19 -1.565 0.29
13.066 -0.149 -1.563 0.27
13.06 -0.108 -1.562 0.29
13.061 -0.067 -1.562 0.29
13.059 -0.026 -1.562 0.29
13.057 -0.005 -1.562 0.3
12.455 0.008 -1.565 0.18
12.457 0.047 -1.565 0.21
12.472 0.067 -1.567 0.18
12.441 0.106 -1.563 0.13
12.454 0.145 -1.565 0.17
12.45 0.184 -1.564 0.29
12.451 0.223 -1.565 0.19
12.442 0.262 -1.564 0.17
12.439 0.301 -1.563 0.18
12.459 0.321 -1.566 0.17
12.462 0.36 -1.567 0.18
12.466 0.4 -1.567 0.09
12.477 0.439 -1.569 0.16
12.479 0.479 -1.57 0.09
12.49 0.518 -1.571 0.15
12.494 0.558 -1.572 0.09
12.498 0.597 -1.573 0.15
12.507 0.617 -1.574 0.1
12.499 0.656 -1.574 0.15
12.507 0.696 -1.575 0.1
12.499 0.735 -1.574 0.09
12.496 0.774 -1.574 0.16
12.498 0.814 -1.575 0.16
12.505 0.854 -1.576 0.16
12.502 0.873 -1.576 0.16
12.487 0.912 -1.574 0.1
12.484 0.951 -1.574 0.15
12.471 0.989 -1.573 0.17
12.474 1.029 -1.574 0.16
12.463 1.068 -1.572 0.17
12.475 1.108 -1.575 0.17
12.442 1.125 -1.57 0.13
12.434 1.164 -1.57 0.16
12.432 1.203 -1.57 0.28
12.423 1.241 -1.569 0.2
12.425 1.281 -1.57 0.17
12.409 1.319 -1.568 0.31
12.406 1.358 -1.569 0.19
12.41 1.378 -1.569 0.18
12.414 1.418 -1.571 0.3
12.397 1.456 -1.569 0.2
12.399 1.495 -1.57 0.19
12.388 1.533 -1.569 0.3
12.389 1.573 -1.57 0.2
12.39 1.613 -1.571 0.18
12.381 1.631 -1.57 0.21
12.368 1.669 -1.569 0.18
12.371 1.709 -1.57 0.21
12.362 1.747 -1.569 0.19
12.366 1.788 -1.571 0.29
12.341 1.824 -1.568 0.11
12.349 1.864 -1.57 0.17
12.33 1.882 -1.567 0.12
12.338 1.922 -1.569 0.18
12.339 1.962 -1.571 0.29
12.327 2.0 -1.57 0.2
12.333 2.041 -1.571 0.16
12.314 2.078 -1.57 0.32
12.312 2.117 -1.57 0.2
12.311 2.157 -1.571 0.21
12.304 2.175 -1.571 0.21
12.293 2.213 -1.57 0.2
12.29 2.252 -1.571 0.21
12.288 2.292 -1.571 0.18
12.275 2.33 -1.571 0.34
12.289 2.372 -1.574 0.2
12.259 2.406 -1.57 0.34
12.259 2.426 -1.571 0.2
12.247 2.464 -1.57 0.33
12.253 2.505 -1.572 0.18
12.231 2.541 -1.57 0.35
12.241 2.583 -1.573 0.19
12.215 2.618 -1.57 0.34
12.217 2.658 -1.572 0.18
12.21 2.677 -1.571 0.37
12.215 2.718 -1.573 0.2
12.188 2.752 -1.571 0.35
12.188 2.793 -1.572 0.19
12.185 2.832 -1.573 0.35
12.18 2.872 -1.573 0.2
12.167 2.909 -1.573 0.33
12.18 2.932 -1.575 0.19
12.155 2.967 -1.573 0.35
12.171 3.011 -1.577 0.19
12.139 3.044 -1.573 0.23
12.138 3.084 -1.575 0.2
12.133 3.123 -1.575 0.21
12.125 3.162 -1.576 0.2
12.123 3.182 -1.576 0.21
12.121 3.222 -1.577 0.18
12.103 3.258 -1.576 0.31
12.095 3.296 -1.576 0.2
12.098 3.338 -1.578 0.18
12.085 3.376 -1.578 0.21
12.073 3.413 -1.578 0.19
12.069 3.432 -1.578 0.3
12.076 3.475 -1.581 0.19
12.051 3.509 -1.579 0.32
12.044 3.548 -1.579 0.2
12.039 3.588 -1.58 0.18
12.023 3.624 -1.58 0.32
12.023 3.666 -1.581 0.19
12.002 3.701 -1.58 0.24
11.983 3.715 -1.578 0.2
11.979 3.755 -1.579 0.23
11.962 3.791 -1.578 0.2
11.944 3.827 -1.577 0.22
11.939 3.867 -1.578 0.2
11.918 3.901 -1.577 0.22
11.912 3.92 -1.577 0.19
11.901 3.958 -1.577 0.23
11.883 3.993 -1.576 0.2
11.859 4.027 -1.575 0.13
11.845 4.064 -1.574 0.44
11.837 4.103 -1.575 0.15
11.822 4.139 -1.575 0.34
11.814 4.157 -1.575 0.28
11.816 4.199 -1.577 0.37
11.795 4.234 -1.576 0.26
11.806 4.28 -1.58 0.37
11.778 4.311 -1.577 0.15
11.796 4.36 -1.582 0.18
11.797 4.402 -1.584 0.12
11.796 4.444 -1.586 0.16
11.822 4.475 -1.591 0.27
11.801 4.51 -1.59 0.11
11.823 4.561 -1.596 0.16
11.818 4.602 -1.597 0.1
11.824 4.647 -1.6 0.15
11.826 4.69 -1.603 0.09
11.824 4.733 -1.605 0.15
11.824 4.754 -1.606 0.1
11.827 4.799 -1.609 0.0
11.821 4.84 -1.61 0.0
11.817 4.881 -1.612 0.0
11.824 4.927 -1.615 0.0
11.819 4.969 -1.617 0.0
11.813 5.01 -1.618 0.0
11.821 5.035 -1.621 0.08
11.822 5.08 -1.623 0.08
11.809 5.118 -1.624 0.09
11.804 5.16 -1.625 0.09
11.808 5.206 -1.629 0.09
11.802 5.248 -1.63 0.15
11.796 5.29 -1.632 0.1
11.794 5.311 -1.633 0.15
11.789 5.353 -1.635 0.1
11.789 5.398 -1.637 0.15
11.786 5.441 -1.64 0.28
11.78 5.483 -1.641 0.11
11.766 5.522 -1.642 0.16
11.765 5.567 -1.644 0.12
11.781 5.597 -1.648 0.16
11.769 5.636 -1.649 0.12
11.764 5.679 -1.651 0.16
11.765 5.726 -1.654 0.29
11.754 5.766 -1.655 0.11
11.756 5.813 -1.658 0.16
11.753 5.858 -1.661 0.12
11.755 5.881 -1.662 0.17
11.761 5.931 -1.666 0.28
11.753 5.973 -1.668 0.2
11.757 6.021 -1.672 0.18
11.747 6.063 -1.673 0.17
11.756 6.114 -1.678 0.17
11.747 6.157 -1.679 0.1
11.745 6.179 -1.68 0.16
11.748 6.228 -1.684 0.09
11.749 6.276 -1.687 0.09
11.743 6.32 -1.69 0.09
11.744 6.368 -1.693 0.09
11.728 6.407 -1.694 0.09
11.73 6.456 -1.697 0.08
11.72 6.499 -1.699 0.08
11.72 6.523 -1.701 0.08
11.715 6.568 -1.703 0.14
11.693 6.604 -1.703 0.09
11.686 6.649 -1.705 0.14
11.672 6.689 -1.706 0.09
11.665 6.734 -1.708 0.09
11.672 6.787 -1.713 0.14
11.665 6.808 -1.714 0.16
11.646 6.845 -1.714 0.16
11.639 6.891 -1.717 0.1
11.635 6.937 -1.719 0.15
11.635 6.987 -1.723 0.29
11.625 7.031 -1.725 0.18
11.613 7.074 -1.727 0.18
11.61 7.097 -1.728 0.17
11.6 7.141 -1.73 0.18
11.597 7.189 -1.733 0.18
11.583 7.231 -1.735 0.26
11.567 7.272 -1.736 0.28
11.551 7.312 -1.737 0.27
11.578 7.355 -1.744 0.2
11.57 7.401 -1.746 0.21
11.563 7.448 -1.749 0.18
11.553 7.492 -1.751 0.34
11.543 7.537 -1.753 0.19
11.542 7.589 -1.757 0.34
11.518 7.625 -1.757 0.18
11.52 7.679 -1.762 0.36
11.528 7.71 -1.765 0.19
11.507 7.748 -1.766 0.26
11.504 7.799 -1.769 0.18
11.473 7.83 -1.768 0.35
11.461 7.875 -1.77 0.18
11.453 7.923 -1.773 0.36
11.446 7.971 -1.776 0.2
11.44 7.994 -1.777 0.32
11.426 8.037 -1.779 0.2
11.406 8.077 -1.78 0.35
11.393 8.122 -1.782 0.18
11.372 8.161 -1.783 0.36
11.363 8.208 -1.786 0.19
11.359 8.26 -1.79 0.27
11.354 8.284 -1.791 0.2
11.344 8.331 -1.794 0.21
11.315 8.364 -1.794 0.19
11.311 8.416 -1.798 0.21
11.31 8.471 -1.802 0.18
11.299 8.518 -1.805 0.23
11.286 8.564 -1.807 0.19
11.285 8.592 -1.81 0.23
11.269 8.635 -1.812 0.19
11.261 8.685 -1.815 0.22
11.248 8.731 -1.818 0.2
11.234 8.778 -1.82 0.17
11.221 8.824 -1.823 0.4
11.213 8.875 -1.826 0.2
11.21 8.901 -1.828 0.36
11.196 8.948 -1.831 0.18
11.183 8.995 -1.834 0.35
11.183 9.053 -1.839 0.2
11.162 9.094 -1.84 0.25
11.143 9.136 -1.842 0.21
11.128 9.183 -1.844 0.15
11.112 9.199 -1.844 0.45
11.115 9.26 -1.85 0.18
11.095 9.303 -1.851 0.35
11.08 9.35 -1.854 0.2
11.057 9.39 -1.855 0.15
11.014 9.413 -1.853 0.0
10.963 9.43 -1.849 0.0
9.123 8.418 -1.559 0.0
9.153 8.499 -1.57 0.0
9.018 8.426 -1.549 0.09
8.96 8.425 -1.543 0.1
8.902 8.397 -1.534 0.15
8.861 8.411 -1.531 0.17
8.773 8.38 -1.519 0.0
8.699 8.363 -1.51 0.07
8.646 8.364 -1.505 0.2
8.582 8.355 -1.497 0.0
8.526 8.353 -1.491 0.0
8.486 8.34 -1.486 0.0
8.474 8.381 -1.489 0.0
8.465 8.424 -1.492 0.0
8.209 8.457 -1.47 0.0
8.118 8.47 -1.463 0.0
8.189 8.597 -1.483 0.0
8.115 8.574 -1.473 0.0
8.059 8.594 -1.47 0.0
8.03 8.618 -1.469 0.0
8.011 8.652 -1.471 0.0
7.987 8.68 -1.472 0.0
7.967 8.714 -1.473 0.0
7.948 8.748 -1.475 0.0
8.152 9.113 -1.533 0.0
8.136 9.154 -1.535 0.0
8.101 9.172 -1.534 0.0
7.945 9.053 -1.507 0.04
7.894 9.053 -1.502 0.16
7.898 9.115 -1.509 0.22
7.903 9.179 -1.516 0.17
7.922 9.23 -1.524 0.0
7.893 9.255 -1.524 0.0
7.896 9.317 -1.531 0.0
7.899 9.38 -1.538 0.0
7.936 9.483 -1.552 0.0
7.957 9.569 -1.564 0.0
8.012 9.729 -1.586 0.0
9.174 11.276 -1.86 0.21
9.138 11.305 -1.86 0.18
9.111 11.344 -1.862 0.3
9.074 11.371 -1.861 0.2
9.035 11.395 -1.86 0.18
9.023 11.417 -1.862 0.29
8.976 11.431 -1.859 0.19
8.939 11.458 -1.859 0.18
8.915 11.501 -1.862 0.22
8.875 11.525 -1.861 0.18
8.85 11.566 -1.864 0.3
8.806 11.585 -1.862 0.2
8.793 11.605 -1.863 0.18
8.762 11.64 -1.864 0.29
8.734 11.679 -1.866 0.2
8.697 11.706 -1.866 0.18
8.666 11.742 -1.868 0.3
8.628 11.767 -1.867 0.2
8.595 11.799 -1.868 0.17
8.548 11.813 -1.866 0.13
8.53 11.826 -1.866 0.17
8.497 11.86 -1.867 0.29
8.462 11.89 -1.868 0.2
8.412 11.898 -1.865 0.18
8.384 11.938 -1.867 0.31
8.343 11.959 -1.866 0.2
8.313 11.997 -1.868 0.17
8.292 12.006 -1.867 0.31
8.249 12.024 -1.866 0.2
8.217 12.058 -1.867 0.18
8.175 12.079 -1.867 0.34
8.143 12.113 -1.868 0.19
8.103 12.135 -1.867 0.34
8.06 12.154 -1.866 0.21
8.041 12.167 -1.866 0.33
8.005 12.195 -1.867 0.21
7.957 12.205 -1.864 0.18
7.928 12.245 -1.867 0.31
7.897 12.282 -1.869 0.21
7.858 12.306 -1.869 0.18
7.817 12.326 -1.868 0.32
7.796 12.337 -1.868 0.21
7.75 12.349 -1.866 0.2
7.712 12.375 -1.866 0.16
7.672 12.398 -1.866 0.39
7.633 12.422 -1.866 0.19
7.596 12.449 -1.866 0.36
7.561 12.48 -1.867 0.2
7.532 12.476 -1.865 0.23
7.492 12.498 -1.865 0.21
7.459 12.532 -1.866 0.22
7.422 12.559 -1.867 0.17
7.376 12.572 -1.865 0.32
7.337 12.596 -1.865 0.2
7.291 12.607 -1.864 0.19
7.257 12.641 -1.865 0.31
7.241 12.659 -1.866 0.2
