# .PCD v.7 - Point Cloud Data file format
VERSION .7
FIELDS x y z intensity
SIZE 4 4 4 4
TYPE F F F F
COUNT 1 1 1 1
WIDTH 1929
HEIGHT 1
VIEWPOINT 0 0 0 1 0 0 0
POINTS 1929
DATA ascii
2.025 -8.739 -1.299 0.4
2.056 -8.746 -1.301 0.44
2.081 -8.728 -1.299 0.34
2.098 -8.74 -1.302 0.41
2.119 -8.708 -1.298 0.38
2.145 -8.694 -1.297 0.38
2.172 -8.687 -1.297 0.36
2.198 -8.675 -1.296 0.42
2.232 -8.695 -1.3 0.39
2.265 -8.71 -1.304 0.33
2.281 -8.713 -1.305 0.38
2.304 -8.692 -1.303 0.37
2.342 -8.723 -1.309 0.38
2.363 -8.693 -1.305 0.37
2.402 -8.727 -1.312 0.38
2.426 -8.708 -1.31 0.38
2.454 -8.702 -1.31 0.4
2.476 -8.676 -1.307 0.32
2.5 -8.706 -1.313 0.46
2.526 -8.694 -1.312 0.31
2.555 -8.692 -1.313 0.43
2.585 -8.695 -1.315 0.39
2.61 -8.679 -1.314 0.38
2.653 -8.722 -1.322 0.39
2.676 -8.699 -1.32 0.43
2.686 -8.681 -1.318 0.35
2.72 -8.695 -1.321 0.41
2.773 -8.766 -1.335 0.36
2.808 -8.781 -1.339 0.42
2.831 -8.759 -1.336 0.33
2.851 -8.728 -1.333 0.38
2.889 -8.749 -1.338 0.42
2.902 -8.743 -1.337 0.38
2.939 -8.761 -1.342 0.34
2.971 -8.767 -1.345 0.41
2.988 -8.726 -1.339 0.38
3.011 -8.705 -1.337 0.35
3.035 -8.685 -1.336 0.45
3.06 -8.67 -1.335 0.32
3.064 -8.639 -1.33 0.3
3.087 -8.616 -1.328 0.35
3.115 -8.608 -1.328 0.33
3.142 -8.6 -1.329 0.36
3.171 -8.594 -1.329 0.36
3.199 -8.588 -1.33 0.38
3.225 -8.574 -1.329 0.38
3.239 -8.572 -1.33 0.38
3.268 -8.566 -1.331 0.38
3.294 -8.554 -1.33 0.37
3.322 -8.545 -1.331 0.37
3.348 -8.533 -1.33 0.38
3.374 -8.522 -1.33 0.38
3.404 -8.519 -1.331 0.38
3.432 -8.512 -1.332 0.38
3.443 -8.499 -1.331 0.38
3.472 -8.494 -1.332 0.38
3.495 -8.474 -1.33 0.39
3.525 -8.472 -1.332 0.4
3.554 -8.466 -1.333 0.4
3.577 -8.448 -1.331 0.38
3.607 -8.444 -1.333 0.4
3.627 -8.454 -1.336 0.37
3.653 -8.441 -1.335 0.33
3.689 -8.451 -1.339 0.29
3.757 -8.532 -1.355 0.38
3.78 -8.513 -1.354 0.28
3.79 -8.463 -1.347 0.49
3.785 -8.417 -1.34 0.31
3.819 -8.422 -1.343 0.48
3.836 -8.39 -1.34 0.34
3.852 -8.354 -1.336 0.39
3.86 -8.305 -1.329 0.43
3.904 -8.33 -1.336 0.31
3.946 -8.35 -1.341 0.45
3.968 -8.33 -1.34 0.41
3.992 -8.345 -1.344 0.35
3.992 -8.28 -1.334 0.43
4.019 -8.269 -1.335 0.39
4.05 -8.267 -1.336 0.39
4.091 -8.284 -1.342 0.4
4.124 -8.285 -1.344 0.33
4.152 -8.276 -1.345 0.5
4.178 -8.296 -1.35 0.41
4.205 -8.284 -1.35 0.38
4.238 -8.283 -1.352 0.36
4.25 -8.244 -1.347 0.37
4.263 -8.206 -1.343 0.34
4.287 -8.189 -1.342 0.34
4.313 -8.175 -1.342 0.34
4.323 -8.163 -1.341 0.31
4.347 -8.148 -1.341 0.34
4.381 -8.148 -1.344 0.34
4.408 -8.138 -1.344 0.34
4.441 -8.138 -1.347 0.34
4.472 -8.134 -1.349 0.34
4.509 -8.139 -1.352 0.34
4.527 -8.142 -1.354 0.36
4.557 -8.135 -1.355 0.36
4.59 -8.134 -1.358 0.35
4.628 -8.142 -1.362 0.36
4.663 -8.143 -1.365 0.33
4.697 -8.144 -1.368 0.34
4.727 -8.136 -1.369 0.38
4.752 -8.15 -1.373 0.37
4.782 -8.142 -1.374 0.32
4.82 -8.148 -1.378 0.38
4.855 -8.149 -1.381 0.31
4.887 -8.144 -1.383 0.33
4.923 -8.146 -1.386 0.34
4.957 -8.144 -1.389 0.32
4.986 -8.163 -1.394 0.33
5.016 -8.154 -1.395 0.32
5.05 -8.151 -1.397 0.33
5.086 -8.152 -1.4 0.32
5.128 -8.163 -1.406 0.35
5.157 -8.152 -1.406 0.35
5.199 -8.16 -1.411 0.34
5.228 -8.177 -1.416 0.37
5.256 -8.166 -1.417 0.32
5.292 -8.164 -1.42 0.33
5.33 -8.167 -1.423 0.33
5.367 -8.167 -1.427 0.37
5.402 -8.165 -1.429 0.31
5.437 -8.161 -1.432 0.33
5.46 -8.167 -1.435 0.32
5.474 -8.134 -1.432 0.33
5.53 -8.16 -1.44 0.38
5.556 -8.145 -1.44 0.31
5.59 -8.138 -1.443 0.25
5.607 -8.109 -1.44 0.3
5.658 -8.127 -1.447 0.34
5.706 -8.142 -1.454 0.37
5.715 -8.128 -1.453 0.33
5.733 -8.099 -1.45 0.28
5.735 -8.049 -1.444 0.33
5.773 -8.048 -1.448 0.31
5.808 -8.043 -1.45 0.31
5.838 -8.031 -1.451 0.34
5.874 -8.027 -1.454 0.27
5.907 -8.046 -1.46 0.41
5.932 -8.028 -1.46 0.31
5.97 -8.025 -1.463 0.0
5.961 -7.962 -1.454 0.0
5.695 -7.559 -1.378 0.0
5.608 -7.395 -1.348 0.0
5.622 -7.366 -1.346 0.03
5.644 -7.37 -1.349 0.07
5.675 -7.363 -1.351 0.19
5.714 -7.366 -1.355 0.23
5.753 -7.368 -1.359 0.27
5.792 -7.37 -1.363 0.29
5.825 -7.364 -1.366 0.29
5.853 -7.352 -1.367 0.31
5.886 -7.369 -1.372 0.29
5.94 -7.389 -1.38 0.26
5.984 -7.396 -1.385 0.27
6.021 -7.394 -1.389 0.29
6.062 -7.396 -1.393 0.28
6.108 -7.405 -1.399 0.27
6.137 -7.393 -1.4 0.27
6.168 -7.406 -1.405 0.28
6.196 -7.393 -1.406 0.29
6.25 -7.409 -1.414 0.27
6.29 -7.409 -1.418 0.28
6.333 -7.412 -1.423 0.28
6.37 -7.408 -1.426 0.28
6.412 -7.409 -1.431 0.28
6.436 -7.414 -1.434 0.27
6.473 -7.409 -1.437 0.2
6.515 -7.41 -1.442 0.31
6.532 -7.382 -1.44 0.25
6.566 -7.374 -1.443 0.2
6.582 -7.346 -1.441 0.27
6.612 -7.332 -1.443 0.23
6.647 -7.348 -1.448 0.21
6.717 -7.378 -1.459 0.25
6.747 -7.364 -1.461 0.23
6.793 -7.368 -1.466 0.21
6.869 -7.403 -1.478 0.29
6.924 -7.416 -1.486 0.3
6.964 -7.411 -1.49 0.34
6.995 -7.398 -1.491 0.28
7.037 -7.418 -1.498 0.35
7.07 -7.406 -1.501 0.35
7.074 -7.364 -1.496 0.34
7.094 -7.339 -1.496 0.24
7.138 -7.338 -1.5 0.24
7.184 -7.339 -1.506 0.42
7.199 -7.331 -1.506 0.26
7.188 -7.274 -1.499 0.28
7.21 -7.25 -1.498 0.24
7.2 -7.196 -1.491 0.23
7.22 -7.17 -1.491 0.24
7.223 -7.128 -1.486 0.21
7.248 -7.108 -1.487 0.28
7.25 -7.089 -1.485 0.24
7.291 -7.084 -1.489 0.23
7.305 -7.052 -1.487 0.18
7.344 -7.046 -1.491 0.29
7.359 -7.016 -1.489 0.25
7.413 -7.023 -1.496 0.23
7.455 -7.018 -1.501 0.33
7.444 -6.964 -1.493 0.21
7.469 -6.965 -1.496 0.39
7.505 -6.955 -1.5 0.3
7.497 -6.904 -1.493 0.24
7.492 -6.856 -1.487 0.4
7.503 -6.823 -1.485 0.31
7.57 -6.841 -1.495 0.24
7.608 -6.831 -1.498 0.26
7.598 -6.801 -1.494 0.31
7.646 -6.801 -1.5 0.31
7.649 -6.761 -1.496 0.32
7.675 -6.741 -1.497 0.34
7.704 -6.723 -1.498 0.28
7.747 -6.718 -1.503 0.26
7.765 -6.691 -1.502 0.49
7.723 -6.634 -1.491 0.21
7.744 -6.61 -1.491 0.39
7.748 -6.572 -1.488 0.0
7.79 -6.565 -1.492 0.0
7.067 -5.921 -1.339 0.02
7.084 -5.897 -1.338 0.08
7.11 -5.881 -1.34 0.19
7.145 -5.892 -1.345 0.18
7.2 -5.899 -1.353 0.26
7.24 -5.894 -1.357 0.24
7.279 -5.887 -1.361 0.2
7.35 -5.906 -1.372 0.26
7.398 -5.906 -1.378 0.23
7.455 -5.914 -1.386 0.18
7.505 -5.934 -1.394 0.27
7.55 -5.931 -1.399 0.24
7.596 -5.929 -1.405 0.25
7.649 -5.931 -1.412 0.19
7.696 -5.929 -1.417 0.28
7.754 -5.935 -1.425 0.25
7.79 -5.923 -1.429 0.19
7.839 -5.941 -1.437 0.27
7.878 -5.932 -1.441 0.23
7.935 -5.935 -1.448 0.21
7.972 -5.924 -1.452 0.25
7.981 -5.892 -1.45 0.19
7.985 -5.857 -1.447 0.23
8.002 -5.83 -1.447 0.22
8.081 -5.849 -1.459 0.2
8.134 -5.867 -1.467 0.24
8.213 -5.885 -1.479 0.23
8.248 -5.871 -1.482 0.21
8.273 -5.85 -1.484 0.25
8.264 -5.804 -1.478 0.15
8.327 -5.81 -1.487 0.27
8.368 -5.799 -1.491 0.25
8.359 -5.774 -1.488 0.11
8.347 -5.726 -1.482 0.18
8.369 -5.704 -1.483 0.29
8.412 -5.694 -1.488 0.25
8.397 -5.645 -1.481 0.14
8.41 -5.616 -1.48 0.31
8.404 -5.574 -1.476 0.23
8.448 -5.584 -1.483 0.21
8.458 -5.553 -1.481 0.29
8.443 -5.505 -1.475 0.34
8.435 -5.462 -1.47 0.27
8.535 -5.489 -1.486 0.23
8.538 -5.452 -1.483 0.31
8.55 -5.422 -1.482 0.26
8.58 -5.422 -1.486 0.26
8.563 -5.375 -1.48 0.3
8.575 -5.345 -1.479 0.3
8.659 -5.359 -1.492 0.29
8.652 -5.317 -1.487 0.26
8.678 -5.295 -1.489 0.23
8.747 -5.3 -1.499 0.34
8.745 -5.28 -1.497 0.2
8.732 -5.235 -1.491 0.38
8.747 -5.207 -1.491 0.33
8.797 -5.199 -1.497 0.37
8.822 -5.176 -1.499 0.29
8.808 -5.131 -1.493 0.38
8.88 -5.136 -1.504 0.31
8.882 -5.118 -1.502 0.25
8.92 -5.102 -1.507 0.34
8.965 -5.091 -1.512 0.29
8.941 -5.041 -1.505 0.31
8.959 -5.013 -1.505 0.42
9.009 -5.004 -1.511 0.29
8.973 -4.948 -1.502 0.27
8.976 -4.931 -1.501 0.26
9.0 -4.907 -1.502 0.34
8.853 -4.792 -1.473 0.0
9.06 -4.866 -1.508 0.0
8.351 -4.42 -1.375 0.0
8.401 -4.413 -1.382 0.04
8.438 -4.416 -1.387 0.14
8.499 -4.413 -1.395 0.21
8.598 -4.43 -1.411 0.23
8.692 -4.444 -1.425 0.2
8.752 -4.44 -1.433 0.27
8.816 -4.437 -1.442 0.24
8.886 -4.437 -1.452 0.2
8.96 -4.457 -1.464 0.25
9.017 -4.449 -1.471 0.2
9.079 -4.444 -1.48 0.25
9.135 -4.436 -1.487 0.2
9.174 -4.42 -1.492 0.21
9.21 -4.401 -1.496 0.16
9.268 -4.393 -1.503 0.23
9.252 -4.368 -1.499 0.23
9.262 -4.337 -1.499 0.21
9.295 -4.317 -1.502 0.24
9.301 -4.284 -1.501 0.22
9.353 -4.272 -1.507 0.2
9.46 -4.285 -1.524 0.25
9.505 -4.27 -1.529 0.25
9.533 -4.246 -1.532 0.25
9.565 -4.242 -1.536 0.3
9.593 -4.219 -1.539 0.22
9.639 -4.203 -1.544 0.2
9.688 -4.188 -1.551 0.32
9.661 -4.14 -1.544 0.25
9.667 -4.107 -1.543 0.23
9.66 -4.068 -1.539 0.26
9.626 -4.036 -1.532 0.23
9.73 -4.044 -1.548 0.32
9.708 -3.999 -1.542 0.25
9.713 -3.965 -1.541 0.17
9.792 -3.961 -1.552 0.33
9.811 -3.934 -1.553 0.21
9.741 -3.87 -1.539 0.35
9.854 -3.897 -1.557 0.39
9.884 -3.873 -1.561 0.32
9.909 -3.847 -1.563 0.28
9.881 -3.8 -1.556 0.37
9.882 -3.765 -1.554 0.38
9.936 -3.75 -1.561 0.32
9.898 -3.7 -1.553 0.25
9.892 -3.68 -1.551 0.3
9.92 -3.655 -1.554 0.34
9.939 -3.627 -1.555 0.39
9.94 -3.592 -1.553 0.3
9.943 -3.558 -1.552 0.29
9.928 -3.517 -1.547 0.24
9.945 -3.488 -1.548 0.42
9.963 -3.477 -1.55 0.34
9.956 -3.439 -1.547 0.23
9.948 -3.402 -1.544 0.3
9.958 -3.37 -1.544 0.36
9.982 -3.343 -1.546 0.27
9.953 -3.299 -1.54 0.0
9.811 -3.218 -1.514 0.0
9.019 -2.945 -1.381 0.06
9.078 -2.932 -1.389 0.21
9.171 -2.931 -1.404 0.26
9.314 -2.944 -1.426 0.27
9.454 -2.955 -1.448 0.27
9.561 -2.955 -1.464 0.26
9.659 -2.952 -1.479 0.26
9.751 -2.963 -1.493 0.2
9.815 -2.949 -1.502 0.27
9.847 -2.925 -1.506 0.23
9.938 -2.917 -1.519 0.25
10.013 -2.905 -1.53 0.29
10.007 -2.869 -1.528 0.31
10.033 -2.843 -1.531 0.29
10.023 -2.823 -1.528 0.3
10.001 -2.783 -1.523 0.32
10.027 -2.756 -1.526 0.27
10.035 -2.725 -1.526 0.26
10.046 -2.694 -1.526 0.26
10.056 -2.662 -1.527 0.19
10.076 -2.634 -1.528 0.27
10.076 -2.6 -1.527 0.25
10.094 -2.588 -1.529 0.24
10.104 -2.557 -1.53 0.25
10.156 -2.536 -1.537 0.27
10.158 -2.502 -1.536 0.39
10.151 -2.467 -1.534 0.21
10.043 -2.407 -1.515 0.29
10.041 -2.374 -1.513 0.37
10.023 -2.353 -1.51 0.41
10.071 -2.331 -1.516 0.35
10.04 -2.29 -1.51 0.36
10.028 -2.255 -1.507 0.35
10.079 -2.233 -1.514 0.41
10.019 -2.187 -1.503 0.26
10.053 -2.161 -1.507 0.35
10.019 -2.137 -1.502 0.35
9.991 -2.099 -1.496 0.32
10.009 -2.069 -1.498 0.3
9.958 -2.026 -1.488 0.46
9.857 -1.974 -1.471 0.31
9.821 -1.935 -1.464 0.27
9.819 -1.902 -1.463 0.27
9.836 -1.89 -1.465 0.27
9.847 -1.86 -1.466 0.28
9.898 -1.837 -1.473 0.29
10.028 -1.828 -1.493 0.3
10.17 -1.821 -1.515 0.29
10.337 -1.817 -1.541 0.26
10.491 -1.809 -1.565 0.23
10.591 -1.809 -1.581 0.2
10.559 -1.77 -1.575 0.33
10.557 -1.736 -1.574 0.41
10.561 -1.702 -1.573 0.37
10.576 -1.67 -1.575 0.36
10.557 -1.634 -1.571 0.34
10.576 -1.602 -1.573 0.47
10.598 -1.589 -1.577 0.39
10.625 -1.558 -1.58 0.26
10.62 -1.524 -1.578 0.27
10.624 -1.49 -1.578 0.27
10.637 -1.458 -1.58 0.25
10.616 -1.421 -1.576 0.29
10.622 -1.388 -1.576 0.27
10.613 -1.37 -1.574 0.27
10.621 -1.337 -1.575 0.24
10.613 -1.302 -1.573 0.21
10.617 -1.269 -1.573 0.27
10.615 -1.235 -1.572 0.25
10.627 -1.202 -1.573 0.18
10.641 -1.17 -1.575 0.26
10.635 -1.153 -1.573 0.22
10.632 -1.119 -1.572 0.17
10.661 -1.088 -1.577 0.26
10.661 -1.054 -1.576 0.19
10.676 -1.021 -1.578 0.25
10.679 -0.988 -1.578 0.2
10.692 -0.955 -1.579 0.12
10.699 -0.939 -1.58 0.18
10.704 -0.905 -1.581 0.12
10.695 -0.871 -1.579 0.18
10.7 -0.837 -1.579 0.22
10.706 -0.804 -1.58 0.2
10.707 -0.77 -1.579 0.23
10.729 -0.738 -1.582 0.19
10.714 -0.72 -1.58 0.23
10.716 -0.686 -1.58 0.19
10.709 -0.652 -1.578 0.12
10.703 -0.618 -1.577 0.2
10.701 -0.584 -1.577 0.17
10.704 -0.551 -1.577 0.27
10.698 -0.517 -1.576 0.23
10.702 -0.483 -1.576 0.18
10.703 -0.466 -1.576 0.27
10.696 -0.432 -1.575 0.24
10.686 -0.398 -1.573 0.25
10.693 -0.365 -1.574 0.26
10.692 -0.331 -1.573 0.26
10.689 -0.298 -1.573 0.27
10.696 -0.264 -1.574 0.25
10.686 -0.247 -1.572 0.19
10.691 -0.214 -1.573 0.27
10.684 -0.18 -1.571 0.24
10.684 -0.146 -1.571 0.26
10.688 -0.113 -1.572 0.27
10.677 -0.079 -1.57 0.26
10.687 -0.046 -1.572 0.26
10.693 -0.029 -1.573 0.27
10.116 0.024 -1.581 0.23
10.103 0.055 -1.579 0.16
10.13 0.071 -1.583 0.29
10.118 0.103 -1.581 0.25
10.102 0.135 -1.579 0.19
10.139 0.167 -1.585 0.28
10.126 0.199 -1.583 0.23
10.108 0.23 -1.58 0.16
10.145 0.263 -1.586 0.26
10.132 0.294 -1.584 0.19
10.145 0.311 -1.587 0.24
10.152 0.343 -1.588 0.2
10.161 0.375 -1.589 0.12
10.146 0.406 -1.587 0.2
10.164 0.439 -1.59 0.11
10.155 0.471 -1.589 0.18
10.189 0.504 -1.595 0.11
10.164 0.519 -1.591 0.18
10.19 0.552 -1.596 0.11
10.177 0.584 -1.594 0.18
10.189 0.617 -1.596 0.11
10.171 0.648 -1.593 0.18
10.181 0.68 -1.595 0.11
10.176 0.712 -1.595 0.18
10.193 0.729 -1.598 0.11
10.169 0.76 -1.594 0.19
10.184 0.793 -1.597 0.11
10.174 0.824 -1.596 0.18
10.173 0.857 -1.596 0.22
10.155 0.887 -1.594 0.19
10.154 0.919 -1.594 0.23
10.156 0.936 -1.595 0.19
10.145 0.967 -1.593 0.12
10.119 0.996 -1.589 0.2
10.131 1.03 -1.592 0.17
10.13 1.062 -1.592 0.26
10.099 1.091 -1.588 0.24
10.09 1.122 -1.587 0.18
10.106 1.14 -1.59 0.26
10.081 1.169 -1.586 0.22
10.067 1.199 -1.585 0.17
10.083 1.233 -1.588 0.28
10.065 1.263 -1.586 0.24
10.044 1.293 -1.583 0.16
10.075 1.329 -1.589 0.29
10.061 1.343 -1.587 0.23
10.056 1.375 -1.587 0.26
10.058 1.407 -1.588 0.18
10.077 1.442 -1.591 0.26
10.055 1.471 -1.589 0.24
10.054 1.503 -1.589 0.27
10.04 1.533 -1.588 0.21
10.057 1.552 -1.591 0.28
10.046 1.583 -1.59 0.25
10.027 1.612 -1.588 0.16
10.047 1.648 -1.592 0.29
10.03 1.677 -1.59 0.25
10.037 1.711 -1.592 0.26
10.014 1.739 -1.589 0.2
10.04 1.76 -1.594 0.28
10.015 1.788 -1.59 0.23
9.996 1.817 -1.588 0.16
10.025 1.855 -1.594 0.28
10.017 1.886 -1.594 0.25
10.008 1.917 -1.593 0.26
9.984 1.945 -1.59 0.16
10.001 1.981 -1.594 0.29
9.99 1.995 -1.593 0.23
9.99 2.028 -1.594 0.25
9.993 2.061 -1.595 0.26
9.975 2.09 -1.593 0.25
9.972 2.122 -1.594 0.27
9.962 2.153 -1.593 0.26
9.951 2.183 -1.593 0.27
9.953 2.2 -1.594 0.27
9.944 2.231 -1.593 0.28
9.931 2.261 -1.592 0.28
9.932 2.294 -1.594 0.27
9.927 2.325 -1.594 0.27
9.908 2.354 -1.592 0.27
9.908 2.387 -1.593 0.27
9.912 2.404 -1.595 0.26
9.889 2.431 -1.592 0.31
9.881 2.462 -1.592 0.26
9.875 2.494 -1.592 0.29
9.868 2.525 -1.592 0.26
9.867 2.558 -1.594 0.29
9.846 2.585 -1.591 0.29
9.865 2.607 -1.595 0.27
9.845 2.635 -1.593 0.3
9.835 2.665 -1.593 0.29
9.834 2.698 -1.594 0.27
9.827 2.73 -1.595 0.27
9.821 2.761 -1.595 0.28
9.823 2.795 -1.597 0.25
9.815 2.809 -1.596 0.28
9.8 2.839 -1.595 0.19
9.805 2.873 -1.598 0.3
9.792 2.903 -1.597 0.25
9.785 2.934 -1.597 0.25
9.779 2.966 -1.598 0.29
9.766 2.996 -1.597 0.28
9.767 3.013 -1.598 0.26
9.765 3.046 -1.6 0.24
9.733 3.069 -1.596 0.18
9.751 3.109 -1.601 0.3
9.743 3.14 -1.601 0.23
9.737 3.172 -1.602 0.24
9.705 3.195 -1.598 0.18
9.728 3.237 -1.604 0.29
9.721 3.251 -1.603 0.25
9.7 3.278 -1.601 0.28
9.704 3.314 -1.604 0.25
9.698 3.345 -1.605 0.26
9.676 3.372 -1.603 0.24
9.649 3.396 -1.6 0.17
9.671 3.439 -1.606 0.29
9.662 3.452 -1.605 0.24
9.649 3.482 -1.605 0.26
9.625 3.508 -1.602 0.16
9.635 3.545 -1.606 0.29
9.625 3.576 -1.606 0.25
9.61 3.605 -1.606 0.25
9.599 3.635 -1.606 0.27
9.599 3.652 -1.607 0.26
9.565 3.674 -1.603 0.17
9.57 3.711 -1.606 0.3
9.557 3.74 -1.605 0.25
9.528 3.763 -1.602 0.27
9.526 3.797 -1.604 0.27
9.522 3.813 -1.604 0.27
9.51 3.843 -1.604 0.29
9.497 3.872 -1.604 0.26
9.487 3.903 -1.605 0.28
9.469 3.93 -1.604 0.27
9.457 3.96 -1.604 0.27
9.444 3.99 -1.604 0.28
9.441 4.023 -1.605 0.25
9.422 4.033 -1.603 0.19
9.424 4.069 -1.606 0.3
9.413 4.099 -1.606 0.25
9.396 4.127 -1.605 0.27
9.392 4.16 -1.607 0.25
9.363 4.183 -1.604 0.18
9.384 4.227 -1.61 0.29
9.372 4.24 -1.609 0.25
9.353 4.267 -1.608 0.17
9.361 4.306 -1.612 0.29
9.347 4.335 -1.612 0.25
9.328 4.362 -1.611 0.17
9.336 4.401 -1.615 0.26
9.315 4.427 -1.614 0.18
9.338 4.456 -1.62 0.25
9.314 4.481 -1.618 0.19
9.326 4.523 -1.623 0.23
9.315 4.554 -1.623 0.21
9.308 4.586 -1.625 0.12
9.297 4.617 -1.625 0.19
9.297 4.654 -1.628 0.11
9.295 4.671 -1.629 0.17
9.296 4.708 -1.632 0.21
9.29 4.742 -1.634 0.1
9.275 4.771 -1.634 0.18
9.278 4.809 -1.637 0.05
9.266 4.84 -1.638 0.16
9.263 4.875 -1.64 0.05
9.257 4.891 -1.64 0.17
9.25 4.924 -1.642 0.05
9.236 4.954 -1.642 0.16
9.243 4.996 -1.647 0.19
9.242 5.032 -1.649 0.09
9.241 5.07 -1.652 0.09
9.213 5.092 -1.65 0.18
9.207 5.107 -1.65 0.05
9.206 5.145 -1.653 0.18
9.197 5.178 -1.655 0.2
9.189 5.211 -1.656 0.1
9.173 5.24 -1.656 0.18
9.18 5.283 -1.661 0.11
9.176 5.318 -1.663 0.18
9.161 5.348 -1.664 0.12
9.157 5.366 -1.665 0.18
9.157 5.404 -1.668 0.23
9.144 5.435 -1.669 0.18
9.142 5.473 -1.672 0.23
9.12 5.498 -1.671 0.19
9.126 5.541 -1.675 0.25
9.103 5.567 -1.674 0.18
9.11 5.59 -1.677 0.23
9.106 5.627 -1.68 0.18
9.101 5.664 -1.683 0.23
9.094 5.699 -1.685 0.19
9.082 5.732 -1.686 0.12
9.081 5.771 -1.689 0.18
9.071 5.805 -1.691 0.23
9.072 5.825 -1.693 0.19
9.067 5.862 -1.696 0.12
9.045 5.889 -1.695 0.21
9.046 5.93 -1.699 0.11
9.042 5.968 -1.702 0.19
9.042 6.008 -1.706 0.11
9.016 6.032 -1.704 0.19
9.033 6.064 -1.71 0.1
9.011 6.09 -1.709 0.18
9.001 6.125 -1.711 0.05
8.992 6.16 -1.713 0.17
8.984 6.196 -1.715 0.05
8.985 6.239 -1.72 0.17
8.98 6.277 -1.723 0.19
8.983 6.3 -1.725 0.17
8.97 6.333 -1.727 0.16
8.96 6.368 -1.729 0.16
8.943 6.398 -1.729 0.16
8.934 6.434 -1.732 0.16
8.93 6.474 -1.735 0.17
8.917 6.508 -1.737 0.18
8.913 6.526 -1.738 0.17
8.899 6.559 -1.739 0.18
8.891 6.596 -1.742 0.18
8.869 6.623 -1.742 0.04
8.856 6.657 -1.743 0.16
8.844 6.692 -1.745 0.05
8.831 6.725 -1.747 0.16
8.843 6.756 -1.751 0.2
8.826 6.787 -1.752 0.09
8.819 6.826 -1.755 0.16
8.802 6.857 -1.756 0.05
8.79 6.892 -1.758 0.17
8.779 6.928 -1.761 0.11
8.76 6.958 -1.761 0.18
8.766 7.008 -1.767 0.11
8.758 7.024 -1.768 0.18
8.748 7.061 -1.771 0.23
8.749 7.107 -1.776 0.19
8.718 7.127 -1.774 0.23
8.701 7.16 -1.775 0.18
8.701 7.206 -1.78 0.25
8.677 7.232 -1.78 0.18
8.677 7.254 -1.782 0.24
8.669 7.294 -1.785 0.2
8.655 7.329 -1.787 0.12
8.629 7.354 -1.787 0.2
8.625 7.397 -1.791 0.17
8.615 7.436 -1.794 0.26
8.604 7.473 -1.797 0.21
8.611 7.504 -1.801 0.12
8.588 7.531 -1.801 0.21
8.567 7.56 -1.802 0.2
8.57 7.611 -1.808 0.25
8.536 7.628 -1.805 0.23
8.529 7.671 -1.809 0.18
8.53 7.72 -1.815 0.27
8.509 7.726 -1.813 0.22
8.502 7.768 -1.817 0.17
8.49 7.806 -1.82 0.26
8.456 7.824 -1.818 0.22
8.449 7.867 -1.822 0.18
8.44 7.908 -1.825 0.26
8.422 7.941 -1.827 0.24
8.41 7.954 -1.827 0.18
8.404 7.999 -1.831 0.26
8.377 8.024 -1.831 0.23
8.359 8.057 -1.833 0.18
8.346 8.095 -1.836 0.27
8.322 8.123 -1.836 0.24
8.306 8.158 -1.838 0.19
8.313 8.191 -1.843 0.27
8.29 8.22 -1.844 0.23
8.279 8.26 -1.847 0.18
8.264 8.297 -1.85 0.27
8.24 8.325 -1.85 0.24
8.222 8.36 -1.852 0.25
8.211 8.401 -1.856 0.23
8.189 8.404 -1.854 0.22
8.19 8.458 -1.86 0.27
8.166 8.486 -1.861 0.22
8.144 8.518 -1.862 0.18
8.144 8.57 -1.869 0.26
8.11 8.589 -1.867 0.23
8.088 8.62 -1.868 0.18
8.088 8.674 -1.875 0.26
8.078 8.691 -1.876 0.23
8.056 8.722 -1.877 0.18
8.058 8.779 -1.885 0.28
8.029 8.803 -1.884 0.22
8.012 8.84 -1.887 0.17
8.002 8.884 -1.891 0.26
7.972 8.908 -1.891 0.19
7.982 8.947 -1.897 0.25
7.955 8.973 -1.897 0.2
7.945 9.019 -1.902 0.13
7.918 9.045 -1.902 0.21
7.899 9.081 -1.904 0.15
7.896 9.135 -1.911 0.29
7.86 9.151 -1.909 0.25
7.856 9.175 -1.912 0.19
7.852 9.23 -1.918 0.27
7.827 9.259 -1.919 0.23
7.808 9.296 -1.922 0.18
7.79 9.334 -1.925 0.27
7.761 9.358 -1.925 0.25
7.756 9.411 -1.931 0.25
7.717 9.425 -1.929 0.23
7.721 9.46 -1.934 0.28
7.7 9.495 -1.936 0.19
7.689 9.542 -1.941 0.13
7.663 9.571 -1.942 0.21
7.641 9.606 -1.945 0.15
7.635 9.66 -1.951 0.28
7.612 9.694 -1.953 0.25
7.625 9.741 -1.961 0.16
7.619 9.796 -1.968 0.29
7.602 9.839 -1.972 0.23
7.604 9.905 -1.981 0.23
7.6 9.965 -1.988 0.22
7.57 9.99 -1.989 0.31
7.558 10.007 -1.99 0.34
7.518 10.019 -1.987 0.29
7.486 10.041 -1.987 0.29
7.448 10.057 -1.985 0.35
7.402 10.061 -1.981 0.34
7.36 10.07 -1.978 0.39
7.301 10.055 -1.97 0.3
7.248 10.049 -1.964 0.39
7.228 10.054 -1.963 0.43
7.182 10.057 -1.959 0.32
7.162 10.096 -1.962 0.28
7.116 10.098 -1.958 0.46
7.083 10.118 -1.958 0.33
7.045 10.132 -1.956 0.32
7.009 10.148 -1.955 0.25
6.983 10.144 -1.952 0.25
6.932 10.139 -1.946 0.22
6.892 10.149 -1.944 0.39
6.848 10.153 -1.94 0.33
6.803 10.154 -1.936 0.27
6.756 10.153 -1.931 0.26
6.727 10.179 -1.932 0.23
6.693 10.161 -1.927 0.28
6.661 10.182 -1.927 0.28
6.629 10.203 -1.927 0.25
6.624 10.265 -1.935 0.26
6.591 10.286 -1.935 0.23
6.56 10.309 -1.935 0.26
6.52 10.317 -1.933 0.28
6.482 10.33 -1.931 0.27
6.457 10.325 -1.928 0.23
6.441 10.372 -1.934 0.26
6.401 10.38 -1.931 0.21
6.378 10.415 -1.934 0.18
6.346 10.437 -1.935 0.26
6.309 10.45 -1.933 0.19
6.281 10.478 -1.935 0.25
6.258 10.476 -1.933 0.19
6.231 10.506 -1.935 0.25
6.191 10.514 -1.932 0.23
6.156 10.53 -1.932 0.2
6.138 10.575 -1.937 0.26
6.1 10.587 -1.935 0.19
6.07 10.611 -1.936 0.25
6.051 10.617 -1.936 0.18
6.027 10.652 -1.939 0.25
5.995 10.674 -1.939 0.19
5.958 10.686 -1.938 0.0
4.712 8.526 -1.518 0.03
4.665 8.503 -1.51 0.03
4.621 8.486 -1.504 0.07
4.592 8.497 -1.504 0.15
4.554 8.458 -1.495 0.0
4.519 8.456 -1.492 0.0
4.48 8.448 -1.487 0.0
4.445 8.446 -1.484 0.0
4.409 8.443 -1.481 0.06
4.384 8.458 -1.481 0.11
4.376 8.509 -1.488 0.29
4.378 8.545 -1.494 0.33
4.361 8.579 -1.498 0.12
4.26 8.446 -1.47 0.04
4.212 8.417 -1.462 0.03
4.188 8.434 -1.463 0.08
4.148 8.421 -1.458 0.15
4.12 8.43 -1.457 0.31
4.095 8.414 -1.453 0.23
4.066 8.421 -1.452 0.41
4.035 8.425 -1.45 0.15
3.997 8.413 -1.445 0.26
3.967 8.418 -1.444 0.45
3.933 8.414 -1.441 0.29
3.907 8.428 -1.441 0.29
3.88 8.404 -1.436 0.04
3.846 8.4 -1.433 0.03
3.823 8.419 -1.434 0.13
3.798 8.435 -1.435 0.17
3.773 8.45 -1.435 0.16
3.762 8.497 -1.442 0.16
3.769 8.584 -1.456 0.17
3.716 8.536 -1.445 0.15
3.632 8.381 -1.415 0.0
3.606 8.393 -1.415 0.14
3.569 8.38 -1.411 0.05
3.54 8.384 -1.41 0.04
3.507 8.381 -1.407 0.04
3.48 8.39 -1.407 0.04
3.448 8.386 -1.404 0.04
3.426 8.372 -1.4 0.04
3.396 8.371 -1.398 0.04
3.366 8.375 -1.397 0.03
3.336 8.376 -1.395 0.04
3.305 8.374 -1.393 0.04
3.277 8.38 -1.392 0.07
3.25 8.389 -1.392 0.04
3.228 8.372 -1.388 0.07
3.2 8.376 -1.387 0.04
3.17 8.377 -1.385 0.07
3.133 8.359 -1.38 0.04
3.113 8.386 -1.383 0.07
3.079 8.375 -1.38 0.04
3.048 8.372 -1.377 0.07
3.034 8.375 -1.377 0.04
3.004 8.373 -1.375 0.07
2.97 8.362 -1.371 0.04
2.942 8.366 -1.37 0.07
2.909 8.357 -1.367 0.04
2.884 8.369 -1.368 0.08
2.853 8.365 -1.365 0.04
2.826 8.372 -1.365 0.08
2.809 8.364 -1.363 0.08
2.78 8.365 -1.361 0.08
2.748 8.357 -1.358 0.08
2.72 8.36 -1.357 0.08
2.69 8.357 -1.355 0.09
2.663 8.364 -1.355 0.09
2.63 8.349 -1.351 0.08
2.617 8.355 -1.351 0.08
2.586 8.347 -1.348 0.08
2.555 8.34 -1.346 0.04
2.526 8.338 -1.344 0.0
2.496 8.335 -1.342 0.0
2.468 8.335 -1.341 0.07
2.441 8.343 -1.341 0.14
2.411 8.335 -1.338 0.16
2.395 8.33 -1.336 0.04
2.365 8.326 -1.334 0.15
2.339 8.333 -1.334 0.19
2.31 8.331 -1.333 0.1
2.282 8.33 -1.331 0.16
2.254 8.332 -1.33 0.22
2.224 8.324 -1.328 0.18
2.212 8.331 -1.328 0.23
2.183 8.328 -1.327 0.19
2.154 8.322 -1.324 0.05
2.126 8.321 -1.323 0.17
2.098 8.324 -1.322 0.05
2.071 8.326 -1.322 0.16
2.047 8.339 -1.323 0.2
2.03 8.328 -1.32 0.16
2.005 8.341 -1.321 0.24
1.975 8.328 -1.318 0.18
1.949 8.338 -1.319 0.25
1.919 8.326 -1.316 0.19
1.894 8.338 -1.317 0.25
1.864 8.327 -1.314 0.22
1.835 8.319 -1.311 0.18
1.825 8.337 -1.314 0.27
1.794 8.32 -1.31 0.25
1.766 8.318 -1.309 0.16
1.742 8.333 -1.31 0.29
1.713 8.327 -1.308 0.25
1.686 8.324 -1.307 0.26
1.659 8.326 -1.306 0.2
1.646 8.332 -1.307 0.28
1.617 8.32 -1.304 0.24
1.591 8.329 -1.305 0.27
1.563 8.322 -1.303 0.27
1.538 8.331 -1.303 0.29
1.51 8.328 -1.302 0.29
1.483 8.327 -1.301 0.29
1.469 8.323 -1.3 0.28
1.441 8.322 -1.299 0.27
1.417 8.336 -1.301 0.28
1.389 8.331 -1.299 0.11
1.393 8.516 -1.33 0.19
1.376 8.577 -1.34 0.21
1.353 8.611 -1.345 0.25
1.341 8.62 -1.346 0.22
1.304 8.56 -1.335 0.11
1.271 8.523 -1.328 0.2
1.243 8.522 -1.327 0.27
1.215 8.518 -1.326 0.3
1.193 8.557 -1.332 0.24
1.173 8.609 -1.34 0.21
1.135 8.533 -1.326 0.18
1.093 8.319 -1.29 0.21
1.067 8.323 -1.29 0.34
1.04 8.318 -1.288 0.48
1.015 8.331 -1.29 0.26
0.988 8.332 -1.29 0.26
0.962 8.334 -1.289 0.3
0.937 8.342 -1.29 0.33
0.923 8.336 -1.289 0.27
0.898 8.355 -1.292 0.38
0.872 8.363 -1.293 0.31
0.846 8.368 -1.293 0.32
0.82 8.365 -1.292 0.32
0.794 8.375 -1.293 0.25
0.766 8.36 -1.29 0.13
0.757 8.406 -1.298 0.22
0.738 8.489 -1.312 0.42
0.713 8.513 -1.315 0.61
0.686 8.509 -1.314 0.64
0.659 8.507 -1.314 0.64
0.632 8.507 -1.313 0.6
0.604 8.494 -1.311 0.72
0.569 8.379 -1.291 0.36
0.555 8.77 -1.357 0.18
0.528 8.769 -1.356 0.66
0.5 8.765 -1.355 0.3
0.478 8.869 -1.373 0.04
0.473 9.288 -1.443 0.0
0.435 9.13 -1.416 0.0
0.549 12.548 -1.993 0.11
0.509 12.546 -1.992 0.21
0.469 12.531 -1.99 0.14
0.43 12.547 -1.992 0.28
0.391 12.564 -1.995 0.19
0.352 12.571 -1.996 0.25
0.332 12.563 -1.994 0.19
0.293 12.58 -1.997 0.25
0.253 12.567 -1.995 0.19
0.214 12.59 -1.998 0.25
0.175 12.594 -1.999 0.19
0.135 12.599 -2.0 0.25
0.096 12.593 -1.999 0.19
0.056 12.601 -2.0 0.25
0.036 12.599 -2.0 0.19
-0.003 12.619 -2.003 0.25
-0.043 12.603 -2.0 0.19
-0.083 12.621 -2.003 0.25
-0.122 12.613 -2.002 0.18
-0.162 12.624 -2.004 0.24
-0.202 12.618 -2.003 0.18
-0.221 12.625 -2.004 0.24
-0.261 12.634 -2.006 0.18
-0.301 12.62 -2.004 0.25
-0.34 12.622 -2.004 0.19
-0.38 12.619 -2.004 0.25
-0.419 12.604 -2.002 0.18
-0.459 12.619 -2.004 0.25
-0.479 12.614 -2.004 0.21
-0.518 12.605 -2.002 0.0
-0.412 9.137 -1.417 0.0
-0.436 9.039 -1.401 0.0
-0.46 8.949 -1.386 0.0
-0.485 8.881 -1.375 0.0
-0.505 8.745 -1.352 0.07
-0.517 8.699 -1.344 0.16
-0.54 8.64 -1.335 0.25
-0.565 8.605 -1.329 0.23
-0.59 8.568 -1.323 0.0
-0.612 8.489 -1.31 0.0
-0.634 8.426 -1.3 0.0
-0.659 8.403 -1.296 0.0
-0.686 8.412 -1.298 0.0
-0.699 8.399 -1.296 0.0
-0.722 8.366 -1.291 0.0
-0.748 8.359 -1.29 0.06
-0.773 8.341 -1.287 0.04
-0.798 8.323 -1.285 0.14
-0.825 8.328 -1.286 0.05
-0.851 8.33 -1.287 0.17
-0.864 8.326 -1.286 0.11
-0.889 8.314 -1.285 0.19
-0.917 8.323 -1.287 0.11
-0.942 8.31 -1.285 0.2
-0.969 8.317 -1.287 0.11
-0.995 8.316 -1.287 0.18
-1.022 8.318 -1.288 0.2
-1.035 8.317 -1.288 0.18
-1.063 8.325 -1.29 0.04
-1.09 8.328 -1.291 0.07
-1.117 8.334 -1.293 0.14
-1.143 8.329 -1.292 0.23
-1.168 8.315 -1.291 0.2
-1.197 8.333 -1.294 0.28
-1.223 8.329 -1.294 0.25
-1.239 8.349 -1.298 0.26
-1.265 8.339 -1.297 0.27
-1.291 8.333 -1.297 0.27
-1.318 8.339 -1.298 0.28
-1.344 8.329 -1.297 0.28
-1.372 8.34 -1.3 0.27
-1.4 8.345 -1.302 0.27
-1.412 8.339 -1.301 0.26
-1.442 8.354 -1.304 0.25
-1.47 8.357 -1.306 0.17
-1.496 8.353 -1.306 0.28
-1.521 8.34 -1.304 0.25
-1.549 8.347 -1.306 0.2
-1.576 8.348 -1.307 0.25
-1.603 8.347 -1.308 0.18
-1.621 8.371 -1.313 0.24
-1.645 8.353 -1.31 0.18
-1.672 8.353 -1.311 0.27
-1.702 8.363 -1.314 0.27
-1.726 8.348 -1.312 0.22
-1.753 8.347 -1.313 0.18
-1.785 8.366 -1.317 0.27
-1.797 8.362 -1.317 0.18
-1.828 8.375 -1.32 0.25
-1.856 8.379 -1.322 0.18
-1.881 8.367 -1.321 0.25
-1.911 8.379 -1.324 0.19
-1.938 8.373 -1.324 0.12
-1.962 8.357 -1.322 0.2
-1.98 8.375 -1.326 0.11
-2.011 8.39 -1.33 0.2
-2.037 8.382 -1.329 0.11
-2.063 8.375 -1.329 0.19
-2.093 8.382 -1.332 0.11
-2.118 8.372 -1.331 0.18
-2.147 8.376 -1.333 0.11
-2.18 8.392 -1.337 0.18
-2.192 8.387 -1.337 0.21
-2.222 8.392 -1.339 0.1
-2.254 8.408 -1.343 0.17
-2.275 8.379 -1.339 0.05
-2.304 8.382 -1.341 0.17
-2.335 8.394 -1.344 0.1
-2.361 8.384 -1.344 0.18
-2.377 8.39 -1.345 0.05
-2.409 8.401 -1.349 0.16
-2.437 8.401 -1.35 0.18
-2.464 8.394 -1.35 0.09
-2.497 8.411 -1.354 0.09
-2.526 8.41 -1.356 0.09
-2.555 8.412 -1.357 0.09
-2.573 8.423 -1.36 0.09
-2.599 8.413 -1.36 0.08
-2.63 8.42 -1.362 0.08
-2.659 8.419 -1.364 0.08
-2.682 8.401 -1.362 0.04
-2.716 8.415 -1.366 0.08
-2.748 8.423 -1.369 0.04
-2.777 8.424 -1.371 0.07
-2.789 8.416 -1.37 0.04
-2.825 8.435 -1.375 0.07
-2.849 8.421 -1.374 0.15
-2.883 8.434 -1.378 0.18
-2.942 8.431 -1.381 0.16
-2.969 8.423 -1.381 0.62
-2.955 8.342 -1.367 0.07
-3.013 8.422 -1.383 0.0
-3.043 8.424 -1.385 0.13
-3.075 8.429 -1.388 0.05
-3.105 8.429 -1.39 0.17
-3.137 8.434 -1.392 0.11
-3.169 8.439 -1.395 0.2
-3.199 8.438 -1.397 0.11
-3.211 8.431 -1.396 0.0
-3.246 8.443 -1.4 0.0
-3.27 8.425 -1.399 0.0
-3.314 8.459 -1.407 0.0
-3.342 8.452 -1.408 0.0
-3.373 8.453 -1.41 0.06
-3.406 8.461 -1.413 0.09
-3.42 8.457 -1.413 0.0
-3.451 8.457 -1.415 0.0
-3.483 8.459 -1.418 0.0
-3.525 8.485 -1.424 0.0
-3.562 8.499 -1.429 0.0
-3.604 8.524 -1.435 0.0
-3.646 8.549 -1.442 0.0
-3.686 8.607 -1.454 0.0
-3.753 8.688 -1.471 0.0
-5.115 11.762 -2.038 0.11
-5.153 11.748 -2.038 0.05
-5.192 11.737 -2.039 0.16
-5.229 11.721 -2.039 0.05
-5.265 11.702 -2.039 0.16
-5.311 11.705 -2.043 0.19
-5.33 11.699 -2.043 0.1
-5.356 11.659 -2.039 0.19
-5.405 11.669 -2.044 0.05
-5.441 11.65 -2.043 0.16
-5.476 11.629 -2.043 0.05
-5.514 11.616 -2.043 0.16
-5.558 11.614 -2.046 0.2
-5.58 11.614 -2.048 0.1
-5.622 11.607 -2.05 0.16
-5.651 11.574 -2.047 0.05
-5.692 11.567 -2.049 0.17
-5.726 11.543 -2.048 0.05
-5.759 11.518 -2.047 0.18
-5.797 11.505 -2.048 0.05
-5.814 11.493 -2.047 0.18
-5.858 11.49 -2.05 0.2
-5.896 11.475 -2.051 0.09
-5.938 11.469 -2.053 0.17
-5.97 11.443 -2.052 0.05
-6.01 11.431 -2.053 0.17
-6.049 11.419 -2.054 0.2
-6.079 11.388 -2.052 0.0
-6.091 11.368 -2.05 0.0
-5.194 9.158 -1.65 0.0
-5.188 9.08 -1.638 0.0
-5.192 9.021 -1.63 0.0
-5.191 8.955 -1.62 0.02
-5.196 8.898 -1.612 0.13
-5.216 8.868 -1.61 0.0
-5.224 8.818 -1.603 0.0
-5.209 8.762 -1.594 0.0
-5.192 8.487 -1.553 0.0
-5.201 8.442 -1.547 0.0
-5.222 8.417 -1.545 0.0
-5.225 8.392 -1.542 0.0
-5.25 8.374 -1.542 0.0
-5.285 8.371 -1.544 0.0
-5.312 8.356 -1.545 0.0
-5.361 8.374 -1.552 0.0
-5.433 8.428 -1.566 0.0
-5.455 8.405 -1.565 0.0
-5.451 8.37 -1.559 0.0
-5.475 8.349 -1.559 0.0
-5.508 8.342 -1.561 0.11
-5.522 8.25 -1.549 0.17
-5.673 8.419 -1.587 0.04
-5.77 8.506 -1.608 0.07
-5.713 8.337 -1.579 0.43
-5.744 8.325 -1.581 0.24
-5.805 8.357 -1.591 0.32
-5.836 8.346 -1.592 0.26
-5.847 8.306 -1.588 0.0
-5.882 8.301 -1.59 0.0
-5.918 8.295 -1.593 0.0
-5.987 8.364 -1.609 0.0
-6.048 8.395 -1.62 0.0
-6.047 8.338 -1.612 0.0
-6.077 8.324 -1.613 0.0
-6.103 8.305 -1.613 0.0
-6.146 8.309 -1.618 0.0
-6.184 8.306 -1.621 0.0
-6.204 8.305 -1.623 0.0
-6.243 8.303 -1.627 0.0
-6.288 8.309 -1.632 0.0
-6.325 8.303 -1.635 0.0
-6.36 8.294 -1.637 0.0
-6.398 8.29 -1.641 0.0
-6.432 8.281 -1.643 0.0
-6.467 8.299 -1.649 0.0
-6.504 8.292 -1.652 0.0
-6.546 8.292 -1.656 0.0
-6.571 8.27 -1.656 0.0
-6.626 8.286 -1.664 0.0
-6.659 8.274 -1.666 0.0
-6.71 8.284 -1.673 0.0
-6.761 8.321 -1.683 0.0
-6.779 8.289 -1.681 0.0
-6.826 8.294 -1.686 0.0
-6.848 8.268 -1.685 0.0
-6.896 8.272 -1.691 0.0
-6.942 8.275 -1.696 0.0
-6.974 8.26 -1.698 0.0
-7.014 8.255 -1.702 0.0
-7.051 8.272 -1.708 0.0
-7.095 8.271 -1.713 0.0
-7.139 8.27 -1.717 0.0
-7.182 8.267 -1.722 0.0
-7.219 8.258 -1.725 0.0
-7.252 8.242 -1.726 0.0
-7.309 8.255 -1.734 0.0
-7.351 8.25 -1.738 0.0
-7.383 8.26 -1.743 0.0
-7.426 8.256 -1.747 0.0
-7.468 8.25 -1.751 0.0
-7.503 8.237 -1.754 0.0
-7.556 8.242 -1.76 0.0
-7.597 8.236 -1.764 0.0
-7.645 8.235 -1.77 0.0
-7.674 8.241 -1.774 0.0
-7.726 8.245 -1.78 0.0
-7.793 8.264 -1.79 0.0
-7.861 8.284 -1.801 0.0
-7.944 8.267 -1.808 0.34
-8.005 8.279 -1.817 0.27
-8.027 8.275 -1.819 0.05
-8.051 8.196 -1.812 0.27
-8.079 8.174 -1.813 0.39
-8.123 8.167 -1.817 0.16
-8.151 8.144 -1.818 0.54
-8.183 8.124 -1.819 0.18
-8.256 8.171 -1.834 0.25
-8.261 8.125 -1.829 0.57
-8.256 8.069 -1.822 0.0
-8.307 8.068 -1.828 0.0
-8.37 8.079 -1.837 0.1
-9.458 9.076 -2.085 0.12
-9.479 9.039 -2.084 0.21
-9.486 9.018 -2.082 0.16
-9.522 8.995 -2.084 0.26
-9.533 8.948 -2.08 0.19
-9.557 8.914 -2.079 0.25
-9.569 8.87 -2.075 0.18
-9.607 8.849 -2.077 0.25
-9.62 8.805 -2.074 0.21
-9.64 8.768 -2.072 0.17
-9.647 8.747 -2.071 0.26
-9.665 8.708 -2.069 0.19
-9.694 8.679 -2.069 0.25
-9.701 8.63 -2.064 0.19
-9.728 8.6 -2.064 0.25
-9.75 8.565 -2.063 0.18
-9.777 8.535 -2.063 0.24
-9.782 8.511 -2.061 0.22
-9.801 8.474 -2.06 0.18
-9.829 8.445 -2.06 0.26
-9.843 8.403 -2.058 0.22
-9.865 8.369 -2.057 0.17
-9.898 8.343 -2.058 0.26
-9.924 8.312 -2.058 0.18
-9.944 8.275 -2.057 0.25
-9.946 8.251 -2.054 0.19
-9.97 8.218 -2.054 0.25
-9.982 8.176 -2.051 0.22
-9.994 8.133 -2.048 0.14
-10.02 8.102 -2.048 0.28
-10.041 8.066 -2.047 0.19
-10.067 8.036 -2.047 0.25
-10.077 8.018 -2.047 0.19
-10.101 7.985 -2.046 0.25
-10.113 7.943 -2.044 0.18
-10.143 7.915 -2.045 0.25
-10.163 7.88 -2.044 0.18
-10.194 7.852 -2.045 0.25
-10.217 7.819 -2.045 0.18
-10.221 7.797 -2.043 0.25
-10.235 7.757 -2.041 0.19
-10.265 7.729 -2.042 0.25
-10.285 7.693 -2.041 0.18
-10.301 7.655 -2.039 0.25
-10.32 7.619 -2.038 0.19
-10.341 7.584 -2.038 0.23
-10.345 7.562 -2.036 0.18
-10.364 7.526 -2.035 0.25
-10.372 7.482 -2.032 0.19
-10.395 7.449 -2.032 0.24
-10.407 7.409 -2.029 0.18
-10.427 7.374 -2.029 0.25
-10.429 7.326 -2.024 0.18
-10.454 7.294 -2.025 0.24
-10.441 7.261 -2.02 0.22
-10.443 7.214 -2.015 0.26
-10.459 7.176 -2.014 0.29
-10.486 7.147 -2.015 0.32
-10.509 7.114 -2.015 0.21
-10.541 7.087 -2.017 0.27
-10.552 7.046 -2.015 0.19
-10.559 7.028 -2.014 0.12
-10.558 6.979 -2.009 0.19
-10.575 6.943 -2.008 0.11
-10.586 6.902 -2.006 0.17
-10.597 6.862 -2.004 0.05
-10.606 6.82 -2.001 0.17
-10.63 6.789 -2.002 0.2
-10.626 6.763 -1.999 0.09
-10.64 6.725 -1.998 0.09
-10.658 6.69 -1.997 0.09
-10.686 6.66 -1.998 0.09
-10.687 6.614 -1.994 0.09
-10.706 6.58 -1.994 0.08
-10.725 6.545 -1.994 0.08
-10.733 6.527 -1.993 0.09
-10.747 6.489 -1.992 0.08
-10.759 6.45 -1.99 0.08
-10.779 6.416 -1.99 0.04
-10.796 6.381 -1.99 0.07
-10.809 6.343 -1.988 0.04
-10.834 6.312 -1.989 0.07
-10.849 6.275 -1.988 0.04
-10.853 6.255 -1.987 0.07
-10.864 6.215 -1.986 0.04
-10.879 6.178 -1.985 0.08
-10.884 6.136 -1.982 0.04
-10.91 6.106 -1.983 0.07
-10.912 6.062 -1.98 0.04
-10.94 6.033 -1.982 0.07
-10.93 6.005 -1.978 0.14
-10.944 5.968 -1.977 0.16
-10.949 5.926 -1.974 0.17
-10.953 5.884 -1.972 0.04
-10.958 5.842 -1.969 0.16
-10.971 5.805 -1.968 0.05
-10.984 5.767 -1.967 0.16
-10.995 5.751 -1.967 0.19
-11.002 5.711 -1.965 0.04
-10.999 5.666 -1.961 0.14
-11.022 5.634 -1.962 0.05
-11.031 5.595 -1.961 0.16
-11.033 5.552 -1.958 0.05
-11.04 5.512 -1.956 0.18
-11.057 5.499 -1.957 0.2
-11.048 5.451 -1.952 0.1
-11.06 5.414 -1.951 0.18
-11.078 5.38 -1.952 0.1
-11.097 5.346 -1.952 0.17
-11.105 5.307 -1.95 0.21
-11.111 5.267 -1.948 0.1
-11.118 5.228 -1.947 0.17
-11.114 5.204 -1.944 0.05
-11.12 5.164 -1.942 0.16
-11.139 5.131 -1.943 0.05
-11.141 5.089 -1.94 0.16
-11.171 5.061 -1.943 0.2
-11.184 5.024 -1.942 0.18
-11.201 4.99 -1.943 0.18
-11.196 4.966 -1.94 0.17
-11.215 4.933 -1.941 0.18
-11.233 4.898 -1.941 0.17
-11.244 4.862 -1.941 0.17
-11.252 4.823 -1.939 0.16
-11.266 4.787 -1.939 0.16
-11.279 4.751 -1.939 0.16
-11.285 4.711 -1.937 0.16
-11.285 4.691 -1.936 0.17
-11.299 4.655 -1.936 0.16
-11.288 4.609 -1.931 0.16
-11.305 4.574 -1.931 0.17
-11.31 4.535 -1.93 0.17
-11.3 4.49 -1.925 0.17
-11.305 4.472 -1.925 0.17
-11.305 4.43 -1.922 0.09
-11.298 4.387 -1.919 0.09
-11.308 4.35 -1.918 0.09
-11.287 4.301 -1.912 0.17
-11.295 4.263 -1.911 0.21
-11.29 4.221 -1.907 0.19
-11.254 4.187 -1.9 0.24
-11.25 4.146 -1.897 0.27
-11.275 4.114 -1.899 0.41
-11.304 4.085 -1.902 0.36
-11.347 4.06 -1.907 0.21
-11.346 4.02 -1.905 0.25
-11.338 3.977 -1.901 0.18
-11.332 3.935 -1.898 0.25
-11.312 3.908 -1.893 0.23
-11.326 3.873 -1.894 0.18
-11.359 3.845 -1.897 0.26
-11.36 3.805 -1.895 0.22
-11.377 3.771 -1.896 0.18
-11.406 3.741 -1.899 0.27
-11.418 3.705 -1.899 0.23
-11.424 3.687 -1.899 0.19
-11.446 3.655 -1.901 0.27
-11.46 3.62 -1.902 0.25
-11.463 3.581 -1.9 0.18
-11.497 3.552 -1.904 0.27
-11.506 3.515 -1.904 0.23
-11.516 3.479 -1.903 0.18
-11.551 3.45 -1.908 0.27
-11.539 3.427 -1.905 0.22
-11.542 3.388 -1.903 0.18
-11.58 3.36 -1.908 0.26
-11.579 3.32 -1.906 0.2
-11.604 3.288 -1.909 0.13
-11.605 3.249 -1.907 0.21
-11.596 3.207 -1.904 0.17
-11.624 3.195 -1.908 0.27
-11.63 3.158 -1.907 0.19
-11.661 3.127 -1.911 0.25
-11.655 3.086 -1.908 0.19
-11.673 3.051 -1.909 0.25
-11.665 3.01 -1.906 0.22
-11.68 2.975 -1.907 0.17
-11.7 2.96 -1.91 0.27
-11.7 2.921 -1.908 0.18
-11.709 2.885 -1.908 0.13
-11.708 2.845 -1.907 0.21
-11.708 2.806 -1.905 0.18
-11.738 2.775 -1.909 0.27
-11.739 2.736 -1.907 0.22
-11.741 2.698 -1.906 0.18
-11.767 2.684 -1.91 0.27
-11.762 2.644 -1.908 0.23
-11.758 2.604 -1.906 0.18
-11.788 2.572 -1.909 0.27
-11.79 2.534 -1.908 0.25
-11.786 2.494 -1.906 0.18
-11.813 2.461 -1.91 0.27
-11.819 2.443 -1.91 0.24
-11.819 2.404 -1.909 0.18
-11.836 2.369 -1.91 0.27
-11.83 2.329 -1.908 0.25
-11.828 2.29 -1.906 0.16
-11.864 2.259 -1.911 0.29
-11.884 2.224 -1.914 0.23
-11.865 2.201 -1.91 0.16
-11.885 2.166 -1.912 0.28
-11.884 2.127 -1.911 0.23
-11.887 2.089 -1.91 0.18
-11.911 2.055 -1.913 0.26
-11.919 2.018 -1.913 0.22
-11.908 1.978 -1.91 0.18
-11.94 1.964 -1.915 0.26
-11.936 1.925 -1.914 0.22
-11.927 1.885 -1.911 0.21
-11.958 1.851 -1.915 0.13
-11.948 1.811 -1.913 0.21
-11.95 1.773 -1.912 0.17
-11.983 1.74 -1.917 0.27
-11.982 1.72 -1.916 0.18
-11.983 1.682 -1.915 0.24
-12.0 1.646 -1.917 0.18
-12.007 1.608 -1.918 0.25
-11.996 1.569 -1.915 0.18
-12.007 1.532 -1.916 0.25
-12.004 1.493 -1.915 0.18
-12.024 1.457 -1.917 0.25
-12.005 1.436 -1.914 0.18
-12.019 1.399 -1.915 0.25
-12.014 1.36 -1.914 0.18
-12.014 1.322 -1.913 0.25
-12.005 1.283 -1.911 0.18
-12.02 1.246 -1.913 0.24
-12.02 1.208 -1.912 0.19
-12.02 1.189 -1.912 0.12
-12.016 1.151 -1.91 0.2
-12.008 1.112 -1.908 0.17
-12.017 1.074 -1.909 0.3
-12.03 1.038 -1.911 0.27
-12.061 1.002 -1.916 0.4
-12.07 0.965 -1.917 0.3
-12.089 0.928 -1.919 0.11
-12.08 0.908 -1.918 0.18
-12.105 0.872 -1.921 0.1
-12.101 0.833 -1.92 0.19
-12.108 0.796 -1.921 0.1
-12.114 0.758 -1.922 0.16
-12.113 0.72 -1.921 0.05
-12.107 0.681 -1.92 0.16
-12.128 0.663 -1.923 0.19
-12.136 0.625 -1.924 0.18
-12.13 0.587 -1.923 0.17
-12.129 0.549 -1.922 0.17
-12.131 0.511 -1.922 0.16
-12.127 0.472 -1.921 0.16
-12.124 0.434 -1.921 0.18
-12.117 0.415 -1.919 0.18
-12.122 0.377 -1.92 0.17
-12.113 0.338 -1.918 0.18
-12.103 0.3 -1.916 0.18
-12.096 0.262 -1.915 0.09
-12.102 0.224 -1.916 0.15
-12.071 0.185 -1.911 0.2
-12.068 0.147 -1.91 0.1
-12.041 0.128 -1.905 0.18
-12.049 0.09 -1.907 0.11
-12.029 0.052 -1.903 0.19
-12.047 0.015 -1.906 0.11
-12.031 -0.023 -1.904 0.19
-12.014 -0.061 -1.901 0.17
-12.039 -0.099 -1.905 0.26
-12.031 -0.137 -1.904 0.18
-12.05 -0.156 -1.907 0.23
-12.046 -0.194 -1.906 0.19
-12.057 -0.232 -1.908 0.25
-12.036 -0.269 -1.905 0.19
-12.055 -0.307 -1.908 0.23
-12.044 -0.345 -1.907 0.18
-12.053 -0.383 -1.908 0.25
-12.041 -0.402 -1.906 0.19
-12.061 -0.44 -1.91 0.24
-12.034 -0.477 -1.906 0.19
-12.048 -0.516 -1.908 0.25
-12.05 -0.554 -1.909 0.19
-12.056 -0.592 -1.91 0.12
-12.062 -0.63 -1.912 0.18
-12.063 -0.649 -1.912 0.11
-12.069 -0.688 -1.913 0.18
-12.061 -0.725 -1.912 0.05
-12.047 -0.762 -1.91 0.17
-12.052 -0.801 -1.912 0.05
-12.056 -0.839 -1.913 0.16
-12.065 -0.878 -1.915 0.19
-12.067 -0.897 -1.915 0.17
-12.072 -0.935 -1.917 0.17
-12.075 -0.974 -1.918 0.18
-12.074 -1.012 -1.918 0.18
-12.071 -1.05 -1.918 0.17
-12.073 -1.088 -1.919 0.17
-12.062 -1.125 -1.918 0.04
-12.035 -1.161 -1.914 0.15
-12.054 -1.182 -1.917 0.18
-12.041 -1.219 -1.916 0.1
-12.025 -1.255 -1.914 0.16
-12.031 -1.294 -1.915 0.21
-12.023 -1.332 -1.915 0.1
-11.991 -1.366 -1.91 0.18
-11.985 -1.404 -1.91 0.23
-11.983 -1.423 -1.91 0.18
-11.996 -1.462 -1.913 0.25
-12.001 -1.501 -1.914 0.19
-12.006 -1.54 -1.916 0.25
-12.015 -1.58 -1.918 0.21
-12.016 -1.618 -1.919 0.12
-12.012 -1.656 -1.92 0.2
-12.07 -1.683 -1.93 0.18
-12.079 -1.723 -1.932 0.26
-12.062 -1.759 -1.93 0.19
-12.066 -1.799 -1.932 0.25
-12.009 -1.829 -1.923 0.2
-11.793 -1.834 -1.888 0.25
-11.571 -1.838 -1.851 0.22
-11.367 -1.824 -1.816 0.16
-11.253 -1.842 -1.798 0.28
-11.216 -1.872 -1.792 0.23
-11.219 -1.909 -1.794 0.2
-11.215 -1.945 -1.794 0.25
-11.244 -1.986 -1.8 0.21
-11.317 -2.036 -1.814 0.29
-11.255 -2.061 -1.804 0.22
-11.267 -2.082 -1.807 0.26
-11.272 -2.119 -1.809 0.24
-11.265 -2.154 -1.809 0.29
-11.274 -2.193 -1.812 0.29
-11.271 -2.229 -1.812 0.2
-11.31 -2.274 -1.82 0.13
-11.307 -2.31 -1.821 0.18
-11.357 -2.339 -1.83 0.18
-11.448 -2.395 -1.847 0.09
-11.437 -2.43 -1.847 0.15
-11.557 -2.493 -1.869 0.05
-11.558 -2.531 -1.87 0.16
-11.625 -2.584 -1.883 0.2
-11.575 -2.611 -1.876 0.1
-11.594 -2.635 -1.88 0.18
-11.57 -2.667 -1.877 0.2
-11.564 -2.704 -1.878 0.1
-11.517 -2.732 -1.871 0.18
-11.487 -2.763 -1.867 0.11
-11.446 -2.791 -1.862 0.18
-11.241 -2.779 -1.828 0.12
-11.152 -2.794 -1.814 0.2
-11.182 -2.82 -1.82 0.11
-11.175 -2.856 -1.82 0.18
-11.054 -2.862 -1.8 0.1
-10.907 -2.861 -1.776 0.19
-10.747 -2.856 -1.75 0.2
-10.521 -2.832 -1.712 0.0
-10.402 -2.835 -1.693 0.0
-10.367 -2.843 -1.688 0.0
-11.63 -3.225 -1.91 0.07
-11.567 -3.247 -1.901 0.16
-11.509 -3.27 -1.893 0.16
-11.499 -3.306 -1.893 0.16
-11.501 -3.346 -1.895 0.18
-11.512 -3.388 -1.899 0.04
-11.493 -3.403 -1.896 0.15
-11.488 -3.44 -1.897 0.05
-11.488 -3.48 -1.899 0.17
-11.489 -3.519 -1.901 0.21
-11.417 -3.537 -1.891 0.1
-11.395 -3.569 -1.889 0.17
-11.41 -3.613 -1.893 0.21
-11.391 -3.627 -1.891 0.18
-11.468 -3.691 -1.906 0.24
-11.447 -3.724 -1.905 0.2
-11.396 -3.747 -1.898 0.12
-11.386 -3.783 -1.898 0.19
-11.374 -3.819 -1.898 0.11
-11.319 -3.84 -1.891 0.18
-11.284 -3.868 -1.887 0.05
-11.243 -3.874 -1.88 0.18
-11.232 -3.91 -1.881 0.2
-11.214 -3.943 -1.88 0.1
-11.182 -3.971 -1.876 0.16
-11.16 -4.003 -1.874 0.05
-11.127 -4.031 -1.871 0.16
-11.116 -4.066 -1.871 0.05
-11.096 -4.079 -1.869 0.17
-11.095 -4.118 -1.871 0.19
-11.082 -4.153 -1.871 0.1
-11.072 -4.189 -1.871 0.17
-11.063 -4.225 -1.872 0.05
-11.02 -4.249 -1.867 0.17
-10.99 -4.277 -1.864 0.19
-11.003 -4.302 -1.867 0.14
-10.979 -4.332 -1.865 0.26
-10.831 -4.314 -1.841 0.18
-10.77 -4.329 -1.832 0.18
-10.713 -4.345 -1.824 0.1
-10.635 -4.352 -1.813 0.18
-10.552 -4.357 -1.8 0.23
-10.474 -4.345 -1.787 0.16
-10.378 -4.343 -1.772 0.23
-10.301 -4.349 -1.76 0.2
-10.189 -4.34 -1.743 0.12
-10.068 -4.326 -1.723 0.2
-9.961 -4.317 -1.706 0.11
-9.867 -4.314 -1.691 0.0
-9.789 -4.317 -1.679 0.0
-10.748 -4.757 -1.857 0.0
-10.751 -4.799 -1.86 0.05
-10.62 -4.781 -1.839 0.2
-10.596 -4.81 -1.837 0.18
-10.61 -4.856 -1.843 0.28
-10.518 -4.854 -1.828 0.18
-10.495 -4.884 -1.827 0.25
-10.444 -4.881 -1.819 0.23
-10.433 -4.915 -1.82 0.24
-10.415 -4.947 -1.819 0.23
-10.364 -4.963 -1.813 0.25
-10.325 -4.984 -1.808 0.27
-10.267 -4.996 -1.8 0.27
-10.188 -4.997 -1.788 0.15
-10.191 -5.039 -1.792 0.29
-10.127 -5.027 -1.781 0.25
-10.084 -5.045 -1.776 0.2
-10.067 -5.076 -1.776 0.23
-10.001 -5.083 -1.767 0.24
-9.984 -5.113 -1.766 0.24
-9.978 -5.15 -1.768 0.31
-9.972 -5.187 -1.77 0.31
-9.931 -5.185 -1.764 0.3
-9.901 -5.209 -1.761 0.31
-9.903 -5.25 -1.765 0.22
-9.925 -5.302 -1.772 0.24
-9.938 -5.349 -1.778 0.25
-9.869 -5.352 -1.768 0.27
-9.835 -5.373 -1.765 0.23
-9.764 -5.355 -1.753 0.28
-9.708 -5.364 -1.745 0.23
-9.715 -5.407 -1.75 0.25
-9.794 -5.492 -1.768 0.26
-9.765 -5.516 -1.766 0.12
-9.701 -5.52 -1.757 0.18
-9.656 -5.535 -1.752 0.21
-9.624 -5.536 -1.747 0.1
-9.596 -5.561 -1.745 0.17
-9.592 -5.599 -1.748 0.05
-9.563 -5.622 -1.746 0.17
-9.541 -5.65 -1.745 0.21
-9.502 -5.667 -1.741 0.15
-9.472 -5.689 -1.738 0.28
-9.475 -5.711 -1.741 0.21
-9.465 -5.746 -1.742 0.23
-9.429 -5.765 -1.739 0.32
-9.407 -5.792 -1.738 0.11
-9.392 -5.824 -1.739 0.18
-9.3 -5.808 -1.724 0.05
-9.268 -5.828 -1.721 0.17
-9.234 -5.827 -1.716 0.11
-9.181 -5.834 -1.709 0.18
-9.129 -5.842 -1.703 0.11
-9.066 -5.842 -1.694 0.18
-9.015 -5.849 -1.687 0.11
-8.951 -5.848 -1.678 0.19
-8.892 -5.849 -1.67 0.11
-8.84 -5.855 -1.663 0.18
-8.792 -5.843 -1.655 0.11
-8.731 -5.842 -1.646 0.17
-8.673 -5.843 -1.638 0.21
-8.615 -5.844 -1.63 0.19
-8.523 -5.821 -1.615 0.05
-8.455 -5.813 -1.605 0.17
-8.405 -5.819 -1.599 0.2
-8.351 -5.8 -1.589 0.09
-8.295 -5.801 -1.582 0.0
-8.237 -5.799 -1.574 0.0
-8.191 -5.805 -1.568 0.0
-9.239 -6.587 -1.788 0.02
-9.151 -6.568 -1.774 0.12
-9.106 -6.58 -1.769 0.2
-9.136 -6.623 -1.778 0.29
-9.11 -6.648 -1.777 0.29
-9.059 -6.655 -1.77 0.26
-8.979 -6.64 -1.758 0.26
-8.984 -6.687 -1.763 0.22
-9.01 -6.75 -1.773 0.32
-8.937 -6.739 -1.762 0.26
-8.945 -6.768 -1.766 0.39
-8.929 -6.799 -1.767 0.31
-8.907 -6.827 -1.767 0.2
-8.869 -6.842 -1.764 0.28
-8.831 -6.858 -1.76 0.23
-8.794 -6.873 -1.757 0.2
-8.765 -6.895 -1.755 0.25
-8.745 -6.901 -1.753 0.23
-8.726 -6.931 -1.754 0.24
-8.684 -6.943 -1.75 0.18
-8.649 -6.959 -1.747 0.31
-8.64 -6.997 -1.75 0.25
-8.67 -7.067 -1.761 0.25
-8.642 -7.089 -1.76 0.18
-8.658 -7.125 -1.766 0.32
-8.589 -7.113 -1.755 0.23
-8.566 -7.14 -1.755 0.26
-8.546 -7.168 -1.756 0.29
-8.549 -7.217 -1.761 0.34
-8.509 -7.229 -1.758 0.26
-8.467 -7.239 -1.753 0.21
-8.326 -7.165 -1.727 0.07
-8.388 -7.241 -1.744 0.16
-8.335 -7.241 -1.737 0.05
-8.319 -7.273 -1.738 0.18
-8.322 -7.322 -1.744 0.28
-8.246 -7.301 -1.732 0.28
-8.192 -7.3 -1.725 0.2
-8.112 -7.274 -1.712 0.25
-8.036 -7.229 -1.698 0.23
-7.994 -7.237 -1.693 0.22
-7.989 -7.278 -1.697 0.24
-7.973 -7.31 -1.699 0.18
-7.941 -7.327 -1.697 0.25
-7.896 -7.332 -1.692 0.18
-7.847 -7.332 -1.686 0.25
-7.814 -7.324 -1.681 0.18
-7.764 -7.323 -1.675 0.25
-7.709 -7.318 -1.667 0.22
-7.669 -7.326 -1.663 0.17
-7.623 -7.328 -1.658 0.26
-7.57 -7.323 -1.651 0.23
-7.525 -7.325 -1.646 0.18
-7.492 -7.316 -1.641 0.27
-7.441 -7.312 -1.634 0.24
-7.387 -7.305 -1.627 0.18
-7.348 -7.313 -1.623 0.27
-7.296 -7.307 -1.616 0.24
-7.248 -7.304 -1.61 0.19
-7.21 -7.312 -1.606 0.28
-7.169 -7.293 -1.599 0.23
-7.106 -7.275 -1.59 0.18
-7.068 -7.282 -1.586 0.27
-7.022 -7.28 -1.581 0.24
-6.967 -7.269 -1.573 0.2
-6.936 -7.283 -1.571 0.25
-6.903 -7.293 -1.568 0.2
-6.858 -7.292 -1.563 0.21
-6.829 -7.284 -1.559 0.04
-6.828 -7.328 -1.564 0.0
-6.869 -7.419 -1.58 0.0
-7.221 -7.846 -1.673 0.0
-7.273 -7.953 -1.692 0.13
-7.275 -8.005 -1.699 0.17
-7.26 -8.039 -1.702 0.25
-7.249 -8.052 -1.702 0.37
-7.184 -8.031 -1.692 0.39
-7.113 -8.002 -1.68 0.33
-7.092 -8.029 -1.681 0.24
-7.082 -8.069 -1.685 0.29
-7.046 -8.079 -1.683 0.41
-7.007 -8.085 -1.679 0.36
-6.985 -8.085 -1.677 0.34
-6.937 -8.082 -1.671 0.29
-6.899 -8.089 -1.668 0.3
-6.852 -8.085 -1.662 0.29
-6.81 -8.087 -1.658 0.29
-6.764 -8.084 -1.652 0.29
-6.721 -8.084 -1.648 0.27
-6.683 -8.09 -1.644 0.27
-6.662 -8.09 -1.642 0.26
-6.611 -8.08 -1.635 0.27
-6.573 -8.085 -1.632 0.28
-6.529 -8.083 -1.627 0.28
-6.486 -8.082 -1.622 0.27
-6.449 -8.087 -1.619 0.23
-6.416 -8.098 -1.617 0.31
-6.388 -8.089 -1.613 0.29
-6.341 -8.082 -1.607 0.27
-6.306 -8.089 -1.604 0.29
-6.262 -8.086 -1.599 0.28
-6.217 -8.08 -1.594 0.29
-6.178 -8.081 -1.59 0.3
-6.128 -8.069 -1.584 0.29
-6.116 -8.079 -1.584 0.33
-6.077 -8.08 -1.58 0.31
-6.041 -8.085 -1.577 0.31
-5.994 -8.076 -1.571 0.3
-5.957 -8.079 -1.568 0.29
-5.921 -8.083 -1.565 0.31
-5.878 -8.078 -1.56 0.28
-5.854 -8.071 -1.556 0.29
-5.816 -8.072 -1.553 0.3
-5.78 -8.076 -1.55 0.3
-5.743 -8.078 -1.546 0.3
-5.703 -8.075 -1.542 0.3
-5.667 -8.078 -1.539 0.3
-5.627 -8.075 -1.535 0.31
-5.604 -8.069 -1.532 0.31
-5.566 -8.067 -1.528 0.29
-5.532 -8.074 -1.525 0.29
-5.495 -8.073 -1.522 0.3
-5.463 -8.08 -1.52 0.3
-5.424 -8.078 -1.516 0.3
-5.384 -8.074 -1.511 0.23
-5.378 -8.092 -1.513 0.35
-5.334 -8.081 -1.508 0.34
-5.308 -8.096 -1.507 0.35
-5.275 -8.101 -1.505 0.32
-5.26 -8.134 -1.508 0.27
-5.231 -8.146 -1.507 0.32
-5.219 -8.184 -1.512 0.28
-5.231 -8.23 -1.519 0.25
-5.201 -8.24 -1.518 0.28
-5.205 -8.304 -1.528 0.31
-5.215 -8.377 -1.539 0.29
-5.218 -8.441 -1.548 0.29
-5.175 -8.43 -1.543 0.32
-5.144 -8.44 -1.542 0.38
-5.133 -8.451 -1.542 0.37
-5.105 -8.466 -1.542 0.33
-5.058 -8.448 -1.535 0.42
-5.037 -8.472 -1.537 0.41
-5.021 -8.506 -1.541 0.32
-4.98 -8.498 -1.536 0.35
-4.942 -8.494 -1.532 0.35
-4.903 -8.489 -1.528 0.36
-4.873 -8.467 -1.522 0.37
-4.843 -8.477 -1.521 0.32
-4.812 -8.484 -1.52 0.36
-4.77 -8.472 -1.514 0.41
-4.739 -8.48 -1.513 0.34
-4.679 -8.434 -1.501 0.36
-4.641 -8.428 -1.497 0.39
-4.641 -8.46 -1.502 0.41
-4.616 -8.478 -1.503 0.34
-4.59 -8.494 -1.503 0.35
-4.568 -8.517 -1.505 0.38
-4.537 -8.523 -1.503 0.36
-4.505 -8.526 -1.501 0.38
-4.429 -8.448 -1.483 0.29
-4.449 -8.518 -1.495 0.37
-4.342 -8.378 -1.466 0.32
-4.365 -8.488 -1.484 0.39
-4.355 -8.533 -1.49 0.33
-4.323 -8.536 -1.488 0.33
-4.292 -8.543 -1.487 0.3
-4.242 -8.51 -1.478 0.41
-4.235 -8.529 -1.481 0.34
-4.174 -8.474 -1.468 0.32
-4.128 -8.448 -1.46 0.38
-4.089 -8.434 -1.455 0.38
-4.062 -8.447 -1.455 0.39
-4.049 -8.486 -1.46 0.43
-4.031 -8.519 -1.464 0.35
-4.005 -8.533 -1.464 0.36
-3.997 -8.55 -1.466 0.42
-3.977 -8.577 -1.469 0.32
-3.947 -8.584 -1.468 0.38
-3.922 -8.6 -1.469 0.33
-3.87 -8.558 -1.459 0.33
-3.826 -8.531 -1.451 0.37
-3.801 -8.548 -1.452 0.4
-3.785 -8.549 -1.451 0.36
-3.767 -8.58 -1.455 0.33
-3.74 -8.592 -1.455 0.39
-3.709 -8.593 -1.453 0.34
-3.675 -8.59 -1.45 0.4
-3.638 -8.578 -1.446 0.35
-3.617 -8.566 -1.443 0.41
-3.582 -8.559 -1.439 0.35
-3.557 -8.574 -1.44 0.36
-3.541 -8.61 -1.445 0.39
-3.509 -8.61 -1.443 0.34
-3.481 -8.62 -1.442 0.36
-3.442 -8.599 -1.437 0.39
-3.419 -8.583 -1.433 0.36
-3.397 -8.605 -1.435 0.34
-3.375 -8.63 -1.437 0.32
-3.339 -8.617 -1.433 0.39
-3.306 -8.612 -1.431 0.39
-3.269 -8.597 -1.426 0.34
