# .PCD v.7 - Point Cloud Data file format
VERSION .7
FIELDS x y z intensity
SIZE 4 4 4 4
TYPE F F F F
COUNT 1 1 1 1
WIDTH 1855
HEIGHT 1
VIEWPOINT 0 0 0 1 0 0 0
POINTS 1855
DATA ascii
11.864 -15.184 -0.539 0.33
11.944 -15.187 -0.541 0.41
12.009 -15.171 -0.542 0.31
12.103 -15.191 -0.545 0.41
12.171 -15.178 -0.546 0.34
12.227 -15.151 -0.547 0.33
12.309 -15.154 -0.549 0.3
12.367 -15.177 -0.551 0.3
12.447 -15.178 -0.553 0.48
12.51 -15.157 -0.554 0.44
12.59 -15.156 -0.556 0.3
12.664 -15.149 -0.557 0.37
12.738 -15.139 -0.559 0.39
12.821 -15.142 -0.561 0.23
12.871 -15.152 -0.562 0.39
12.898 -15.087 -0.561 0.31
12.928 -15.027 -0.56 0.37
13.005 -15.021 -0.562 0.41
13.087 -15.019 -0.564 0.34
13.163 -15.011 -0.566 0.32
13.244 -15.009 -0.568 0.48
13.306 -15.031 -0.57 0.46
13.376 -15.015 -0.571 0.31
13.461 -15.014 -0.573 0.26
13.63 -15.107 -0.58 0.32
13.711 -15.101 -0.582 0.37
13.8 -15.103 -0.585 0.31
13.879 -15.094 -0.586 0.44
13.92 -15.091 -0.587 0.34
14.009 -15.092 -0.59 0.48
14.106 -15.101 -0.593 0.34
14.175 -15.08 -0.594 0.22
14.273 -15.089 -0.597 0.26
14.358 -15.083 -0.599 0.4
14.43 -15.064 -0.6 0.38
14.487 -15.076 -0.602 0.3
14.573 -15.07 -0.604 0.38
14.667 -15.072 -0.607 0.37
14.746 -15.058 -0.608 0.28
14.83 -15.049 -0.61 0.38
14.915 -15.04 -0.613 0.34
15.008 -15.039 -0.615 0.3
15.069 -15.053 -0.617 0.37
15.168 -15.056 -0.62 0.4
15.266 -15.059 -0.623 0.41
15.356 -15.053 -0.625 0.28
15.441 -15.041 -0.627 0.37
15.52 -15.023 -0.629 0.29
15.603 -15.009 -0.631 0.21
15.659 -14.968 -0.631 0.53
15.769 -15.026 -0.636 0.24
15.864 -15.021 -0.638 0.24
15.934 -14.993 -0.639 0.2
16.046 -15.003 -0.643 0.37
16.134 -14.991 -0.645 0.34
16.238 -14.993 -0.648 0.34
16.328 -14.981 -0.65 0.33
16.414 -15.012 -0.653 0.48
16.034 -14.574 -0.631 0.16
15.989 -14.441 -0.627 0.22
16.021 -14.379 -0.626 0.46
16.072 -14.334 -0.626 0.5
16.14 -14.303 -0.627 0.38
16.971 -14.944 -0.668 0.29
17.065 -14.979 -0.671 0.37
17.152 -14.959 -0.673 0.28
17.271 -14.968 -0.677 0.45
17.377 -14.965 -0.68 0.28
17.453 -14.935 -0.682 0.24
17.568 -14.938 -0.685 0.37
17.673 -14.932 -0.688 0.37
17.753 -14.951 -0.691 0.29
17.834 -14.924 -0.692 0.28
17.956 -14.93 -0.696 0.32
18.049 -14.912 -0.699 0.25
18.178 -14.922 -0.703 0.4
18.282 -14.912 -0.705 0.32
18.371 -14.888 -0.708 0.33
18.464 -14.916 -0.711 0.34
18.601 -14.93 -0.716 0.38
18.701 -14.914 -0.718 0.31
18.801 -14.897 -0.721 0.23
18.935 -14.906 -0.725 0.37
19.021 -14.877 -0.727 0.27
19.148 -14.88 -0.731 0.29
19.228 -14.894 -0.734 0.27
19.353 -14.893 -0.737 0.34
19.466 -14.883 -0.741 0.27
19.583 -14.875 -0.744 0.27
19.698 -14.865 -0.747 0.29
19.825 -14.863 -0.751 0.33
19.934 -14.847 -0.754 0.29
20.049 -14.835 -0.757 0.25
20.156 -14.865 -0.761 0.3
20.255 -14.84 -0.764 0.38
20.361 -14.819 -0.767 0.27
20.503 -14.824 -0.771 0.36
20.619 -14.81 -0.775 0.43
20.669 -14.747 -0.775 0.23
20.77 -14.77 -0.779 0.34
20.903 -14.766 -0.783 0.33
21.005 -14.739 -0.785 0.21
21.12 -14.721 -0.788 0.38
21.252 -14.714 -0.792 0.28
21.417 -14.728 -0.798 0.39
21.537 -14.712 -0.801 0.29
21.663 -14.698 -0.805 0.33
21.782 -14.728 -0.81 0.34
21.913 -14.717 -0.814 0.26
22.057 -14.713 -0.818 0.29
22.182 -14.696 -0.822 0.34
18.644 -12.273 -0.656 0.27
22.451 -14.672 -0.83 0.22
22.557 -14.64 -0.833 0.31
22.644 -14.646 -0.836 0.36
22.737 -14.605 -0.838 0.32
22.843 -14.572 -0.841 0.33
22.908 -14.512 -0.841 0.39
22.977 -14.455 -0.842 0.31
23.046 -14.397 -0.844 0.36
23.106 -14.334 -0.844 0.3
23.192 -14.337 -0.847 0.35
23.257 -14.276 -0.848 0.3
23.331 -14.221 -0.849 0.3
23.353 -14.134 -0.848 0.34
23.427 -14.078 -0.85 0.27
23.5 -14.022 -0.851 0.27
23.565 -13.96 -0.852 0.19
23.63 -13.948 -0.854 0.39
20.987 -12.303 -0.734 0.2
21.074 -12.265 -0.736 0.25
23.869 -13.788 -0.859 0.15
23.931 -13.724 -0.859 0.31
23.995 -13.66 -0.86 0.18
21.629 -12.226 -0.754 0.32
21.7 -12.222 -0.756 0.34
21.831 -12.205 -0.76 0.21
24.275 -13.468 -0.866 0.2
24.35 -13.41 -0.868 0.23
24.443 -13.362 -0.87 0.17
24.554 -13.322 -0.873 0.18
24.632 -13.264 -0.875 0.35
22.789 -12.228 -0.793 0.2
22.833 -12.159 -0.793 0.38
24.884 -13.149 -0.881 0.2
24.963 -13.09 -0.883 0.18
25.016 -13.018 -0.883 0.16
25.078 -12.95 -0.884 0.1
23.771 -12.136 -0.825 0.16
25.336 -12.832 -0.891 0.14
24.188 -12.157 -0.84 0.21
24.4 -12.167 -0.847 0.17
24.49 -12.116 -0.849 0.23
24.743 -12.145 -0.859 0.17
24.762 -12.057 -0.858 0.31
24.887 -12.07 -0.862 0.21
25.0 -12.028 -0.865 0.38
25.204 -12.028 -0.873 0.29
25.435 -12.04 -0.881 0.36
25.757 -12.094 -0.893 0.27
25.898 -12.061 -0.897 0.37
26.008 -12.013 -0.9 0.26
26.246 -12.022 -0.909 0.34
26.29 -11.993 -0.91 0.31
26.479 -11.978 -0.916 0.37
26.631 -11.946 -0.921 0.2
26.813 -11.927 -0.927 0.51
26.969 -11.895 -0.932 0.22
27.142 -11.869 -0.938 0.27
27.284 -11.829 -0.942 0.26
23.367 -10.091 -0.777 0.3
23.325 -9.986 -0.774 0.19
27.672 -11.74 -0.955 0.21
24.259 -10.205 -0.811 0.16
24.291 -10.129 -0.811 0.39
24.236 -10.017 -0.807 0.21
24.411 -10.0 -0.813 0.27
24.053 -9.809 -0.797 0.23
23.884 -9.653 -0.789 0.34
23.773 -9.435 -0.782 0.58
23.996 -9.436 -0.79 0.23
24.472 -9.534 -0.808 0.19
24.64 -9.511 -0.814 0.3
24.737 -9.503 -0.818 0.34
24.801 -9.438 -0.819 0.37
24.901 -9.387 -0.822 0.32
25.206 -9.411 -0.833 0.29
25.294 -9.354 -0.836 0.31
25.304 -9.267 -0.835 0.29
25.446 -9.228 -0.839 0.36
25.761 -9.297 -0.852 0.26
26.073 -9.316 -0.863 0.33
26.055 -9.218 -0.861 0.29
26.244 -9.192 -0.868 0.34
26.416 -9.159 -0.874 0.2
26.418 -9.067 -0.873 0.41
26.611 -9.04 -0.879 0.26
26.711 -9.026 -0.883 0.39
26.944 -9.011 -0.891 0.35
26.917 -8.908 -0.889 0.31
27.218 -8.913 -0.9 0.27
27.566 -8.93 -0.913 0.22
27.839 -8.922 -0.923 0.39
27.804 -8.815 -0.92 0.27
28.062 -8.848 -0.93 0.31
28.187 -8.79 -0.934 0.35
28.409 -8.761 -0.942 0.38
28.544 -8.704 -0.946 0.21
29.17 -8.795 -0.971 0.27
29.418 -8.768 -0.979 0.35
29.524 -8.699 -0.983 0.29
29.687 -8.696 -0.989 0.35
30.018 -8.691 -1.001 0.29
30.164 -8.63 -1.005 0.31
30.36 -8.583 -1.012 0.19
30.716 -8.579 -1.025 0.16
31.067 -8.572 -1.038 0.18
31.454 -8.572 -1.053 0.17
31.842 -8.57 -1.067 0.16
32.197 -8.611 -1.081 0.18
32.599 -8.609 -1.096 0.15
32.657 -8.514 -1.097 0.31
32.925 -8.474 -1.107 0.0
33.188 -8.43 -1.116 0.0
31.391 -7.766 -1.043 0.0
31.885 -7.834 -1.062 0.0
32.358 -7.842 -1.08 0.0
32.806 -7.842 -1.096 0.0
33.035 -7.787 -1.104 0.0
33.486 -7.782 -1.121 0.0
33.695 -7.719 -1.129 0.0
33.998 -7.675 -1.14 0.0
34.192 -7.662 -1.147 0.0
34.34 -7.583 -1.152 0.0
34.423 -7.487 -1.154 0.0
34.411 -7.372 -1.153 0.13
34.508 -7.279 -1.156 0.1
34.38 -7.139 -1.15 0.14
34.588 -7.069 -1.157 0.0
34.605 -7.016 -1.157 0.0
31.667 -6.319 -1.041 0.0
32.164 -6.313 -1.06 0.0
32.823 -6.335 -1.085 0.0
33.391 -6.335 -1.106 0.0
33.748 -6.293 -1.119 0.0
34.324 -6.288 -1.141 0.0
34.446 -6.255 -1.146 0.0
34.808 -6.207 -1.159 0.0
34.751 -6.085 -1.156 0.0
34.321 -5.898 -1.138 0.0
33.88 -5.714 -1.12 0.13
33.874 -5.603 -1.12 0.16
33.978 -5.511 -1.123 0.21
34.352 -5.516 -1.137 0.24
34.738 -5.466 -1.152 0.1
35.271 -5.435 -1.172 0.0
35.56 -5.366 -1.182 0.0
35.858 -5.295 -1.193 0.0
33.747 -4.769 -1.11 0.0
34.661 -4.841 -1.145 0.0
35.243 -4.809 -1.167 0.0
35.668 -4.753 -1.183 0.0
36.247 -4.714 -1.205 0.07
36.494 -4.629 -1.214 0.14
36.556 -4.521 -1.216 0.16
36.621 -4.412 -1.218 0.17
36.605 -4.352 -1.217 0.34
36.616 -4.236 -1.217 0.19
36.651 -4.124 -1.218 0.2
36.646 -4.007 -1.217 0.29
36.795 -3.906 -1.222 0.0
36.982 -3.808 -1.229 0.0
37.038 -3.696 -1.231 0.0
33.899 -3.331 -1.109 0.0
35.123 -3.339 -1.156 0.0
36.119 -3.319 -1.194 0.0
36.636 -3.25 -1.214 0.0
37.049 -3.169 -1.229 0.0
37.035 -3.051 -1.229 0.0
34.209 -2.712 -1.119 0.11
34.151 -2.653 -1.116 0.27
34.183 -2.548 -1.117 0.23
34.249 -2.444 -1.12 0.26
34.304 -2.34 -1.121 0.29
34.184 -2.224 -1.117 0.29
34.281 -2.122 -1.12 0.24
34.52 -2.028 -1.129 0.25
35.032 -1.947 -1.149 0.18
36.082 -1.948 -1.189 0.19
36.284 -1.844 -1.197 0.0
37.276 -1.777 -1.235 0.0
37.283 -1.66 -1.235 0.0
37.254 -1.541 -1.233 0.0
37.253 -1.424 -1.233 0.0
37.271 -1.307 -1.234 0.0
37.317 -1.25 -1.235 0.0
37.373 -1.135 -1.237 0.0
37.398 -1.018 -1.238 0.0
37.421 -0.901 -1.239 0.0
37.45 -0.784 -1.24 0.0
37.45 -0.666 -1.24 0.0
37.452 -0.548 -1.24 0.0
37.423 -0.489 -1.239 0.0
37.416 -0.372 -1.238 0.0
37.431 -0.254 -1.239 0.0
37.41 -0.136 -1.238 0.0
37.436 -0.019 -1.239 0.0
33.497 0.055 -1.286 0.0
33.572 0.16 -1.29 0.0
33.656 0.266 -1.293 0.0
33.727 0.32 -1.297 0.0
33.772 0.426 -1.299 0.0
33.802 0.533 -1.3 0.0
33.813 0.639 -1.301 0.0
33.808 0.745 -1.3 0.0
33.802 0.852 -1.3 0.0
33.773 0.957 -1.299 0.0
33.746 1.062 -1.298 0.0
33.722 1.115 -1.297 0.0
33.731 1.221 -1.298 0.0
33.761 1.328 -1.299 0.0
33.796 1.436 -1.301 0.0
33.841 1.544 -1.303 0.0
33.858 1.652 -1.304 0.0
33.879 1.76 -1.305 0.0
33.894 1.814 -1.306 0.0
33.914 1.922 -1.307 0.0
33.908 2.028 -1.307 0.0
33.899 2.135 -1.307 0.0
33.892 2.241 -1.307 0.0
33.889 2.348 -1.307 0.0
33.906 2.456 -1.308 0.0
33.918 2.51 -1.309 0.0
33.912 2.617 -1.309 0.0
33.925 2.725 -1.31 0.0
33.944 2.834 -1.311 0.0
33.961 2.943 -1.313 0.0
33.984 3.053 -1.314 0.0
34.002 3.162 -1.315 0.0
34.016 3.217 -1.316 0.0
34.024 3.326 -1.317 0.0
34.037 3.435 -1.318 0.0
34.028 3.542 -1.318 0.0
33.995 3.647 -1.317 0.0
33.982 3.753 -1.317 0.07
33.982 3.861 -1.318 0.14
33.922 3.909 -1.315 0.2
33.898 4.014 -1.315 0.0
33.899 4.122 -1.315 0.0
34.006 4.243 -1.321 0.0
34.082 4.361 -1.325 0.0
34.155 4.48 -1.329 0.0
34.25 4.602 -1.333 0.0
34.342 4.669 -1.338 0.0
34.442 4.793 -1.343 0.0
34.506 4.912 -1.347 0.0
34.603 5.037 -1.352 0.0
34.668 5.157 -1.355 0.0
34.699 5.273 -1.357 0.0
34.769 5.396 -1.361 0.0
34.855 5.465 -1.366 0.0
34.931 5.59 -1.37 0.0
35.025 5.717 -1.375 0.0
35.11 5.844 -1.379 0.0
35.211 5.975 -1.385 0.0
35.295 6.103 -1.39 0.0
35.39 6.234 -1.395 0.0
35.474 6.364 -1.399 0.0
35.555 6.436 -1.403 0.0
35.646 6.568 -1.409 0.0
35.72 6.698 -1.413 0.0
35.789 6.827 -1.417 0.0
35.881 6.961 -1.422 0.0
35.837 7.07 -1.421 0.0
36.015 7.222 -1.43 0.0
36.144 7.307 -1.437 0.0
36.205 7.438 -1.44 0.0
36.287 7.574 -1.445 0.0
36.32 7.7 -1.448 0.0
36.38 7.832 -1.452 0.0
36.443 7.965 -1.456 0.0
36.502 8.098 -1.459 0.0
36.614 8.183 -1.465 0.0
36.697 8.323 -1.47 0.0
36.776 8.462 -1.475 0.0
36.873 8.607 -1.481 0.0
36.953 8.748 -1.485 0.0
34.561 8.298 -1.377 0.0
34.292 8.348 -1.366 0.0
34.218 8.387 -1.363 0.0
37.382 9.284 -1.51 0.0
37.434 9.422 -1.513 0.0
37.48 9.559 -1.517 0.0
33.892 9.273 -1.359 0.0
33.884 9.385 -1.36 0.0
33.874 9.612 -1.362 0.27
33.897 9.734 -1.365 0.0
33.917 9.797 -1.367 0.0
37.141 10.852 -1.517 0.0
37.179 10.99 -1.521 0.0
37.126 11.101 -1.52 0.0
37.047 11.204 -1.518 0.15
36.776 11.249 -1.507 0.2
36.708 11.355 -1.505 0.2
36.438 11.397 -1.494 0.16
36.157 11.371 -1.482 0.43
35.94 11.427 -1.474 0.25
35.559 11.43 -1.458 0.26
35.39 11.498 -1.451 0.27
35.071 11.517 -1.438 0.29
34.866 11.571 -1.43 0.22
34.469 11.56 -1.413 0.19
34.339 11.577 -1.408 0.46
33.949 11.564 -1.392 0.22
33.754 11.616 -1.384 0.27
33.347 11.594 -1.367 0.23
33.245 11.676 -1.364 0.3
33.065 11.729 -1.357 0.28
32.898 11.787 -1.351 0.27
32.849 11.828 -1.349 0.25
32.594 11.852 -1.339 0.3
32.551 11.952 -1.339 0.3
32.391 12.009 -1.333 0.23
32.275 12.081 -1.329 0.33
32.083 12.125 -1.322 0.25
32.01 12.212 -1.32 0.29
31.964 12.252 -1.319 0.22
31.956 12.364 -1.32 0.35
31.866 12.445 -1.318 0.3
31.9 12.574 -1.321 0.29
31.81 12.654 -1.319 0.31
31.807 12.769 -1.321 0.33
31.759 12.866 -1.32 0.32
31.761 12.924 -1.322 0.32
31.756 13.039 -1.323 0.31
31.779 13.165 -1.326 0.31
31.863 13.317 -1.332 0.32
31.85 13.429 -1.334 0.32
31.874 13.558 -1.337 0.27
32.087 13.767 -1.349 0.34
32.201 13.876 -1.356 0.26
32.034 13.924 -1.35 0.0
32.164 14.1 -1.358 0.0
35.591 15.733 -1.527 0.0
35.478 15.816 -1.524 0.0
35.454 15.939 -1.525 0.0
35.361 16.031 -1.523 0.12
35.16 16.007 -1.515 0.29
35.062 16.095 -1.512 0.25
34.835 16.124 -1.504 0.25
34.866 16.272 -1.508 0.0
35.082 16.507 -1.521 0.0
17.94 8.524 -0.68 0.0
17.803 8.528 -0.674 0.0
17.661 8.528 -0.669 0.0
17.377 8.493 -0.657 0.0
16.643 8.494 -0.627 0.0
15.887 8.523 -0.598 0.08
15.818 8.55 -0.596 0.0
17.485 9.519 -0.682 0.0
17.476 9.585 -0.683 0.0
17.504 9.672 -0.686 0.0
17.767 9.89 -0.701 0.0
16.734 9.42 -0.651 0.0
16.654 9.444 -0.648 0.0
16.64 9.505 -0.649 0.0
16.655 9.583 -0.651 0.0
16.623 9.635 -0.651 0.0
16.614 9.804 -0.654 0.0
16.554 9.839 -0.653 0.0
15.997 9.783 -0.63 0.0
15.92 9.805 -0.628 0.04
28.103 17.468 -1.268 0.33
28.121 17.602 -1.272 0.33
28.109 17.718 -1.274 0.29
28.048 17.803 -1.274 0.3
28.156 17.995 -1.283 0.34
28.222 18.162 -1.289 0.27
28.222 18.288 -1.292 0.35
28.262 18.377 -1.296 0.32
28.252 18.497 -1.298 0.29
28.222 18.604 -1.3 0.34
28.207 18.722 -1.302 0.3
28.205 18.848 -1.305 0.29
28.188 18.965 -1.307 0.29
28.309 19.111 -1.316 0.26
28.519 19.383 -1.33 0.0
12.6 8.639 -0.476 0.0
12.498 8.628 -0.472 0.0
12.422 8.633 -0.469 0.0
12.342 8.635 -0.466 0.0
12.268 8.641 -0.464 0.0
12.202 8.623 -0.461 0.0
12.131 8.63 -0.459 0.0
12.074 8.647 -0.457 0.0
11.995 8.648 -0.454 0.0
11.926 8.655 -0.452 0.0
11.876 8.676 -0.451 0.0
11.803 8.68 -0.448 0.0
11.738 8.661 -0.445 0.0
11.645 8.649 -0.442 0.0
11.581 8.658 -0.44 0.0
11.488 8.645 -0.436 0.0
11.434 8.661 -0.434 0.0
11.365 8.665 -0.432 0.0
11.298 8.671 -0.43 0.0
11.235 8.678 -0.428 0.0
11.18 8.664 -0.426 0.0
11.101 8.659 -0.423 0.0
11.039 8.666 -0.421 0.0
11.016 8.705 -0.421 0.0
11.025 8.768 -0.423 0.0
11.002 8.806 -0.423 0.0
10.991 8.854 -0.424 0.0
11.002 8.892 -0.426 0.0
10.982 8.933 -0.426 0.0
10.989 8.996 -0.428 0.0
10.98 9.046 -0.429 0.0
10.976 9.101 -0.431 0.0
10.996 9.176 -0.433 0.0
11.02 9.254 -0.436 0.0
11.01 9.275 -0.437 0.0
11.031 9.352 -0.44 0.12
11.049 9.427 -0.442 0.09
11.087 9.52 -0.446 0.15
11.133 9.62 -0.451 0.23
11.153 9.698 -0.454 0.13
16.9 14.772 -0.795 0.3
16.896 14.815 -0.796 0.28
16.941 14.949 -0.801 0.28
16.86 14.972 -0.799 0.34
17.033 15.221 -0.812 0.0
17.097 15.375 -0.819 0.0
17.028 15.41 -0.818 0.0
16.917 15.407 -0.814 0.11
16.881 15.422 -0.813 0.18
16.871 15.511 -0.816 0.2
17.035 15.76 -0.829 0.0
16.855 15.692 -0.821 0.0
16.848 15.785 -0.823 0.0
17.047 16.072 -0.838 0.0
17.055 16.18 -0.842 0.0
17.08 16.255 -0.845 0.0
18.454 17.782 -0.936 0.17
18.362 17.805 -0.934 0.31
18.252 17.809 -0.931 0.5
15.595 15.319 -0.769 0.27
15.5 15.321 -0.766 0.38
15.412 15.331 -0.763 0.33
15.351 15.318 -0.761 0.18
15.295 15.358 -0.76 0.65
15.237 15.396 -0.76 0.43
15.145 15.4 -0.757 0.33
15.057 15.407 -0.755 0.34
14.957 15.401 -0.751 0.33
14.87 15.408 -0.749 0.33
14.808 15.393 -0.746 0.35
14.719 15.397 -0.744 0.34
14.626 15.396 -0.741 0.34
14.543 15.405 -0.739 0.19
14.422 15.374 -0.734 0.45
14.496 15.55 -0.742 0.39
14.285 15.421 -0.731 0.12
14.114 15.381 -0.725 0.39
14.02 15.375 -0.722 0.61
13.932 15.376 -0.719 0.31
13.849 15.382 -0.717 0.35
13.759 15.379 -0.714 0.3
13.68 15.388 -0.712 0.31
13.616 15.364 -0.71 0.31
13.535 15.37 -0.707 0.31
13.458 15.379 -0.705 0.34
13.376 15.384 -0.703 0.3
13.201 15.377 -0.698 0.68
13.095 15.35 -0.694 0.34
13.015 15.354 -0.692 0.22
11.76 13.922 -0.607 0.59
11.891 14.166 -0.619 0.32
11.721 14.054 -0.61 0.23
11.884 14.339 -0.625 0.2
11.811 14.343 -0.623 0.34
11.73 14.336 -0.62 0.3
11.537 14.192 -0.61 0.4
11.511 14.205 -0.61 0.47
12.832 15.933 -0.706 0.2
11.864 14.829 -0.641 0.42
12.844 16.154 -0.714 0.36
12.84 16.254 -0.718 0.29
12.839 16.357 -0.721 0.2
11.008 14.121 -0.593 0.42
10.938 14.077 -0.589 0.52
11.123 14.408 -0.606 0.32
11.134 14.516 -0.61 0.24
10.615 13.931 -0.575 0.46
10.634 14.047 -0.58 0.29
10.591 14.082 -0.58 0.36
10.561 14.135 -0.581 0.41
10.49 14.086 -0.578 0.34
10.555 14.266 -0.586 0.43
10.426 14.185 -0.579 0.27
10.429 14.282 -0.583 0.36
10.124 13.958 -0.563 0.32
10.067 13.972 -0.562 0.5
10.275 14.354 -0.582 0.27
10.228 14.383 -0.581 0.5
10.18 14.363 -0.579 0.24
10.099 14.344 -0.577 0.54
10.267 14.68 -0.593 0.45
9.786 14.088 -0.559 0.15
12.361 17.904 -0.764 0.46
9.74 14.212 -0.563 0.39
9.657 14.186 -0.56 0.39
12.151 17.898 -0.759 0.35
12.074 17.906 -0.757 0.38
11.997 17.913 -0.755 0.4
11.918 17.917 -0.754 0.4
11.843 17.926 -0.752 0.39
11.761 17.925 -0.75 0.41
11.682 17.926 -0.748 0.54
9.345 14.398 -0.56 0.37
9.138 14.178 -0.547 0.29
11.483 17.927 -0.743 0.3
11.393 17.911 -0.741 0.5
11.335 17.943 -0.74 0.33
11.244 17.924 -0.738 0.51
11.177 17.943 -0.737 0.32
11.121 17.916 -0.734 0.52
11.054 17.932 -0.733 0.32
10.968 17.919 -0.731 0.45
10.894 17.924 -0.729 0.58
8.592 14.248 -0.536 0.21
10.771 17.975 -0.728 0.2
10.724 18.026 -0.729 0.51
10.659 18.044 -0.729 0.59
10.834 18.407 -0.746 0.28
10.625 18.182 -0.733 0.18
10.516 18.126 -0.728 0.14
8.13 14.128 -0.521 0.18
10.303 18.02 -0.72 0.48
10.23 18.023 -0.718 0.63
10.21 18.121 -0.722 0.33
10.188 18.147 -0.722 0.24
8.764 15.734 -0.597 0.14
8.706 15.746 -0.597 0.28
8.64 15.743 -0.595 0.55
7.725 14.187 -0.515 0.19
7.663 14.18 -0.513 0.62
9.636 17.951 -0.703 0.26
7.594 14.265 -0.515 0.33
9.524 17.945 -0.7 0.34
9.458 17.955 -0.699 0.35
9.383 17.95 -0.697 0.55
9.317 17.961 -0.696 0.34
9.24 17.951 -0.694 0.45
9.176 17.964 -0.694 0.34
9.101 17.957 -0.692 0.55
9.069 17.963 -0.691 0.34
8.997 17.961 -0.69 0.45
8.928 17.964 -0.689 0.37
8.856 17.962 -0.687 0.46
8.788 17.966 -0.686 0.36
8.719 17.967 -0.685 0.45
8.645 17.958 -0.683 0.69
6.787 14.169 -0.495 0.23
8.54 17.955 -0.681 0.68
6.68 14.173 -0.493 0.22
8.413 17.979 -0.679 0.41
8.345 17.98 -0.678 0.52
8.278 17.985 -0.677 0.51
8.21 17.985 -0.676 0.52
8.172 17.978 -0.675 0.51
8.107 17.984 -0.674 0.51
8.039 17.984 -0.673 0.51
7.974 17.991 -0.672 0.53
7.907 17.992 -0.671 0.52
7.839 17.991 -0.669 0.51
7.773 17.992 -0.668 0.53
7.707 17.996 -0.667 0.52
7.67 17.986 -0.666 0.54
7.616 18.017 -0.666 0.56
7.563 18.05 -0.667 0.6
7.534 18.14 -0.67 0.68
7.473 18.153 -0.67 0.32
7.416 18.176 -0.67 0.34
7.337 18.147 -0.667 0.27
7.21 18.078 -0.662 0.6
7.142 18.073 -0.661 0.64
7.079 18.078 -0.66 0.7
7.026 18.11 -0.66 0.59
6.984 18.171 -0.662 0.29
6.913 18.157 -0.661 0.28
6.871 18.133 -0.659 0.2
6.794 18.1 -0.656 0.23
6.715 18.061 -0.653 0.61
6.632 18.011 -0.65 0.52
6.567 18.011 -0.649 0.53
6.507 18.02 -0.649 0.54
6.442 18.018 -0.647 0.54
6.404 18.002 -0.646 0.53
6.344 18.013 -0.646 0.54
6.278 18.006 -0.645 0.52
6.216 18.009 -0.644 0.54
6.158 18.024 -0.644 0.54
6.092 18.017 -0.642 0.54
6.032 18.025 -0.642 0.54
5.969 18.025 -0.641 0.55
5.933 18.011 -0.64 0.54
5.871 18.015 -0.639 0.52
5.812 18.023 -0.639 0.48
5.747 18.015 -0.637 0.46
5.686 18.022 -0.637 0.43
5.624 18.02 -0.636 0.42
5.561 18.017 -0.635 0.53
5.531 18.022 -0.635 0.34
5.478 18.051 -0.635 0.57
5.428 18.091 -0.636 0.37
5.365 18.086 -0.635 0.61
5.312 18.117 -0.636 0.28
4.484 15.486 -0.513 0.49
4.433 15.492 -0.513 0.34
4.401 15.472 -0.512 0.47
4.352 15.484 -0.512 0.37
4.299 15.482 -0.511 0.47
4.247 15.484 -0.511 0.36
4.211 15.542 -0.513 0.64
4.159 15.545 -0.512 0.68
4.115 15.578 -0.513 0.48
4.063 15.579 -0.513 0.49
4.035 15.57 -0.512 0.47
3.984 15.577 -0.512 0.5
3.934 15.585 -0.511 0.48
3.881 15.58 -0.511 0.57
3.834 15.6 -0.511 0.65
4.267 17.586 -0.601 0.29
4.266 17.823 -0.611 0.28
3.649 15.583 -0.508 0.5
3.598 15.588 -0.508 0.51
3.547 15.592 -0.508 0.53
3.496 15.591 -0.507 0.53
3.445 15.592 -0.507 0.52
3.394 15.597 -0.506 0.51
3.363 15.571 -0.505 0.65
3.31 15.564 -0.504 0.73
3.256 15.547 -0.503 0.74
3.212 15.585 -0.504 0.4
3.161 15.585 -0.504 0.36
3.111 15.585 -0.503 0.43
3.064 15.606 -0.504 0.27
3.008 15.583 -0.502 0.55
2.982 15.576 -0.502 0.74
2.93 15.571 -0.501 0.64
2.88 15.576 -0.501 0.68
2.829 15.57 -0.5 0.67
2.779 15.572 -0.5 0.69
2.729 15.579 -0.5 0.68
2.68 15.586 -0.5 0.71
2.653 15.578 -0.499 0.71
2.603 15.576 -0.499 0.66
2.553 15.581 -0.499 0.67
2.503 15.579 -0.498 0.71
2.453 15.585 -0.498 0.72
2.403 15.582 -0.498 0.73
2.353 15.586 -0.497 0.72
2.304 15.589 -0.497 0.72
2.279 15.589 -0.497 0.74
2.228 15.586 -0.497 0.75
2.178 15.583 -0.496 0.78
2.128 15.586 -0.496 0.73
2.08 15.596 -0.496 0.76
2.024 15.553 -0.494 0.66
1.975 15.552 -0.494 0.59
1.949 15.547 -0.493 0.64
1.9 15.549 -0.493 0.64
1.85 15.547 -0.493 0.54
1.8 15.547 -0.493 0.66
1.758 15.608 -0.495 0.71
1.72 15.713 -0.499 0.41
1.728 16.252 -0.523 0.3
1.762 16.809 -0.548 0.29
1.78 18.063 -0.604 0.36
1.722 18.05 -0.603 0.7
1.654 17.934 -0.597 0.36
1.609 18.073 -0.603 0.34
1.554 18.094 -0.604 0.56
1.525 18.092 -0.604 0.55
1.468 18.091 -0.604 0.55
1.411 18.095 -0.604 0.55
1.354 18.102 -0.604 0.55
1.298 18.12 -0.604 0.6
1.243 18.142 -0.605 0.62
1.186 18.153 -0.606 0.55
1.129 18.159 -0.606 0.55
1.101 18.155 -0.605 0.56
1.043 18.156 -0.605 0.55
0.986 18.157 -0.605 0.56
0.929 18.154 -0.605 0.54
0.871 18.145 -0.604 0.66
0.813 18.112 -0.603 0.56
0.596 14.411 -0.438 0.58
0.565 14.215 -0.429 0.41
0.523 14.282 -0.432 0.37
0.478 14.298 -0.433 0.24
0.556 18.11 -0.602 0.58
0.499 18.107 -0.602 0.58
0.442 18.115 -0.602 0.58
0.385 18.118 -0.602 0.58
0.357 18.117 -0.602 0.61
0.3 18.12 -0.602 0.59
0.243 18.121 -0.602 0.57
0.186 18.125 -0.603 0.57
0.129 18.124 -0.603 0.59
0.072 18.112 -0.602 0.69
0.007 14.35 -0.435 0.43
-0.042 18.102 -0.602 0.47
-0.061 14.316 -0.433 0.31
-0.106 14.34 -0.434 0.32
-0.184 18.133 -0.603 0.54
-0.241 18.133 -0.603 0.58
-0.298 18.136 -0.603 0.6
-0.355 18.151 -0.604 0.8
-0.413 18.181 -0.605 0.6
-0.448 18.468 -0.618 0.22
-0.507 18.493 -0.619 0.16
-0.565 18.501 -0.62 0.32
-0.623 18.479 -0.619 0.16
-0.728 18.2 -0.607 0.79
-0.611 14.019 -0.421 0.37
-0.815 18.216 -0.607 0.72
-0.872 18.217 -0.608 0.67
-0.93 18.228 -0.608 0.36
-0.988 18.239 -0.609 0.39
-1.045 18.234 -0.609 0.37
-0.872 14.325 -0.435 0.26
-0.925 14.452 -0.441 0.35
-1.216 18.207 -0.608 0.64
-1.243 18.182 -0.607 0.69
-1.298 18.148 -0.606 0.61
-1.356 18.154 -0.606 0.58
-1.413 18.149 -0.606 0.6
-1.47 18.147 -0.606 0.59
-1.528 18.154 -0.607 0.59
-1.585 18.151 -0.607 0.58
-1.613 18.144 -0.607 0.6
-1.671 18.151 -0.607 0.59
-1.729 18.152 -0.607 0.59
-1.787 18.154 -0.608 0.6
-1.844 18.153 -0.608 0.6
-1.902 18.151 -0.608 0.61
-1.959 18.153 -0.608 0.6
-1.989 18.157 -0.609 0.59
-2.046 18.157 -0.609 0.59
-2.104 18.158 -0.609 0.59
-2.163 18.166 -0.61 0.57
-2.22 18.159 -0.61 0.58
-2.278 18.156 -0.61 0.58
-2.336 18.16 -0.611 0.57
-2.364 18.149 -0.61 0.53
-2.424 18.163 -0.611 0.5
-2.481 18.157 -0.611 0.52
-2.54 18.165 -0.612 0.51
-2.599 18.167 -0.613 0.54
-2.657 18.171 -0.613 0.54
-2.714 18.158 -0.613 0.47
-2.385 15.599 -0.498 0.47
-2.41 15.595 -0.498 0.32
-2.458 15.584 -0.498 0.59
-2.919 18.165 -0.615 0.2
-2.98 18.177 -0.616 0.51
-3.038 18.176 -0.616 0.51
-3.096 18.172 -0.616 0.51
-3.156 18.176 -0.617 0.53
-3.185 18.177 -0.617 0.52
-3.242 18.167 -0.617 0.51
-3.302 18.172 -0.618 0.51
-3.362 18.177 -0.619 0.51
-3.421 18.177 -0.619 0.53
-3.483 18.191 -0.62 0.57
-3.548 18.218 -0.622 0.75
-3.619 18.277 -0.625 0.66
-3.666 18.363 -0.629 0.32
-3.724 18.354 -0.629 0.28
-3.78 18.338 -0.629 0.27
-3.889 18.281 -0.628 0.5
-3.943 18.257 -0.627 0.69
-4.003 18.252 -0.627 0.75
-4.043 18.3 -0.63 0.67
-4.117 18.362 -0.633 0.34
-4.178 18.362 -0.634 0.28
-4.237 18.355 -0.634 0.27
-4.342 18.285 -0.632 0.45
-4.399 18.267 -0.632 0.64
-4.42 18.231 -0.631 0.64
-4.473 18.198 -0.63 0.51
-4.532 18.193 -0.63 0.52
-4.593 18.193 -0.631 0.51
-4.653 18.192 -0.632 0.51
-4.715 18.194 -0.632 0.52
-4.776 18.195 -0.633 0.53
-4.837 18.195 -0.634 0.51
-4.869 18.199 -0.634 0.52
-4.93 18.197 -0.635 0.53
-4.993 18.203 -0.636 0.52
-5.054 18.201 -0.637 0.49
-5.116 18.204 -0.637 0.5
-5.179 18.207 -0.638 0.48
-5.238 18.198 -0.639 0.49
-5.271 18.206 -0.639 0.49
-5.335 18.212 -0.64 0.5
-5.397 18.21 -0.641 0.52
-5.46 18.213 -0.642 0.5
-5.523 18.214 -0.643 0.5
-5.584 18.21 -0.644 0.49
-5.658 18.248 -0.646 0.65
-5.723 18.356 -0.652 0.52
-6.066 19.247 -0.694 0.39
-6.134 19.252 -0.695 0.46
-6.185 19.205 -0.694 0.16
-5.969 18.33 -0.654 0.41
-6.019 18.29 -0.653 0.59
-6.067 18.243 -0.651 0.62
-6.118 18.203 -0.651 0.49
-6.155 18.219 -0.652 0.48
-6.219 18.219 -0.653 0.5
-6.28 18.213 -0.653 0.52
-6.367 18.278 -0.657 0.7
-6.364 18.084 -0.649 0.27
-6.463 18.185 -0.655 0.23
-6.565 18.288 -0.661 0.69
-6.524 18.086 -0.652 0.34
-6.536 17.94 -0.646 0.35
-6.543 17.786 -0.639 0.33
-6.546 17.623 -0.633 0.35
-6.551 17.466 -0.626 0.36
-6.559 17.322 -0.62 0.34
-6.565 17.174 -0.614 0.36
-6.567 17.017 -0.608 0.36
-6.547 16.887 -0.602 0.35
-6.551 16.74 -0.596 0.32
-6.553 16.591 -0.59 0.34
-6.562 16.461 -0.585 0.35
-6.57 16.333 -0.579 0.34
-6.574 16.195 -0.574 0.37
-6.577 16.056 -0.568 0.37
-6.556 15.933 -0.563 0.33
-6.559 15.798 -0.557 0.37
-6.567 15.678 -0.552 0.3
-6.621 15.668 -0.553 0.41
-6.678 15.667 -0.554 0.39
-6.738 15.67 -0.555 0.4
-6.797 15.673 -0.556 0.4
-6.824 15.667 -0.556 0.41
-6.894 15.694 -0.559 0.47
-6.977 15.749 -0.563 0.29
-7.034 15.743 -0.563 0.49
-7.101 15.759 -0.565 0.38
-7.153 15.744 -0.566 0.45
-8.689 18.977 -0.725 0.39
-8.057 17.449 -0.651 0.18
-8.749 18.718 -0.715 0.38
-8.824 18.727 -0.717 0.41
-8.894 18.72 -0.718 0.31
-7.552 15.759 -0.574 0.3
-7.613 15.76 -0.575 0.4
-7.674 15.76 -0.576 0.38
-7.706 15.762 -0.577 0.45
-7.758 15.743 -0.577 0.32
-7.833 15.77 -0.58 0.62
-7.871 15.722 -0.578 0.0
-7.958 15.773 -0.582 0.11
-8.013 15.758 -0.583 0.11
-8.11 15.765 -0.585 0.64
-8.158 15.736 -0.585 0.76
-8.228 15.751 -0.587 0.37
-8.293 15.753 -0.588 0.43
-8.35 15.743 -0.589 0.36
-8.42 15.754 -0.591 0.38
-8.48 15.748 -0.592 0.35
-8.516 15.756 -0.593 0.38
-8.58 15.755 -0.594 0.38
-8.648 15.762 -0.596 0.35
-8.708 15.754 -0.597 0.41
-8.775 15.758 -0.599 0.36
-8.84 15.758 -0.6 0.42
-8.909 15.765 -0.602 0.31
-8.981 15.777 -0.604 0.35
-9.008 15.766 -0.604 0.74
-9.057 15.738 -0.604 0.46
-9.108 15.711 -0.604 0.34
-9.175 15.713 -0.606 0.44
-9.246 15.721 -0.608 0.29
-9.302 15.704 -0.608 0.52
-9.371 15.707 -0.61 0.29
-10.944 18.286 -0.744 0.4
-11.023 18.288 -0.746 0.41
-11.102 18.289 -0.748 0.42
-11.177 18.283 -0.75 0.53
-11.258 18.287 -0.752 0.39
-11.34 18.291 -0.754 0.41
-11.42 18.291 -0.755 0.45
-11.526 18.396 -0.762 0.65
-13.265 21.032 -0.902 0.35
-13.262 20.882 -0.897 0.16
-11.847 18.391 -0.769 0.46
-11.908 18.359 -0.77 0.7
-12.125 18.568 -0.783 0.39
-13.295 20.224 -0.873 0.21
-12.264 18.462 -0.782 0.31
-12.353 18.47 -0.785 0.36
-12.366 18.363 -0.781 0.43
-12.406 18.299 -0.78 0.67
-12.481 18.285 -0.781 0.49
-12.569 18.29 -0.783 0.27
-6.742 9.757 -0.324 0.25
-6.787 9.756 -0.325 0.28
-6.826 9.748 -0.326 0.3
-6.865 9.738 -0.326 0.29
-6.858 9.662 -0.323 0.0
-6.955 9.735 -0.329 0.11
-7.043 9.728 -0.331 0.36
-7.075 9.74 -0.332 0.35
-7.12 9.739 -0.333 0.35
-7.166 9.737 -0.334 0.3
-7.212 9.736 -0.335 0.34
-7.262 9.739 -0.337 0.33
-7.305 9.732 -0.338 0.32
-7.345 9.721 -0.338 0.21
-6.575 8.67 -0.28 0.34
-6.612 8.662 -0.281 0.31
-6.65 8.656 -0.282 0.35
-6.697 8.66 -0.283 0.35
-6.741 8.661 -0.285 0.33
-6.774 8.648 -0.285 0.24
-6.804 8.629 -0.285 0.0
-6.841 8.649 -0.287 0.0
-6.868 8.627 -0.287 0.0
-6.905 8.618 -0.288 0.11
-7.836 9.723 -0.352 0.19
-7.893 9.731 -0.354 0.0
-7.886 9.659 -0.351 0.1
-7.982 9.715 -0.356 0.23
-8.028 9.74 -0.358 0.2
-15.088 18.224 -0.849 0.19
-15.103 18.125 -0.846 0.34
-15.112 18.021 -0.842 0.39
-15.122 17.919 -0.839 0.41
-15.126 17.808 -0.836 0.41
-15.132 17.703 -0.832 0.4
-15.127 17.584 -0.828 0.41
-15.097 17.494 -0.824 0.46
-15.122 17.412 -0.822 0.31
-15.166 17.352 -0.821 0.52
-15.273 17.364 -0.825 0.33
-15.358 17.351 -0.827 0.63
-15.441 17.335 -0.829 0.3
-16.564 18.481 -0.9 0.3
-16.552 18.352 -0.896 0.61
-16.702 18.459 -0.904 0.0
-7.792 8.537 -0.311 0.0
-7.837 8.532 -0.312 0.0
-7.939 8.535 -0.315 0.25
-7.977 8.522 -0.316 0.37
-8.025 8.52 -0.317 0.37
-8.058 8.528 -0.318 0.27
-15.115 15.829 -0.77 0.28
-15.09 15.704 -0.765 0.36
-15.097 15.613 -0.762 0.36
-15.095 15.513 -0.759 0.39
-15.163 15.485 -0.76 0.35
-15.061 15.333 -0.752 0.31
-15.08 15.256 -0.75 0.45
-15.145 15.225 -0.752 0.31
-15.145 15.129 -0.749 0.44
-15.209 15.099 -0.75 0.34
-15.185 14.981 -0.745 0.3
-15.177 14.878 -0.742 0.5
-15.19 14.844 -0.741 0.29
-15.161 14.723 -0.736 0.35
-15.223 14.69 -0.737 0.59
-15.42 14.788 -0.747 0.22
-15.533 14.803 -0.751 0.34
-15.282 14.472 -0.733 0.33
-15.274 14.373 -0.729 0.38
-15.254 14.309 -0.727 0.36
-15.292 14.255 -0.726 0.35
-15.287 14.16 -0.723 0.45
-15.385 14.162 -0.726 0.27
-15.358 14.048 -0.722 0.5
-15.461 14.053 -0.726 0.3
-15.415 13.923 -0.72 0.34
-15.458 13.874 -0.72 0.31
-15.447 13.821 -0.718 0.45
-15.534 13.811 -0.721 0.38
-15.646 13.823 -0.725 0.41
-15.736 13.814 -0.728 0.22
-15.839 13.818 -0.731 0.54
-15.887 13.772 -0.732 0.25
-15.968 13.754 -0.734 0.59
-16.19 13.901 -0.746 0.38
-16.201 13.823 -0.744 0.3
-16.126 13.671 -0.737 0.39
-16.186 13.635 -0.738 0.28
-16.334 13.672 -0.744 0.33
-16.411 13.649 -0.746 0.43
-16.615 13.731 -0.755 0.39
-16.663 13.683 -0.755 0.31
-16.692 13.663 -0.756 0.41
-16.741 13.616 -0.756 0.36
-16.85 13.617 -0.76 0.33
-16.949 13.609 -0.763 0.41
-17.199 13.722 -0.775 0.3
-17.156 13.599 -0.77 0.43
-17.204 13.549 -0.77 0.39
-17.302 13.583 -0.775 0.31
-17.484 13.638 -0.783 0.28
-17.507 13.567 -0.781 0.43
-17.638 13.58 -0.786 0.43
-17.72 13.555 -0.789 0.34
-17.761 13.498 -0.789 0.27
-17.784 13.428 -0.788 0.46
-17.98 13.487 -0.796 0.38
-18.044 13.491 -0.798 0.39
-18.131 13.468 -0.801 0.25
-18.327 13.525 -0.809 0.33
-18.458 13.532 -0.814 0.33
-18.512 13.482 -0.815 0.5
-18.671 13.509 -0.821 0.28
-18.783 13.545 -0.826 0.31
-21.63 15.5 -0.98 0.41
-21.685 15.436 -0.98 0.25
-21.811 15.423 -0.985 0.37
-21.923 15.4 -0.988 0.45
-22.072 15.401 -0.993 0.19
-20.758 14.385 -0.92 0.29
-20.701 14.25 -0.914 0.4
-20.69 14.194 -0.912 0.32
-20.707 14.11 -0.911 0.3
-20.695 14.007 -0.908 0.33
-20.725 13.933 -0.907 0.5
-20.958 13.994 -0.917 0.23
-20.801 13.795 -0.907 0.36
-20.756 13.671 -0.902 0.4
-20.867 13.698 -0.907 0.3
-21.022 13.705 -0.913 0.35
-21.089 13.654 -0.914 0.37
-21.236 13.655 -0.919 0.34
-21.332 13.623 -0.922 0.38
-21.468 13.615 -0.927 0.34
-21.595 13.6 -0.931 0.39
-21.674 13.603 -0.935 0.34
-21.81 13.593 -0.939 0.32
-21.901 13.555 -0.942 0.36
-22.114 13.591 -0.951 0.35
-22.353 13.641 -0.961 0.34
-22.621 13.708 -0.973 0.26
-22.734 13.679 -0.976 0.39
-22.82 13.633 -0.979 0.36
-22.832 13.592 -0.978 0.0
-25.366 14.996 -1.107 0.07
-25.539 14.99 -1.113 0.08
-25.719 14.987 -1.12 0.08
-25.9 14.984 -1.127 0.09
-26.091 14.986 -1.135 0.19
-26.268 14.978 -1.141 0.12
-26.354 14.972 -1.145 0.25
-26.418 14.899 -1.145 0.33
-26.604 14.894 -1.153 0.49
-27.742 15.418 -1.208 0.21
-27.747 15.307 -1.206 0.34
-27.756 15.198 -1.204 0.33
-27.827 15.124 -1.205 0.25
-27.922 15.119 -1.209 0.19
-27.971 15.032 -1.209 0.18
-29.248 15.601 -1.271 0.16
-29.354 15.539 -1.274 0.17
-29.811 15.662 -1.294 0.16
-29.941 15.611 -1.298 0.17
-30.29 15.672 -1.313 0.2
-30.647 15.796 -1.33 0.37
-30.52 15.609 -1.321 0.22
-30.674 15.567 -1.326 0.29
-27.676 13.933 -1.175 0.21
-27.666 13.82 -1.172 0.37
-27.654 13.705 -1.169 0.27
-27.634 13.587 -1.166 0.31
-27.619 13.526 -1.164 0.36
-27.692 13.454 -1.166 0.28
-27.801 13.399 -1.169 0.32
-27.922 13.35 -1.173 0.35
-28.051 13.303 -1.177 0.32
-28.307 13.316 -1.188 0.31
-28.561 13.326 -1.198 0.34
-28.748 13.304 -1.205 0.24
-28.845 13.294 -1.209 0.0
-29.5 13.484 -1.239 0.0
-29.986 13.593 -1.261 0.0
-30.142 13.55 -1.266 0.0
-30.299 13.507 -1.272 0.0
-30.493 13.478 -1.279 0.0
-30.696 13.453 -1.287 0.0
-30.95 13.507 -1.298 0.1
-31.276 13.533 -1.312 0.2
-31.245 13.403 -1.309 0.27
-31.421 13.362 -1.315 0.21
-31.439 13.253 -1.314 0.16
-31.615 13.21 -1.32 0.39
-31.457 13.028 -1.311 0.22
-31.666 13.057 -1.32 0.29
-31.585 12.907 -1.314 0.0
-24.092 7.903 -0.924 0.0
-40.273 12.741 -1.675 0.35
-40.389 12.638 -1.679 0.17
-40.535 12.545 -1.684 0.14
-41.123 12.585 -1.709 0.09
-41.589 12.585 -1.729 0.2
-41.812 12.51 -1.738 0.0
-42.355 12.528 -1.761 0.0
-43.08 12.596 -1.793 0.0
-30.846 8.958 -1.225 0.0
-30.572 8.775 -1.211 0.0
-30.521 8.656 -1.207 0.05
-30.594 8.573 -1.21 0.14
-30.7 8.499 -1.213 0.24
-30.692 8.393 -1.212 0.3
-30.62 8.27 -1.207 0.0
-30.449 8.172 -1.199 0.0
-30.492 8.081 -1.199 0.0
-30.722 8.039 -1.209 0.0
-30.724 7.937 -1.208 0.0
-30.716 7.832 -1.206 0.0
-30.744 7.736 -1.206 0.0
-30.722 7.628 -1.204 0.06
-30.699 7.571 -1.203 0.15
-30.711 7.472 -1.202 0.25
-30.754 7.38 -1.203 0.0
-31.064 7.351 -1.216 0.0
-31.368 7.319 -1.229 0.0
-31.671 7.286 -1.242 0.0
-32.003 7.257 -1.256 0.0
-32.307 7.272 -1.269 0.0
-32.622 7.236 -1.283 0.0
-32.969 7.204 -1.297 0.0
-33.321 7.172 -1.312 0.0
-33.637 7.13 -1.326 0.0
-52.783 11.03 -2.195 0.0
-53.445 10.994 -2.223 0.0
-56.554 11.45 -2.363 0.0
-57.347 11.517 -2.398 0.0
-58.404 11.539 -2.444 0.0
-58.462 11.359 -2.445 0.0
-58.399 11.157 -2.441 0.0
-58.481 10.982 -2.443 0.0
-58.57 10.809 -2.445 0.0
-58.989 10.695 -2.463 0.0
-59.208 10.638 -2.472 0.0
-60.961 10.757 -2.55 0.0
-60.91 10.55 -2.546 0.0
-60.685 10.315 -2.534 0.0
-61.872 10.317 -2.586 0.0
-62.069 10.15 -2.594 0.0
-62.827 10.072 -2.626 0.0
-62.789 9.964 -2.624 0.0
-67.245 10.457 -2.823 0.0
-67.313 10.251 -2.825 0.0
-67.323 10.036 -2.824 0.0
-67.243 9.808 -2.819 0.0
-67.59 9.642 -2.833 0.0
-67.468 9.409 -2.826 0.0
-67.655 9.218 -2.833 0.0
-68.45 9.217 -2.868 0.0
-69.083 9.082 -2.895 0.0
-70.011 8.981 -2.936 0.0
-70.941 8.874 -2.976 0.0
-71.521 8.719 -3.001 0.0
-72.461 8.603 -3.042 0.0
-73.863 8.534 -3.103 0.0
-74.266 8.463 -3.121 0.0
-74.891 8.296 -3.148 0.0
-58.304 6.267 -2.405 0.0
-58.102 5.692 -2.393 0.24
-58.162 5.514 -2.395 0.67
-58.216 5.334 -2.397 0.0
-58.008 5.04 -2.386 0.0
-64.643 4.087 -2.677 0.66
-64.428 3.87 -2.667 0.0
-67.512 3.312 -2.803 0.0
-70.925 -1.535 -2.952 0.0
-65.239 -10.627 -2.736 0.0
-65.967 -11.811 -2.777 0.0
-65.893 -11.905 -2.775 0.0
-58.215 -12.325 -2.443 0.0
-57.818 -12.431 -2.427 0.0
-57.351 -12.52 -2.407 0.0
-56.75 -12.576 -2.382 0.0
-55.579 -12.5 -2.33 0.0
-55.119 -12.488 -2.31 0.0
-54.1 -12.436 -2.265 0.0
-53.923 -12.574 -2.259 0.0
-54.122 -12.8 -2.27 0.0
-53.462 -12.821 -2.242 0.0
-52.202 -12.693 -2.186 0.0
-53.0 -13.064 -2.224 0.0
-52.14 -12.939 -2.186 0.0
-50.438 -12.686 -2.11 0.0
-52.022 -13.257 -2.184 0.0
-51.53 -13.305 -2.163 0.0
-50.991 -13.337 -2.141 0.0
-48.084 -12.739 -2.009 0.0
-47.559 -12.761 -1.987 0.0
-47.512 -12.828 -1.985 0.0
-47.273 -12.923 -1.976 0.0
-48.765 -13.495 -2.047 0.0
-47.277 -13.244 -1.98 0.0
-52.969 -15.015 -2.245 0.0
-52.856 -15.162 -2.242 0.0
-52.762 -15.315 -2.24 0.0
-52.24 -15.342 -2.218 0.0
-51.821 -15.308 -2.2 0.0
-51.403 -15.36 -2.183 0.11
-37.048 -11.205 -1.518 0.18
-36.896 -11.286 -1.512 0.16
-36.878 -11.407 -1.513 0.41
-36.888 -11.537 -1.515 0.22
-36.874 -11.66 -1.516 0.25
-31.63 -10.17 -1.274 0.31
-31.606 -10.272 -1.275 0.18
-31.48 -10.341 -1.27 0.24
-31.315 -10.395 -1.264 0.0
-31.267 -10.489 -1.263 0.0
-44.805 -15.175 -1.9 0.0
-47.481 -16.163 -2.027 0.0
-47.301 -16.268 -2.021 0.0
-43.509 -15.119 -1.845 0.0
-46.855 -16.444 -2.005 0.0
-42.347 -15.014 -1.795 0.0
-41.793 -14.966 -1.771 0.0
-46.26 -16.727 -1.984 0.0
-46.016 -16.803 -1.975 0.0
-45.815 -16.811 -1.967 0.0
-45.61 -16.899 -1.96 0.0
-45.409 -16.987 -1.953 0.0
-45.105 -17.035 -1.941 0.0
-44.939 -17.134 -1.935 0.0
-44.771 -17.231 -1.93 0.0
-44.493 -17.285 -1.919 0.0
-44.334 -17.303 -1.913 0.07
-44.051 -17.353 -1.902 0.08
-43.916 -17.459 -1.898 0.0
-43.646 -17.511 -1.888 0.12
-43.307 -17.533 -1.874 0.0
-42.902 -17.527 -1.858 0.07
-41.729 -17.201 -1.804 0.0
-42.057 -17.413 -1.821 0.0
-41.694 -17.417 -1.806 0.0
-39.358 -16.734 -1.699 0.0
-39.324 -16.865 -1.699 0.0
-40.197 -17.389 -1.744 0.0
-39.834 -17.381 -1.729 0.0
-39.512 -17.315 -1.715 0.0
-39.169 -17.311 -1.701 0.11
-38.807 -17.298 -1.686 0.09
-38.47 -17.293 -1.672 0.08
-38.143 -17.29 -1.659 0.14
-37.836 -17.295 -1.647 0.09
-37.507 -17.287 -1.633 0.09
-37.19 -17.283 -1.62 0.09
-36.904 -17.221 -1.608 0.08
-36.616 -17.227 -1.596 0.0
-36.303 -17.22 -1.584 0.0
-36.036 -17.232 -1.573 0.0
-35.75 -17.233 -1.562 0.0
-35.487 -17.244 -1.551 0.0
-35.212 -17.248 -1.54 0.12
-34.934 -17.18 -1.528 0.09
-34.654 -17.178 -1.517 0.15
-34.366 -17.17 -1.505 0.09
-34.076 -17.159 -1.493 0.09
-33.797 -17.153 -1.482 0.09
-33.556 -17.163 -1.473 0.14
-33.28 -17.154 -1.462 0.23
-33.045 -17.099 -1.451 0.25
-32.774 -17.089 -1.44 0.26
-32.516 -17.086 -1.43 0.11
-32.063 -16.977 -1.41 0.14
-31.807 -16.969 -1.4 0.18
-31.607 -16.991 -1.392 0.21
-31.517 -17.07 -1.391 0.12
-31.295 -17.077 -1.382 0.16
-31.063 -17.014 -1.372 0.12
-30.836 -17.016 -1.363 0.17
-30.586 -17.004 -1.353 0.12
-30.369 -17.009 -1.345 0.17
-30.133 -17.001 -1.335 0.11
-29.905 -16.997 -1.326 0.16
-29.663 -16.983 -1.317 0.1
-29.475 -16.937 -1.308 0.15
-29.269 -16.942 -1.301 0.21
-29.045 -16.934 -1.292 0.16
-28.847 -16.94 -1.284 0.3
-28.628 -16.933 -1.276 0.17
-28.393 -16.915 -1.266 0.17
-28.201 -16.921 -1.259 0.13
-28.001 -16.861 -1.25 0.16
-27.816 -16.869 -1.243 0.29
-27.599 -16.857 -1.235 0.19
-27.417 -16.864 -1.228 0.36
-27.206 -16.852 -1.22 0.16
-27.019 -16.854 -1.213 0.36
-26.827 -16.852 -1.205 0.19
-26.663 -16.808 -1.198 0.24
-26.472 -16.804 -1.191 0.18
-26.274 -16.795 -1.183 0.32
-26.09 -16.793 -1.176 0.25
-25.896 -16.784 -1.169 0.19
-25.72 -16.784 -1.162 0.4
-25.542 -16.783 -1.156 0.23
-25.392 -16.741 -1.149 0.23
-25.204 -16.732 -1.142 0.21
-25.027 -16.728 -1.135 0.19
-24.853 -16.725 -1.129 0.41
-24.694 -16.731 -1.123 0.24
-24.538 -16.738 -1.117 0.27
-24.345 -16.719 -1.11 0.16
-24.189 -16.724 -1.104 0.46
-24.069 -16.697 -1.099 0.21
-23.898 -16.69 -1.093 0.24
-23.731 -16.685 -1.087 0.15
-23.581 -16.69 -1.081 0.37
-23.406 -16.677 -1.075 0.2
-23.243 -16.672 -1.069 0.18
-23.093 -16.675 -1.063 0.46
-22.968 -16.639 -1.058 0.25
-22.816 -16.639 -1.052 0.28
-22.662 -16.636 -1.047 0.26
-22.519 -16.64 -1.042 0.29
-22.369 -16.638 -1.036 0.3
-22.214 -16.632 -1.031 0.3
-22.072 -16.635 -1.026 0.28
-21.946 -16.593 -1.02 0.27
-21.798 -16.59 -1.015 0.3
-21.659 -16.591 -1.01 0.27
-21.522 -16.595 -1.005 0.26
-21.374 -16.588 -1.0 0.28
-21.222 -16.577 -0.994 0.21
-21.098 -16.587 -0.99 0.3
-20.998 -16.562 -0.986 0.32
-20.86 -16.56 -0.981 0.29
-20.723 -16.558 -0.976 0.27
-20.599 -16.566 -0.972 0.32
-20.466 -16.565 -0.967 0.28
-20.32 -16.552 -0.962 0.3
-20.181 -16.545 -0.957 0.3
-20.078 -16.513 -0.953 0.34
-19.955 -16.518 -0.949 0.32
-19.831 -16.52 -0.944 0.32
-19.711 -16.526 -0.94 0.36
-19.568 -16.511 -0.935 0.26
-19.385 -16.461 -0.928 0.25
-19.202 -16.411 -0.92 0.46
-19.202 -16.515 -0.923 0.33
-19.096 -16.476 -0.918 0.32
-18.98 -16.481 -0.914 0.32
-18.858 -16.479 -0.91 0.32
-18.738 -16.479 -0.906 0.33
-18.616 -16.475 -0.902 0.28
-18.51 -16.486 -0.899 0.38
-18.372 -16.467 -0.894 0.3
-18.278 -16.434 -0.89 0.25
-18.171 -16.442 -0.886 0.39
-18.06 -16.445 -0.883 0.31
-17.936 -16.436 -0.878 0.29
-17.827 -16.439 -0.875 0.31
-17.713 -16.437 -0.871 0.27
-11.255 -10.524 -0.482 0.27
-11.204 -10.509 -0.48 0.37
-11.146 -10.52 -0.478 0.41
-11.119 -10.561 -0.478 0.41
-11.107 -10.617 -0.48 0.29
-11.072 -10.65 -0.48 0.59
-10.702 -10.36 -0.459 0.24
-10.601 -10.327 -0.455 0.38
-10.56 -10.32 -0.453 0.37
-10.526 -10.352 -0.453 0.39
-10.495 -10.386 -0.453 0.42
-10.47 -10.426 -0.454 0.47
-10.475 -10.497 -0.456 0.37
-10.466 -10.554 -0.457 0.45
-10.443 -10.597 -0.458 0.56
-16.049 -16.368 -0.816 0.2
-15.962 -16.33 -0.812 0.25
-15.88 -16.349 -0.81 0.37
-15.777 -16.346 -0.807 0.36
-15.67 -16.338 -0.803 0.28
-15.588 -16.355 -0.801 0.39
-15.487 -16.352 -0.798 0.26
-15.392 -16.354 -0.795 0.32
-15.31 -16.318 -0.792 0.25
-15.218 -16.322 -0.789 0.34
-15.109 -16.309 -0.785 0.29
-15.009 -16.303 -0.782 0.3
-14.927 -16.316 -0.78 0.39
-14.826 -16.309 -0.777 0.29
-14.728 -16.303 -0.774 0.28
-14.67 -16.291 -0.771 0.37
-14.573 -16.286 -0.768 0.34
-14.481 -16.286 -0.766 0.31
-14.39 -16.286 -0.763 0.3
-14.312 -16.301 -0.761 0.44
-14.213 -16.292 -0.758 0.32
-14.118 -16.285 -0.755 0.26
-14.054 -16.264 -0.752 0.34
-13.96 -16.258 -0.75 0.34
-13.876 -16.264 -0.747 0.33
-13.781 -16.255 -0.744 0.31
-13.698 -16.26 -0.742 0.32
-13.599 -16.247 -0.739 0.28
-13.52 -16.256 -0.737 0.33
-13.443 -16.267 -0.735 0.36
-13.383 -16.247 -0.733 0.27
-13.292 -16.239 -0.73 0.36
-13.209 -16.242 -0.728 0.37
-13.125 -16.243 -0.725 0.34
-13.033 -16.233 -0.722 0.37
-12.954 -16.24 -0.72 0.39
-12.866 -16.233 -0.718 0.4
-12.798 -16.2 -0.715 0.3
-12.718 -16.203 -0.713 0.38
-12.633 -16.2 -0.71 0.29
-12.553 -16.202 -0.708 0.37
-12.479 -16.211 -0.706 0.36
-12.396 -16.209 -0.704 0.34
-12.319 -16.213 -0.702 0.35
-12.264 -16.194 -0.7 0.43
-12.181 -16.189 -0.698 0.37
-12.102 -16.191 -0.695 0.33
-12.027 -16.197 -0.694 0.39
-11.949 -16.198 -0.692 0.4
-11.86 -16.183 -0.689 0.41
-11.774 -16.172 -0.686 0.36
-11.723 -16.155 -0.684 0.3
-11.655 -16.168 -0.683 0.47
-11.575 -16.164 -0.681 0.29
-11.494 -16.158 -0.678 0.32
-11.417 -16.158 -0.676 0.36
-11.343 -16.161 -0.675 0.34
-11.27 -16.164 -0.673 0.35
-11.21 -16.132 -0.67 0.38
-11.143 -16.144 -0.669 0.43
-11.061 -16.133 -0.666 0.36
-10.994 -16.145 -0.665 0.34
-10.92 -16.144 -0.663 0.42
-10.838 -16.132 -0.661 0.36
-10.766 -16.135 -0.659 0.34
-10.719 -16.118 -0.657 0.32
-10.646 -16.119 -0.656 0.32
-10.577 -16.124 -0.654 0.48
-6.724 -10.338 -0.345 0.24
-6.659 -10.308 -0.342 0.28
-6.602 -10.292 -0.34 0.58
-6.562 -10.301 -0.34 0.38
-6.553 -10.322 -0.34 0.35
-6.527 -10.352 -0.341 0.42
-6.508 -10.395 -0.342 0.64
-10.027 -16.101 -0.64 0.26
-9.956 -16.1 -0.638 0.33
-9.881 -16.092 -0.636 0.38
-9.811 -16.09 -0.635 0.38
-9.741 -16.09 -0.633 0.33
-9.702 -16.082 -0.632 0.4
-9.626 -16.071 -0.63 0.41
-9.57 -16.091 -0.629 0.32
-9.493 -16.076 -0.627 0.57
-6.14 -10.491 -0.337 0.19
-6.105 -10.507 -0.337 0.37
-6.063 -10.511 -0.336 0.34
-6.035 -10.499 -0.335 0.48
-6.012 -10.537 -0.336 0.36
-5.98 -10.558 -0.336 0.5
-5.986 -10.646 -0.34 0.68
-8.979 -16.06 -0.615 0.21
-8.906 -16.048 -0.613 0.39
-8.842 -16.05 -0.611 0.37
-8.802 -16.037 -0.61 0.33
-8.733 -16.032 -0.608 0.39
-8.669 -16.033 -0.607 0.37
-8.605 -16.035 -0.606 0.34
-8.538 -16.032 -0.604 0.38
-8.474 -16.032 -0.603 0.34
-8.41 -16.032 -0.602 0.39
-8.335 -16.013 -0.599 0.45
-8.304 -16.013 -0.599 0.33
-8.242 -16.018 -0.598 0.39
-8.171 -16.003 -0.596 0.43
-8.115 -16.018 -0.595 0.27
-8.05 -16.015 -0.594 0.46
-7.982 -16.004 -0.592 0.38
-7.951 -16.004 -0.591 0.37
-7.882 -15.992 -0.589 0.39
-7.822 -15.997 -0.588 0.39
-4.544 -9.392 -0.26 0.27
-4.535 -9.45 -0.263 0.56
-4.304 -9.042 -0.242 0.24
-4.252 -9.007 -0.239 0.53
-4.219 -9.009 -0.239 0.36
-4.195 -8.996 -0.238 0.36
-4.187 -9.053 -0.24 0.5
-4.18 -9.111 -0.242 0.25
-4.253 -9.348 -0.253 0.65
-4.331 -9.596 -0.265 0.25
-4.039 -9.03 -0.236 0.29
-3.991 -8.997 -0.234 0.4
-3.984 -9.02 -0.235 0.43
-3.99 -9.111 -0.239 0.19
-4.013 -9.242 -0.245 0.51
-3.967 -9.215 -0.243 0.37
-3.878 -9.087 -0.236 0.37
-3.846 -9.092 -0.236 0.45
-3.821 -9.112 -0.236 0.34
-3.831 -9.177 -0.239 0.49
-3.817 -9.224 -0.24 0.33
-3.761 -9.169 -0.237 0.45
-3.724 -9.162 -0.236 0.39
-3.707 -9.204 -0.238 0.29
-3.688 -9.239 -0.239 0.39
-3.651 -9.23 -0.238 0.47
-3.625 -9.208 -0.237 0.25
-3.663 -9.389 -0.245 0.6
-3.64 -9.417 -0.245 0.22
-6.118 -15.927 -0.555 0.32
-6.059 -15.921 -0.554 0.38
-6.006 -15.933 -0.554 0.23
-5.943 -15.918 -0.552 0.52
-5.911 -15.909 -0.551 0.4
-5.853 -15.905 -0.55 0.34
-5.794 -15.9 -0.549 0.36
-5.738 -15.9 -0.548 0.36
-5.682 -15.901 -0.547 0.35
-5.622 -15.892 -0.546 0.34
-5.573 -15.912 -0.546 0.24
-5.512 -15.897 -0.545 0.46
-5.478 -15.881 -0.544 0.36
-5.424 -15.885 -0.543 0.45
-5.373 -15.9 -0.543 0.23
-5.315 -15.892 -0.542 0.56
-5.254 -15.875 -0.54 0.36
-5.195 -15.865 -0.539 0.36
-5.143 -15.875 -0.539 0.37
-5.112 -15.864 -0.538 0.36
-5.057 -15.865 -0.537 0.37
-5.005 -15.871 -0.537 0.33
-4.952 -15.877 -0.536 0.44
-4.895 -15.87 -0.535 0.38
-4.838 -15.862 -0.534 0.41
-4.783 -15.86 -0.533 0.37
-4.75 -15.841 -0.532 0.36
-4.698 -15.85 -0.532 0.39
-4.644 -15.849 -0.531 0.32
-4.591 -15.854 -0.531 0.31
-4.54 -15.865 -0.53 0.42
-4.483 -15.854 -0.529 0.4
-4.426 -15.841 -0.528 0.35
-4.402 -15.85 -0.528 0.35
-4.347 -15.844 -0.527 0.43
-4.292 -15.841 -0.526 0.36
-4.237 -15.835 -0.525 0.38
-4.186 -15.842 -0.525 0.37
-4.132 -15.842 -0.525 0.34
-4.077 -15.831 -0.524 0.39
-4.047 -15.82 -0.523 0.3
-3.996 -15.829 -0.523 0.4
-3.941 -15.82 -0.522 0.38
-3.889 -15.821 -0.521 0.38
-3.835 -15.818 -0.52 0.37
-3.785 -15.826 -0.52 0.42
-3.73 -15.816 -0.519 0.34
-3.676 -15.81 -0.518 0.47
-3.651 -15.814 -0.518 0.32
-3.597 -15.81 -0.518 0.46
-3.548 -15.821 -0.518 0.37
-3.493 -15.809 -0.516 0.46
-3.443 -15.818 -0.516 0.3
-3.388 -15.805 -0.515 0.46
-3.36 -15.795 -0.515 0.43
-3.312 -15.813 -0.515 0.28
-3.259 -15.81 -0.514 0.45
-3.206 -15.8 -0.513 0.44
-3.153 -15.795 -0.513 0.39
-3.104 -15.808 -0.513 0.37
-3.051 -15.802 -0.512 0.3
-2.998 -15.794 -0.511 0.44
-2.971 -15.787 -0.511 0.41
-2.918 -15.777 -0.51 0.37
-2.869 -15.79 -0.51 0.38
-2.818 -15.791 -0.51 0.39
-2.765 -15.784 -0.509 0.34
-2.715 -15.786 -0.509 0.44
-2.661 -15.771 -0.508 0.34
-2.635 -15.766 -0.507 0.36
-2.585 -15.77 -0.507 0.35
-2.534 -15.77 -0.507 0.37
-2.481 -15.756 -0.506 0.38
-2.431 -15.764 -0.506 0.38
-2.382 -15.771 -0.506 0.36
-2.328 -15.753 -0.505 0.47
-2.303 -15.755 -0.505 0.35
-2.251 -15.744 -0.504 0.37
-2.2 -15.741 -0.503 0.35
-2.136 -15.641 -0.499 0.42
-2.086 -15.638 -0.498 0.4
-2.036 -15.639 -0.498 0.39
-1.988 -15.659 -0.498 0.28
-1.961 -15.642 -0.498 0.47
-1.911 -15.64 -0.497 0.38
-1.86 -15.632 -0.497 0.35
-1.809 -15.624 -0.496 0.38
-1.761 -15.634 -0.496 0.36
-1.712 -15.645 -0.496 0.32
-1.662 -15.636 -0.496 0.39
-1.636 -15.627 -0.495 0.45
-1.586 -15.626 -0.495 0.26
-1.546 -15.721 -0.499 0.48
-1.496 -15.721 -0.499 0.36
-1.446 -15.72 -0.499 0.37
-1.396 -15.719 -0.498 0.45
-1.346 -15.709 -0.498 0.36
-1.296 -15.711 -0.498 0.38
-1.272 -15.721 -0.498 0.3
-1.222 -15.709 -0.497 0.53
-1.172 -15.717 -0.497 0.26
-1.122 -15.704 -0.497 0.51
-1.073 -15.71 -0.497 0.36
-1.023 -15.701 -0.496 0.44
-0.998 -15.701 -0.496 0.42
-0.948 -15.702 -0.496 0.43
-0.898 -15.695 -0.496 0.33
-0.849 -15.694 -0.495 0.45
-0.8 -15.712 -0.496 0.24
-0.75 -15.695 -0.495 0.49
-0.701 -15.693 -0.495 0.38
-0.676 -15.696 -0.495 0.42
-0.626 -15.684 -0.495 0.46
-0.577 -15.682 -0.494 0.39
-0.527 -15.682 -0.494 0.41
-0.478 -15.685 -0.494 0.36
-0.428 -15.671 -0.494 0.48
-0.379 -15.682 -0.494 0.29
-0.33 -15.677 -0.494 0.48
-0.306 -15.694 -0.495 0.29
-0.256 -15.67 -0.493 0.52
-0.207 -15.677 -0.494 0.27
-0.157 -15.66 -0.493 0.54
-0.108 -15.654 -0.493 0.4
-0.059 -15.66 -0.493 0.33
-0.01 -15.655 -0.493 0.44
0.015 -15.653 -0.493 0.36
0.064 -15.646 -0.492 0.34
0.113 -15.652 -0.493 0.39
0.162 -15.648 -0.492 0.45
0.211 -15.647 -0.492 0.39
0.261 -15.64 -0.492 0.36
0.31 -15.642 -0.492 0.37
0.334 -15.643 -0.492 0.4
0.384 -15.648 -0.493 0.27
0.432 -15.633 -0.492 0.51
0.482 -15.641 -0.492 0.3
0.531 -15.642 -0.493 0.4
0.58 -15.642 -0.493 0.42
0.629 -15.634 -0.492 0.41
0.654 -15.629 -0.492 0.39
0.703 -15.629 -0.492 0.41
0.752 -15.627 -0.492 0.34
0.801 -15.618 -0.492 0.42
0.85 -15.621 -0.492 0.4
0.899 -15.621 -0.492 0.38
0.948 -15.618 -0.492 0.38
0.973 -15.62 -0.493 0.4
1.022 -15.615 -0.492 0.33
1.071 -15.61 -0.492 0.35
1.12 -15.614 -0.493 0.42
1.169 -15.603 -0.492 0.31
1.219 -15.607 -0.493 0.27
1.268 -15.609 -0.493 0.4
1.317 -15.605 -0.493 0.39
1.342 -15.603 -0.493 0.4
1.391 -15.607 -0.493 0.34
1.44 -15.596 -0.493 0.43
1.489 -15.59 -0.493 0.43
1.538 -15.587 -0.493 0.43
1.586 -15.58 -0.493 0.34
1.636 -15.579 -0.493 0.38
1.661 -15.582 -0.493 0.42
1.711 -15.583 -0.494 0.33
1.76 -15.585 -0.494 0.39
1.809 -15.578 -0.494 0.36
1.859 -15.58 -0.494 0.34
1.908 -15.576 -0.494 0.36
1.958 -15.578 -0.495 0.32
1.982 -15.575 -0.495 0.38
2.031 -15.569 -0.495 0.43
2.083 -15.584 -0.496 0.35
2.135 -15.595 -0.497 0.39
2.181 -15.571 -0.496 0.45
2.23 -15.566 -0.496 0.33
2.281 -15.574 -0.497 0.39
2.305 -15.565 -0.496 0.43
2.353 -15.552 -0.496 0.28
2.403 -15.552 -0.496 0.45
2.453 -15.554 -0.497 0.32
2.502 -15.544 -0.497 0.41
2.552 -15.546 -0.497 0.31
2.604 -15.552 -0.498 0.44
2.629 -15.552 -0.498 0.31
2.679 -15.553 -0.498 0.5
2.73 -15.559 -0.499 0.26
2.777 -15.536 -0.498 0.55
2.826 -15.529 -0.498 0.36
2.877 -15.53 -0.499 0.39
2.928 -15.537 -0.5 0.34
2.952 -15.53 -0.5 0.48
3.003 -15.531 -0.5 0.4
3.054 -15.531 -0.5 0.29
3.103 -15.525 -0.501 0.46
3.151 -15.51 -0.5 0.39
3.201 -15.506 -0.501 0.38
3.253 -15.513 -0.501 0.41
3.281 -15.527 -0.502 0.29
3.333 -15.531 -0.503 0.45
3.382 -15.518 -0.503 0.37
3.433 -15.519 -0.503 0.37
3.479 -15.499 -0.503 0.34
3.53 -15.497 -0.503 0.36
3.583 -15.504 -0.504 0.29
3.633 -15.498 -0.504 0.45
3.661 -15.51 -0.505 0.33
3.71 -15.498 -0.505 0.4
3.76 -15.493 -0.505 0.35
3.813 -15.496 -0.506 0.41
3.868 -15.509 -0.507 0.26
3.915 -15.491 -0.507 0.43
3.968 -15.498 -0.508 0.34
3.995 -15.5 -0.508 0.44
4.047 -15.503 -0.509 0.33
4.099 -15.499 -0.509 0.43
4.148 -15.488 -0.51 0.4
4.2 -15.487 -0.51 0.37
4.253 -15.491 -0.511 0.43
4.302 -15.478 -0.511 0.43
4.326 -15.471 -0.511 0.39
4.379 -15.472 -0.512 0.33
4.431 -15.472 -0.512 0.36
4.481 -15.464 -0.513 0.38
4.536 -15.469 -0.513 0.43
4.587 -15.464 -0.514 0.34
4.638 -15.459 -0.514 0.38
4.666 -15.463 -0.515 0.32
4.719 -15.462 -0.515 0.34
