# .PCD v.7 - Point Cloud Data file format
VERSION .7
FIELDS x y z intensity
SIZE 4 4 4 4
TYPE F F F F
COUNT 1 1 1 1
WIDTH 1950
HEIGHT 1
VIEWPOINT 0 0 0 1 0 0 0
POINTS 1950
DATA ascii
-1.853 4.023 -1.75 0.21
-1.867 4.019 -1.751 0.26
-1.874 4.018 -1.752 0.2
-1.886 4.012 -1.752 0.22
-1.899 4.006 -1.752 0.22
-1.908 3.992 -1.748 0.2
-1.924 3.994 -1.752 0.25
-1.937 3.989 -1.752 0.23
-1.943 3.968 -1.745 0.17
-1.962 3.977 -1.752 0.26
-1.967 3.971 -1.751 0.18
-1.98 3.965 -1.751 0.23
-1.994 3.963 -1.753 0.23
-2.007 3.957 -1.753 0.2
-2.022 3.956 -1.755 0.24
-2.029 3.939 -1.751 0.21
-2.044 3.938 -1.753 0.19
-2.049 3.933 -1.752 0.26
-2.064 3.932 -1.755 0.24
-2.074 3.92 -1.752 0.17
-2.092 3.923 -1.757 0.26
-2.104 3.917 -1.757 0.24
-2.109 3.897 -1.751 0.19
-2.13 3.907 -1.759 0.26
-2.144 3.903 -1.76 0.2
-2.148 3.895 -1.758 0.22
-2.155 3.88 -1.754 0.23
-2.168 3.873 -1.754 0.18
-2.191 3.886 -1.763 0.27
-2.198 3.871 -1.759 0.19
-2.21 3.862 -1.759 0.25
-2.219 3.851 -1.756 0.16
-2.227 3.85 -1.758 0.24
-2.237 3.84 -1.756 0.16
-2.256 3.846 -1.762 0.25
-2.266 3.834 -1.76 0.24
-2.278 3.827 -1.76 0.19
-2.294 3.828 -1.764 0.27
-2.303 3.814 -1.761 0.18
-2.309 3.81 -1.761 0.25
-2.321 3.803 -1.761 0.18
-2.334 3.797 -1.762 0.25
-2.345 3.79 -1.762 0.19
-2.365 3.795 -1.768 0.25
-2.366 3.771 -1.759 0.23
-2.379 3.765 -1.76 0.17
-2.396 3.778 -1.769 0.28
-2.398 3.755 -1.761 0.19
-2.419 3.761 -1.768 0.23
-2.426 3.748 -1.765 0.22
-2.436 3.737 -1.763 0.2
-2.452 3.735 -1.766 0.25
-2.463 3.726 -1.766 0.21
-2.474 3.718 -1.766 0.22
-2.486 3.724 -1.77 0.0
-2.507 3.73 -1.777 0.0
-2.548 3.766 -1.8 0.0
-3.097 3.249 -1.775 0.0
-3.105 3.236 -1.773 0.0
-3.117 3.229 -1.775 0.0
-3.148 3.241 -1.787 0.0
-3.136 3.208 -1.774 0.05
-3.153 3.205 -1.778 0.04
-3.159 3.191 -1.776 0.07
-3.167 3.189 -1.777 0.04
-3.175 3.178 -1.776 0.15
-3.192 3.174 -1.78 0.05
-3.198 3.16 -1.778 0.17
-3.209 3.151 -1.779 0.2
-3.22 3.143 -1.779 0.2
-3.238 3.14 -1.784 0.12
-3.249 3.131 -1.785 0.18
-3.249 3.121 -1.782 0.23
-3.26 3.112 -1.783 0.17
-3.267 3.099 -1.781 0.24
-3.275 3.088 -1.78 0.16
-3.285 3.077 -1.78 0.23
-3.304 3.076 -1.786 0.19
-3.303 3.056 -1.779 0.21
-3.312 3.054 -1.782 0.18
-3.315 3.037 -1.778 0.05
-3.324 3.027 -1.778 0.16
-3.339 3.022 -1.781 0.11
-3.339 3.002 -1.776 0.18
-3.359 3.002 -1.782 0.2
-3.37 2.992 -1.783 0.04
-3.369 2.982 -1.779 0.14
-3.38 2.973 -1.78 0.1
-3.395 2.967 -1.783 0.16
-3.404 2.956 -1.783 0.12
-3.413 2.946 -1.783 0.18
-3.419 2.931 -1.781 0.21
-3.428 2.921 -1.781 0.16
-3.439 2.921 -1.785 0.25
-3.448 2.91 -1.785 0.21
-3.452 2.895 -1.782 0.22
-3.454 2.878 -1.778 0.16
-3.47 2.873 -1.782 0.27
-3.478 2.861 -1.781 0.16
-3.491 2.853 -1.783 0.27
-3.496 2.839 -1.781 0.22
-3.493 2.828 -1.777 0.16
-3.516 2.828 -1.785 0.27
-3.524 2.816 -1.784 0.19
-3.535 2.807 -1.786 0.23
-3.537 2.79 -1.782 0.22
-3.538 2.774 -1.778 0.17
-3.563 2.775 -1.786 0.26
-3.566 2.768 -1.786 0.22
-3.559 2.745 -1.777 0.18
-3.586 2.748 -1.787 0.28
-3.583 2.728 -1.781 0.2
-3.603 2.725 -1.787 0.13
-3.602 2.706 -1.782 0.2
-3.601 2.688 -1.777 0.16
-3.625 2.697 -1.787 0.29
-3.627 2.681 -1.784 0.19
-3.641 2.674 -1.787 0.13
-3.642 2.657 -1.783 0.21
-3.642 2.639 -1.779 0.17
-3.669 2.642 -1.789 0.26
-3.675 2.628 -1.787 0.21
-3.683 2.626 -1.79 0.12
-3.677 2.603 -1.782 0.21
-3.677 2.587 -1.778 0.18
-3.702 2.587 -1.786 0.28
-3.704 2.571 -1.783 0.23
-3.711 2.558 -1.783 0.16
-3.735 2.558 -1.791 0.29
-3.727 2.544 -1.785 0.25
-3.737 2.533 -1.786 0.18
-3.752 2.526 -1.79 0.26
-3.749 2.507 -1.784 0.22
-3.756 2.495 -1.783 0.18
-3.78 2.494 -1.792 0.26
-3.791 2.484 -1.793 0.22
-3.796 2.47 -1.792 0.23
-3.795 2.461 -1.79 0.23
-3.8 2.447 -1.788 0.18
-3.814 2.439 -1.791 0.26
-3.818 2.425 -1.79 0.23
-3.813 2.405 -1.783 0.19
-3.841 2.406 -1.793 0.28
-3.843 2.39 -1.79 0.23
-3.842 2.381 -1.788 0.2
-3.855 2.373 -1.791 0.27
-3.863 2.361 -1.791 0.21
-3.873 2.351 -1.793 0.12
-3.878 2.337 -1.791 0.2
-3.883 2.324 -1.79 0.2
-3.9 2.317 -1.795 0.23
-3.901 2.301 -1.792 0.16
-3.912 2.3 -1.796 0.27
-3.912 2.283 -1.792 0.23
-3.911 2.266 -1.788 0.18
-3.94 2.266 -1.799 0.28
-3.941 2.25 -1.796 0.19
-3.947 2.237 -1.795 0.22
-3.962 2.229 -1.799 0.17
-3.96 2.22 -1.797 0.24
-3.966 2.207 -1.796 0.09
-3.976 2.196 -1.797 0.0
-3.976 2.18 -1.794 0.0
-3.989 2.171 -1.797 0.0
-4.014 2.168 -1.806 0.0
-3.761 -1.843 -1.648 0.0
-3.758 -1.856 -1.65 0.0
-3.754 -1.869 -1.651 0.02
-3.773 -1.885 -1.661 0.03
-3.78 -1.904 -1.667 0.16
-3.767 -1.912 -1.664 0.05
-3.771 -1.929 -1.668 0.15
-3.79 -1.953 -1.68 0.23
-3.774 -1.96 -1.675 0.31
-3.741 -1.958 -1.663 0.25
-3.737 -1.971 -1.664 0.27
-3.752 -1.986 -1.672 0.2
-3.739 -1.995 -1.669 0.06
-3.743 -2.012 -1.674 0.18
-3.765 -2.039 -1.688 0.17
-3.741 -2.041 -1.679 0.26
-3.709 -2.039 -1.667 0.19
-3.702 -2.051 -1.667 0.25
-3.691 -2.052 -1.663 0.24
-3.738 -2.093 -1.689 0.23
-3.76 -2.121 -1.703 0.32
-3.741 -2.125 -1.696 0.27
-3.723 -2.131 -1.691 0.16
-3.732 -2.152 -1.699 0.28
-3.727 -2.164 -1.699 0.22
-3.706 -2.16 -1.691 0.23
-3.696 -2.17 -1.689 0.25
-3.705 -2.191 -1.697 0.2
-3.703 -2.205 -1.699 0.12
-3.694 -2.216 -1.699 0.21
-3.692 -2.23 -1.701 0.11
-3.658 -2.226 -1.688 0.18
-3.601 -2.199 -1.661 0.12
-3.582 -2.203 -1.655 0.18
-3.587 -2.222 -1.661 0.19
-3.66 -2.282 -1.701 0.09
-3.689 -2.316 -1.719 0.16
-3.669 -2.32 -1.713 0.05
-3.667 -2.334 -1.715 0.18
-3.672 -2.346 -1.72 0.11
-3.657 -2.352 -1.716 0.18
-3.628 -2.35 -1.705 0.05
-3.628 -2.366 -1.709 0.16
-3.613 -2.373 -1.705 0.05
-3.603 -2.382 -1.703 0.16
-3.597 -2.394 -1.704 0.05
-3.591 -2.407 -1.705 0.16
-3.582 -2.409 -1.703 0.05
-3.582 -2.426 -1.706 0.16
-3.573 -2.436 -1.706 0.19
-3.57 -2.45 -1.708 0.09
-3.568 -2.465 -1.711 0.16
-3.547 -2.467 -1.704 0.05
-3.544 -2.482 -1.706 0.17
-3.537 -2.485 -1.705 0.05
-3.523 -2.492 -1.702 0.16
-3.52 -2.506 -1.704 0.05
-3.512 -2.517 -1.704 0.16
-3.504 -2.528 -1.704 0.05
-3.496 -2.539 -1.704 0.18
-3.494 -2.554 -1.707 0.11
-3.488 -2.559 -1.706 0.18
-3.491 -2.577 -1.712 0.1
-3.484 -2.589 -1.713 0.19
-3.488 -2.609 -1.719 0.11
-3.474 -2.616 -1.716 0.19
-3.479 -2.637 -1.723 0.11
-3.46 -2.64 -1.717 0.19
-3.444 -2.636 -1.711 0.2
-3.433 -2.645 -1.71 0.17
-3.395 -2.633 -1.694 0.24
-3.381 -2.639 -1.691 0.21
-3.44 -2.702 -1.727 0.21
-3.434 -2.715 -1.728 0.23
-3.401 -2.706 -1.715 0.19
-3.407 -2.728 -1.723 0.25
-3.429 -2.754 -1.737 0.21
-3.381 -2.734 -1.716 0.12
-3.334 -2.714 -1.695 0.19
-3.317 -2.717 -1.69 0.2
-3.297 -2.718 -1.684 0.18
-3.284 -2.725 -1.682 0.17
-3.26 -2.722 -1.673 0.04
-3.265 -2.736 -1.679 0.16
-3.257 -2.746 -1.679 0.19
-3.242 -2.751 -1.675 0.1
-3.235 -2.763 -1.676 0.17
-3.207 -2.756 -1.665 0.05
-3.198 -2.766 -1.665 0.17
-3.177 -2.766 -1.658 0.2
-3.159 -2.759 -1.651 0.1
-3.148 -2.767 -1.65 0.16
-3.118 -2.758 -1.637 0.05
-3.098 -2.758 -1.631 0.17
-3.075 -2.755 -1.623 0.05
-3.061 -2.76 -1.62 0.17
-3.047 -2.765 -1.617 0.05
-3.037 -2.765 -1.614 0.16
-3.012 -2.759 -1.605 0.2
-2.987 -2.754 -1.595 0.18
-2.954 -2.741 -1.581 0.18
-2.934 -2.74 -1.575 0.16
-2.911 -2.735 -1.567 0.18
-2.898 -2.741 -1.564 0.16
-2.871 -2.732 -1.553 0.04
-2.863 -2.733 -1.551 0.0
-2.843 -2.732 -1.545 0.0
-2.809 -2.717 -1.53 0.0
-2.815 -2.739 -1.539 0.0
-2.565 -3.541 -1.726 0.0
-2.58 -3.585 -1.745 0.06
-2.553 -3.559 -1.729 0.14
-2.543 -3.568 -1.73 0.16
-2.536 -3.582 -1.733 0.24
-2.512 -3.572 -1.724 0.2
-2.499 -3.579 -1.723 0.21
-2.489 -3.588 -1.724 0.1
-2.481 -3.6 -1.726 0.15
-2.488 -3.622 -1.735 0.21
-2.473 -3.626 -1.733 0.15
-2.461 -3.632 -1.732 0.26
-2.451 -3.641 -1.733 0.16
-2.438 -3.647 -1.732 0.25
-2.421 -3.646 -1.727 0.19
-2.398 -3.636 -1.719 0.14
-2.387 -3.632 -1.715 0.18
-2.401 -3.678 -1.734 0.23
-2.383 -3.677 -1.73 0.12
-2.361 -3.667 -1.721 0.09
-2.351 -3.678 -1.723 0.18
-2.342 -3.688 -1.724 0.15
-2.342 -3.714 -1.734 0.3
-2.334 -3.728 -1.737 0.23
-2.32 -3.719 -1.731 0.12
-2.297 -3.707 -1.721 0.21
-2.288 -3.719 -1.724 0.11
-2.28 -3.733 -1.727 0.18
-2.262 -3.729 -1.721 0.22
-2.251 -3.738 -1.722 0.22
-2.234 -3.735 -1.717 0.17
-2.234 -3.748 -1.722 0.26
-2.237 -3.78 -1.734 0.25
-2.227 -3.791 -1.736 0.21
-2.209 -3.788 -1.731 0.23
-2.183 -3.77 -1.719 0.16
-2.174 -3.783 -1.722 0.26
-2.181 -3.821 -1.738 0.21
-2.162 -3.802 -1.727 0.23
-2.124 -3.764 -1.705 0.1
-2.115 -3.776 -1.707 0.16
-2.094 -3.765 -1.699 0.05
-2.084 -3.776 -1.701 0.17
-2.076 -3.789 -1.704 0.2
-2.064 -3.796 -1.704 0.1
-2.062 -3.805 -1.707 0.16
-2.043 -3.799 -1.701 0.05
-2.033 -3.81 -1.703 0.16
-2.019 -3.812 -1.701 0.2
-2.005 -3.815 -1.699 0.18
-1.997 -3.828 -1.703 0.1
-1.984 -3.832 -1.702 0.18
-1.979 -3.839 -1.703 0.19
-1.979 -3.868 -1.714 0.17
-1.969 -3.877 -1.716 0.16
-1.961 -3.892 -1.72 0.04
-1.958 -3.916 -1.728 0.17
-1.945 -3.92 -1.727 0.18
-1.924 -3.91 -1.72 0.04
-1.921 -3.919 -1.723 0.08
-1.931 -3.97 -1.744 0.17
-1.905 -3.948 -1.731 0.21
-1.897 -3.964 -1.735 0.1
-1.878 -3.957 -1.729 0.09
-1.853 -3.936 -1.717 0.09
-1.835 -3.93 -1.711 0.04
-1.827 -3.944 -1.715 0.14
-1.828 -3.964 -1.723 0.2
-1.816 -3.969 -1.723 0.21
-1.798 -3.963 -1.717 0.23
-1.79 -3.979 -1.722 0.2
-1.781 -3.991 -1.725 0.12
-1.76 -3.98 -1.717 0.17
-1.747 -3.968 -1.71 0.21
-1.73 -3.961 -1.705 0.09
-1.724 -3.982 -1.712 0.09
-1.73 -4.03 -1.731 0.17
-1.701 -3.998 -1.714 0.21
-1.676 -3.974 -1.701 0.17
-1.662 -3.976 -1.699 0.04
-1.652 -3.987 -1.702 0.07
-1.651 -4.003 -1.708 0.15
-1.645 -4.023 -1.715 0.19
-1.628 -4.016 -1.71 0.24
-1.611 -4.011 -1.705 0.09
-1.601 -4.023 -1.708 0.19
-1.588 -4.028 -1.708 0.11
-1.567 -4.013 -1.699 0.18
-1.559 -4.01 -1.696 0.18
-1.545 -4.011 -1.695 0.17
-1.541 -4.038 -1.705 0.17
-1.521 -4.023 -1.696 0.04
-1.514 -4.043 -1.703 0.07
-1.504 -4.056 -1.706 0.09
-1.495 -4.071 -1.711 0.15
-1.49 -4.077 -1.713 0.14
-1.474 -4.071 -1.708 0.21
-1.452 -4.052 -1.697 0.05
-1.44 -4.058 -1.698 0.15
-1.431 -4.073 -1.703 0.26
-1.424 -4.095 -1.71 0.25
-1.408 -4.091 -1.706 0.12
-1.389 -4.055 -1.689 0.09
-1.373 -4.052 -1.686 0.08
-1.358 -4.049 -1.683 0.08
-1.35 -4.066 -1.689 0.08
-1.335 -4.063 -1.685 0.08
-1.319 -4.058 -1.682 0.09
-1.306 -4.062 -1.682 0.09
-1.3 -4.066 -1.682 0.09
-1.285 -4.062 -1.679 0.09
-1.274 -4.073 -1.682 0.09
-1.26 -4.071 -1.679 0.09
-1.245 -4.068 -1.676 0.08
-1.236 -4.084 -1.682 0.04
-1.227 -4.102 -1.688 0.07
-1.217 -4.115 -1.692 0.04
-1.225 -4.166 -1.713 0.14
-1.205 -4.145 -1.703 0.21
-1.189 -4.14 -1.699 0.2
-1.174 -4.135 -1.695 0.21
-1.162 -4.144 -1.697 0.04
-1.152 -4.159 -1.702 0.07
-1.144 -4.18 -1.71 0.04
-1.131 -4.159 -1.699 0.14
-1.116 -4.155 -1.696 0.19
-1.102 -4.155 -1.695 0.1
-1.093 -4.174 -1.702 0.16
-1.081 -4.18 -1.703 0.21
-1.065 -4.174 -1.699 0.17
-1.048 -4.163 -1.692 0.18
-1.037 -4.147 -1.685 0.16
-1.029 -4.168 -1.692 0.15
-1.019 -4.184 -1.698 0.27
-0.996 -4.149 -1.682 0.09
-0.983 -4.151 -1.681 0.08
-0.966 -4.139 -1.675 0.04
-0.956 -4.155 -1.68 0.08
-0.95 -4.156 -1.68 0.15
-0.938 -4.163 -1.682 0.1
-0.925 -4.166 -1.682 0.08
-0.909 -4.16 -1.678 0.08
-0.898 -4.168 -1.68 0.15
-0.888 -4.185 -1.686 0.04
-0.871 -4.174 -1.68 0.08
-0.859 -4.146 -1.668 0.04
-0.847 -4.156 -1.671 0.03
-0.841 -4.191 -1.685 0.14
-0.827 -4.19 -1.683 0.2
-0.812 -4.182 -1.679 0.16
-0.8 -4.19 -1.681 0.13
-0.784 -4.18 -1.675 0.09
-0.779 -4.188 -1.679 0.08
-0.765 -4.187 -1.677 0.04
-0.756 -4.215 -1.688 0.16
-0.743 -4.213 -1.686 0.2
-0.727 -4.205 -1.682 0.17
-0.717 -4.225 -1.689 0.23
-0.707 -4.244 -1.696 0.1
-0.691 -4.189 -1.672 0.08
-0.67 -4.149 -1.654 0.09
-0.657 -4.149 -1.654 0.16
-0.645 -4.16 -1.658 0.16
-0.631 -4.155 -1.654 0.16
-0.619 -4.161 -1.656 0.18
-0.607 -4.168 -1.658 0.18
-0.592 -4.161 -1.654 0.17
-0.584 -4.155 -1.651 0.17
-0.572 -4.158 -1.652 0.16
-0.558 -4.156 -1.651 0.04
-0.548 -4.18 -1.66 0.0
-0.538 -4.202 -1.668 0.13
-0.528 -4.234 -1.682 0.26
-0.515 -4.232 -1.68 0.17
-0.508 -4.231 -1.679 0.16
-0.495 -4.233 -1.679 0.2
-0.482 -4.24 -1.682 0.2
-0.468 -4.24 -1.681 0.19
-0.455 -4.245 -1.682 0.05
-0.442 -4.243 -1.681 0.17
-0.428 -4.242 -1.68 0.11
-0.423 -4.254 -1.685 0.21
-0.41 -4.264 -1.689 0.11
-0.397 -4.265 -1.689 0.21
-0.382 -4.248 -1.681 0.25
-0.369 -4.259 -1.685 0.12
-0.355 -4.251 -1.681 0.19
-0.343 -4.265 -1.686 0.1
-0.334 -4.243 -1.677 0.18
-0.32 -4.229 -1.671 0.05
-0.307 -4.238 -1.674 0.16
-0.296 -4.266 -1.685 0.19
-0.283 -4.275 -1.689 0.16
-0.269 -4.277 -1.689 0.25
-0.255 -4.267 -1.685 0.22
-0.248 -4.264 -1.683 0.19
-0.234 -4.252 -1.678 0.18
-0.22 -4.239 -1.672 0.04
-0.206 -4.227 -1.667 0.07
-0.192 -4.219 -1.663 0.04
-0.18 -4.247 -1.675 0.15
-0.167 -4.251 -1.676 0.05
-0.16 -4.235 -1.669 0.16
-0.146 -4.215 -1.661 0.2
-0.131 -4.19 -1.65 0.09
-0.119 -4.203 -1.655 0.08
-0.105 -4.2 -1.654 0.04
-0.094 -4.25 -1.675 0.16
-0.081 -4.276 -1.685 0.21
-0.074 -4.27 -1.683 0.3
-0.06 -4.237 -1.669 0.06
-0.046 -4.206 -1.656 0.07
-0.033 -4.216 -1.66 0.09
-0.02 -4.241 -1.671 0.16
-0.007 -4.273 -1.684 0.22
0.006 -4.277 -1.685 0.18
0.013 -4.267 -1.682 0.24
0.027 -4.291 -1.692 0.0
0.04 -4.238 -1.669 0.0
0.053 -4.221 -1.662 0.0
0.066 -4.189 -1.649 0.0
0.08 -4.22 -1.662 0.0
0.093 -4.261 -1.679 0.0
0.107 -4.271 -1.684 0.0
0.114 -4.264 -1.681 0.0
0.127 -4.245 -1.673 0.0
0.14 -4.245 -1.673 0.0
0.201 -4.263 -1.682 0.0
0.214 -4.249 -1.676 0.0
0.226 -4.239 -1.672 0.0
0.355 -4.253 -1.682 0.0
0.369 -4.262 -1.686 0.0
0.377 -4.284 -1.696 0.0
0.39 -4.272 -1.691 0.0
0.403 -4.265 -1.689 0.0
0.417 -4.269 -1.691 0.0
0.429 -4.253 -1.685 0.0
0.441 -4.239 -1.679 0.0
0.455 -4.243 -1.682 0.0
0.459 -4.22 -1.672 0.0
0.471 -4.206 -1.667 0.0
1.77 -3.856 -1.672 0.0
1.822 -3.857 -1.681 0.0
1.83 -3.843 -1.677 0.0
1.832 -3.815 -1.667 0.0
1.842 -3.806 -1.665 0.0
1.857 -3.805 -1.668 0.0
1.872 -3.806 -1.671 0.0
1.877 -3.787 -1.665 0.0
1.879 -3.776 -1.661 0.0
1.887 -3.762 -1.657 0.0
1.91 -3.777 -1.667 0.1
1.916 -3.761 -1.662 0.05
1.929 -3.757 -1.663 0.0
1.936 -3.741 -1.658 0.0
1.953 -3.746 -1.664 0.05
1.963 -3.75 -1.667 0.04
1.964 -3.724 -1.658 0.0
1.99 -3.744 -1.67 0.06
2.003 -3.741 -1.672 0.09
2.017 -3.739 -1.674 0.09
2.027 -3.728 -1.672 0.2
2.043 -3.73 -1.675 0.25
2.045 -3.72 -1.672 0.29
2.044 -3.691 -1.661 0.24
2.064 -3.699 -1.668 0.23
2.092 -3.722 -1.682 0.2
2.092 -3.694 -1.672 0.29
2.095 -3.673 -1.665 0.23
2.1 -3.655 -1.66 0.1
2.118 -3.673 -1.67 0.16
2.123 -3.655 -1.665 0.22
2.118 -3.62 -1.651 0.23
2.125 -3.605 -1.647 0.11
2.143 -3.611 -1.653 0.18
2.164 -3.62 -1.661 0.14
2.181 -3.623 -1.665 0.31
2.19 -3.624 -1.668 0.2
2.199 -3.614 -1.666 0.18
2.214 -3.613 -1.669 0.31
2.223 -3.602 -1.667 0.24
2.232 -3.592 -1.665 0.28
2.251 -3.597 -1.672 0.27
2.266 -3.596 -1.675 0.21
2.275 -3.584 -1.672 0.06
2.268 -3.562 -1.663 0.17
2.284 -3.561 -1.666 0.17
2.295 -3.554 -1.666 0.28
2.301 -3.539 -1.662 0.24
2.311 -3.53 -1.661 0.25
2.32 -3.52 -1.66 0.3
2.33 -3.511 -1.659 0.2
2.323 -3.489 -1.65 0.24
2.326 -3.469 -1.644 0.21
2.334 -3.457 -1.641 0.11
2.335 -3.435 -1.633 0.18
2.348 -3.43 -1.635 0.1
2.356 -3.42 -1.633 0.18
2.372 -3.42 -1.637 0.11
2.379 -3.418 -1.638 0.17
2.39 -3.412 -1.639 0.21
2.397 -3.398 -1.636 0.1
2.409 -3.392 -1.637 0.17
2.41 -3.371 -1.63 0.05
2.419 -3.362 -1.629 0.17
2.436 -3.363 -1.633 0.2
2.443 -3.361 -1.634 0.1
2.454 -3.355 -1.635 0.18
2.466 -3.349 -1.636 0.11
2.48 -3.345 -1.638 0.17
2.5 -3.351 -1.645 0.23
2.515 -3.349 -1.648 0.24
2.533 -3.351 -1.654 0.29
2.542 -3.352 -1.656 0.24
2.548 -3.338 -1.653 0.12
2.568 -3.343 -1.66 0.19
2.598 -3.36 -1.673 0.29
2.596 -3.336 -1.665 0.11
2.613 -3.336 -1.669 0.17
2.631 -3.338 -1.675 0.21
2.645 -3.344 -1.68 0.19
2.628 -3.301 -1.661 0.13
2.623 -3.274 -1.651 0.21
2.636 -3.269 -1.653 0.11
2.644 -3.258 -1.651 0.19
2.675 -3.275 -1.665 0.16
2.71 -3.297 -1.682 0.28
2.71 -3.287 -1.679 0.17
2.679 -3.228 -1.651 0.25
2.685 -3.214 -1.648 0.24
2.693 -3.203 -1.647 0.21
2.691 -3.18 -1.639 0.0
2.676 -3.142 -1.623 0.0
2.647 -3.087 -1.597 0.0
2.456 -2.816 -1.458 0.0
2.46 -2.803 -1.455 0.0
2.479 -2.808 -1.462 0.0
2.489 -2.801 -1.463 0.0
2.508 -2.805 -1.469 0.07
2.515 -2.803 -1.47 0.04
2.538 -2.812 -1.48 0.15
2.54 -2.796 -1.475 0.05
2.566 -2.807 -1.486 0.16
2.578 -2.803 -1.488 0.05
2.596 -2.804 -1.494 0.16
2.617 -2.81 -1.501 0.05
2.638 -2.823 -1.511 0.18
2.664 -2.834 -1.522 0.21
2.693 -2.847 -1.535 0.1
2.711 -2.848 -1.54 0.16
2.707 -2.826 -1.532 0.05
2.73 -2.832 -1.541 0.18
2.753 -2.838 -1.55 0.2
2.768 -2.836 -1.553 0.09
2.788 -2.848 -1.563 0.16
2.797 -2.839 -1.563 0.05
2.816 -2.841 -1.569 0.18
2.833 -2.84 -1.574 0.1
2.848 -2.837 -1.578 0.18
2.861 -2.832 -1.58 0.21
2.88 -2.834 -1.586 0.1
2.898 -2.842 -1.594 0.16
2.896 -2.823 -1.588 0.05
2.913 -2.821 -1.592 0.16
2.921 -2.811 -1.591 0.05
2.935 -2.807 -1.595 0.16
2.946 -2.8 -1.596 0.04
2.963 -2.799 -1.601 0.15
2.975 -2.802 -1.605 0.2
2.992 -2.8 -1.61 0.1
3.046 -2.833 -1.637 0.16
3.092 -2.858 -1.658 0.21
3.099 -2.847 -1.657 0.25
3.11 -2.838 -1.658 0.17
3.12 -2.83 -1.658 0.27
3.124 -2.825 -1.658 0.22
3.125 -2.808 -1.654 0.12
3.128 -2.793 -1.651 0.21
3.119 -2.767 -1.64 0.18
3.136 -2.765 -1.645 0.27
3.141 -2.751 -1.643 0.23
3.144 -2.736 -1.64 0.12
3.13 -2.715 -1.63 0.19
3.144 -2.71 -1.633 0.11
3.147 -2.696 -1.63 0.2
3.153 -2.683 -1.628 0.11
3.149 -2.663 -1.621 0.18
3.153 -2.649 -1.619 0.1
3.155 -2.635 -1.616 0.18
3.154 -2.625 -1.612 0.05
3.164 -2.616 -1.613 0.0
3.176 -2.61 -1.616 0.0
3.194 -2.608 -1.621 0.0
3.208 -2.603 -1.624 0.0
3.209 -2.587 -1.62 0.0
3.23 -2.587 -1.627 0.0
3.214 -2.566 -1.616 0.0
3.196 -2.535 -1.602 0.0
3.237 -2.518 -1.612 0.0
3.244 -2.507 -1.611 0.0
3.252 -2.497 -1.611 0.0
3.247 -2.485 -1.606 0.0
3.265 -2.483 -1.612 0.0
3.264 -2.466 -1.607 0.03
3.282 -2.463 -1.612 0.04
3.288 -2.452 -1.612 0.15
3.307 -2.45 -1.618 0.1
3.324 -2.446 -1.623 0.18
3.36 -2.457 -1.637 0.19
3.365 -2.453 -1.638 0.18
3.373 -2.442 -1.638 0.25
3.372 -2.425 -1.633 0.22
3.405 -2.433 -1.647 0.2
3.414 -2.423 -1.647 0.25
3.412 -2.406 -1.643 0.21
3.415 -2.392 -1.64 0.28
3.392 -2.367 -1.626 0.16
3.399 -2.357 -1.626 0.31
3.368 -2.319 -1.606 0.16
3.37 -2.305 -1.604 0.25
3.384 -2.298 -1.607 0.25
3.389 -2.287 -1.606 0.25
3.392 -2.273 -1.604 0.18
3.411 -2.278 -1.612 0.29
3.421 -2.269 -1.613 0.23
3.414 -2.249 -1.606 0.26
3.398 -2.223 -1.595 0.21
3.424 -2.225 -1.604 0.26
3.434 -2.216 -1.605 0.2
3.428 -2.197 -1.599 0.23
3.422 -2.186 -1.595 0.0
3.437 -2.18 -1.598 0.0
3.476 -2.19 -1.615 0.0
3.482 -2.178 -1.614 0.0
3.476 -2.159 -1.608 0.0
3.464 -2.137 -1.598 0.0
3.471 -2.126 -1.598 0.0
3.483 -2.066 -1.59 0.0
3.453 -2.033 -1.572 0.0
3.471 -2.029 -1.578 0.0
3.466 -2.019 -1.574 0.0
3.456 -1.999 -1.566 0.0
3.453 -1.982 -1.561 0.0
3.467 -1.976 -1.565 0.0
3.518 -1.991 -1.587 0.0
3.526 -1.981 -1.588 0.0
3.491 -1.946 -1.567 0.0
3.462 -1.922 -1.552 0.0
3.468 -1.912 -1.552 0.03
3.469 -1.898 -1.55 0.03
3.486 -1.893 -1.555 0.07
3.484 -1.878 -1.551 0.04
3.49 -1.867 -1.551 0.14
3.494 -1.855 -1.55 0.05
3.502 -1.852 -1.553 0.16
3.504 -1.839 -1.551 0.05
3.515 -1.831 -1.553 0.16
3.519 -1.819 -1.553 0.2
3.528 -1.81 -1.554 0.1
3.542 -1.803 -1.558 0.18
3.565 -1.801 -1.567 0.11
3.581 -1.802 -1.573 0.17
3.604 -1.799 -1.581 0.21
3.624 -1.795 -1.588 0.17
3.635 -1.786 -1.59 0.05
3.671 -1.791 -1.605 0.17
3.7 -1.79 -1.616 0.11
3.712 -1.782 -1.619 0.19
3.745 -1.783 -1.631 0.2
3.769 -1.788 -1.641 0.1
3.783 -1.78 -1.645 0.18
3.813 -1.78 -1.657 0.2
3.852 -1.783 -1.672 0.16
3.866 -1.775 -1.676 0.23
3.897 -1.775 -1.688 0.18
3.929 -1.775 -1.7 0.25
3.94 -1.772 -1.704 0.18
3.954 -1.764 -1.708 0.25
3.96 -1.751 -1.708 0.18
3.969 -1.74 -1.71 0.25
3.969 -1.726 -1.707 0.18
3.986 -1.718 -1.713 0.25
3.985 -1.703 -1.71 0.19
3.991 -1.698 -1.711 0.25
3.993 -1.684 -1.71 0.18
3.995 -1.67 -1.708 0.25
4.004 -1.659 -1.71 0.2
4.007 -1.646 -1.709 0.12
4.01 -1.632 -1.708 0.21
4.012 -1.618 -1.706 0.11
4.011 -1.611 -1.705 0.18
4.006 -1.594 -1.7 0.12
4.004 -1.579 -1.697 0.2
4.016 -1.569 -1.7 0.11
4.011 -1.552 -1.696 0.19
4.021 -1.542 -1.698 0.11
4.024 -1.528 -1.697 0.2
4.036 -1.526 -1.702 0.11
4.039 -1.513 -1.701 0.17
4.037 -1.497 -1.698 0.22
4.056 -1.49 -1.704 0.19
4.054 -1.474 -1.701 0.12
4.056 -1.461 -1.7 0.17
4.063 -1.449 -1.701 0.12
4.055 -1.439 -1.696 0.19
4.064 -1.428 -1.699 0.11
4.06 -1.412 -1.695 0.2
4.066 -1.4 -1.696 0.11
4.076 -1.389 -1.698 0.21
4.087 -1.378 -1.701 0.11
4.102 -1.369 -1.706 0.15
4.085 -1.349 -1.696 0.05
4.084 -1.342 -1.695 0.16
4.085 -1.328 -1.693 0.05
4.082 -1.312 -1.69 0.14
4.1 -1.304 -1.696 0.19
4.099 -1.29 -1.694 0.09
4.113 -1.28 -1.699 0.16
4.11 -1.265 -1.696 0.21
4.109 -1.257 -1.694 0.1
4.109 -1.243 -1.692 0.18
4.118 -1.232 -1.695 0.19
4.124 -1.22 -1.696 0.09
4.122 -1.205 -1.693 0.0
4.119 -1.19 -1.69 0.0
4.128 -1.186 -1.693 0.0
4.151 -1.178 -1.702 0.0
47.44 -9.714 -20.295 0.0
4.014 1.321 -1.705 0.0
3.985 1.326 -1.694 0.0
3.953 1.329 -1.681 0.06
3.948 1.334 -1.68 0.09
3.944 1.346 -1.68 0.19
3.943 1.36 -1.681 0.2
3.939 1.372 -1.681 0.1
3.941 1.387 -1.684 0.17
3.921 1.394 -1.677 0.05
3.931 1.411 -1.684 0.18
3.922 1.415 -1.68 0.18
3.919 1.428 -1.681 0.18
3.907 1.437 -1.678 0.1
3.927 1.459 -1.689 0.18
3.902 1.463 -1.68 0.22
3.899 1.476 -1.68 0.1
3.892 1.488 -1.68 0.18
3.892 1.495 -1.68 0.2
3.885 1.506 -1.68 0.1
3.906 1.528 -1.692 0.16
3.878 1.531 -1.68 0.21
3.874 1.544 -1.681 0.1
3.87 1.556 -1.681 0.19
3.86 1.566 -1.679 0.2
3.867 1.577 -1.684 0.1
3.845 1.582 -1.676 0.18
3.849 1.597 -1.68 0.11
3.856 1.614 -1.685 0.17
3.835 1.62 -1.678 0.05
3.844 1.638 -1.684 0.18
3.828 1.645 -1.68 0.19
3.833 1.654 -1.683 0.09
3.829 1.667 -1.684 0.18
3.82 1.678 -1.682 0.2
3.814 1.689 -1.681 0.1
3.81 1.702 -1.682 0.19
3.801 1.712 -1.68 0.11
3.794 1.723 -1.68 0.2
3.79 1.728 -1.679 0.11
3.813 1.754 -1.692 0.17
3.782 1.754 -1.68 0.21
3.772 1.763 -1.678 0.1
3.774 1.779 -1.682 0.2
3.767 1.79 -1.681 0.2
3.763 1.803 -1.682 0.1
3.767 1.819 -1.687 0.18
3.75 1.818 -1.68 0.11
3.755 1.836 -1.685 0.19
3.748 1.847 -1.684 0.1
3.752 1.863 -1.689 0.18
3.738 1.871 -1.685 0.21
3.735 1.884 -1.687 0.1
3.733 1.898 -1.688 0.16
3.721 1.899 -1.684 0.21
3.707 1.907 -1.68 0.1
3.698 1.917 -1.679 0.18
3.699 1.932 -1.682 0.05
3.702 1.949 -1.687 0.18
3.685 1.954 -1.681 0.2
3.691 1.973 -1.688 0.18
3.674 1.971 -1.68 0.04
3.679 1.988 -1.686 0.07
3.663 1.994 -1.681 0.04
3.684 2.021 -1.695 0.0
3.658 2.022 -1.685 0.0
3.647 2.031 -1.683 0.0
3.646 2.045 -1.685 0.0
3.647 2.053 -1.688 0.0
3.649 2.069 -1.692 0.0
3.656 2.089 -1.699 0.0
3.666 2.11 -1.707 0.0
3.667 2.126 -1.711 0.0
3.692 2.156 -1.726 0.0
3.604 2.259 -1.717 0.0
3.606 2.277 -1.722 0.0
3.605 2.292 -1.725 0.0
3.585 2.295 -1.718 0.0
3.572 2.302 -1.715 0.0
3.544 2.292 -1.703 0.0
3.54 2.305 -1.704 0.0
3.508 2.3 -1.692 0.02
3.498 2.309 -1.69 0.03
3.48 2.313 -1.684 0.14
3.479 2.328 -1.688 0.18
3.465 2.334 -1.684 0.1
3.469 2.345 -1.688 0.21
3.459 2.354 -1.687 0.17
3.442 2.358 -1.682 0.26
3.454 2.383 -1.692 0.2
3.429 2.381 -1.683 0.22
3.439 2.405 -1.692 0.21
3.42 2.407 -1.686 0.12
3.412 2.418 -1.686 0.18
3.411 2.425 -1.688 0.11
3.402 2.435 -1.687 0.19
3.395 2.445 -1.687 0.2
3.379 2.451 -1.683 0.1
3.376 2.465 -1.685 0.18
3.365 2.473 -1.684 0.2
3.366 2.49 -1.688 0.09
3.355 2.49 -1.684 0.09
3.353 2.505 -1.688 0.08
3.358 2.525 -1.695 0.0
3.326 2.517 -1.681 0.0
3.329 2.536 -1.688 0.0
3.33 2.554 -1.692 0.0
3.32 2.554 -1.689 0.0
3.328 2.577 -1.698 0.0
3.32 2.588 -1.698 0.0
3.338 2.619 -1.712 0.0
3.355 2.65 -1.726 0.0
3.34 2.654 -1.722 0.0
3.324 2.659 -1.718 0.0
3.3 2.657 -1.71 0.0
3.305 2.669 -1.714 0.0
3.294 2.677 -1.713 0.0
3.288 2.69 -1.714 0.0
3.272 2.711 -1.715 0.0
3.251 2.711 -1.708 0.0
3.231 2.712 -1.702 0.0
3.234 2.723 -1.706 0.0
3.224 2.732 -1.705 0.0
3.199 2.727 -1.695 0.0
3.181 2.729 -1.69 0.03
3.172 2.739 -1.69 0.07
3.158 2.744 -1.687 0.08
3.151 2.755 -1.688 0.09
3.159 2.771 -1.695 0.18
3.136 2.769 -1.687 0.11
3.117 2.769 -1.68 0.2
3.115 2.785 -1.684 0.11
3.116 2.803 -1.69 0.21
3.104 2.811 -1.688 0.2
3.094 2.819 -1.688 0.25
3.096 2.83 -1.692 0.2
3.089 2.841 -1.692 0.22
3.078 2.849 -1.692 0.18
3.061 2.852 -1.687 0.25
3.066 2.874 -1.695 0.18
3.043 2.871 -1.687 0.24
3.046 2.892 -1.694 0.2
3.035 2.89 -1.69 0.22
3.031 2.905 -1.693 0.19
3.012 2.904 -1.687 0.12
3.018 2.929 -1.696 0.18
2.998 2.928 -1.69 0.22
2.997 2.945 -1.695 0.19
2.976 2.943 -1.688 0.23
2.982 2.958 -1.694 0.19
2.966 2.961 -1.69 0.24
2.964 2.978 -1.695 0.19
2.953 2.985 -1.693 0.22
2.938 2.989 -1.69 0.17
2.927 2.997 -1.689 0.23
2.919 3.007 -1.69 0.1
2.918 3.016 -1.692 0.18
2.908 3.023 -1.692 0.23
2.898 3.033 -1.692 0.19
2.885 3.038 -1.689 0.21
2.88 3.052 -1.692 0.1
2.867 3.057 -1.69 0.2
2.857 3.066 -1.69 0.11
2.85 3.078 -1.692 0.19
2.858 3.096 -1.699 0.21
2.844 3.101 -1.697 0.17
2.823 3.097 -1.69 0.23
2.833 3.128 -1.703 0.18
2.804 3.115 -1.69 0.23
2.805 3.136 -1.697 0.19
2.794 3.144 -1.696 0.22
2.788 3.147 -1.695 0.19
2.769 3.146 -1.69 0.21
2.774 3.171 -1.699 0.2
2.745 3.157 -1.687 0.22
2.743 3.176 -1.692 0.18
2.739 3.191 -1.696 0.23
2.726 3.196 -1.694 0.19
2.722 3.201 -1.695 0.12
2.72 3.22 -1.7 0.19
2.694 3.21 -1.69 0.11
2.694 3.23 -1.696 0.19
2.681 3.235 -1.695 0.21
2.676 3.25 -1.698 0.2
2.669 3.262 -1.7 0.21
2.664 3.266 -1.7 0.1
2.649 3.269 -1.697 0.17
2.646 3.286 -1.702 0.21
2.631 3.288 -1.699 0.19
2.616 3.291 -1.695 0.22
2.607 3.301 -1.696 0.1
2.602 3.316 -1.7 0.19
2.59 3.311 -1.695 0.11
2.596 3.341 -1.707 0.17
2.57 3.329 -1.696 0.21
2.561 3.339 -1.697 0.1
2.554 3.351 -1.699 0.19
2.536 3.35 -1.695 0.2
2.525 3.357 -1.694 0.1
2.523 3.365 -1.696 0.21
2.515 3.377 -1.699 0.11
2.502 3.381 -1.696 0.21
2.497 3.398 -1.701 0.11
2.491 3.411 -1.704 0.17
2.471 3.406 -1.697 0.21
2.462 3.416 -1.699 0.1
2.455 3.429 -1.701 0.2
2.445 3.427 -1.698 0.2
2.443 3.446 -1.704 0.19
2.424 3.443 -1.699 0.21
2.42 3.46 -1.703 0.18
2.406 3.463 -1.701 0.23
2.392 3.466 -1.699 0.1
2.388 3.484 -1.704 0.2
2.375 3.477 -1.699 0.11
2.369 3.491 -1.702 0.2
2.355 3.494 -1.699 0.11
2.347 3.506 -1.702 0.19
2.335 3.511 -1.701 0.11
2.327 3.523 -1.703 0.17
2.307 3.517 -1.696 0.22
2.314 3.54 -1.707 0.18
2.291 3.529 -1.697 0.23
2.286 3.546 -1.702 0.2
2.27 3.545 -1.698 0.24
2.267 3.566 -1.705 0.19
2.249 3.562 -1.699 0.11
2.238 3.569 -1.699 0.2
2.225 3.573 -1.698 0.21
2.225 3.586 -1.703 0.19
2.21 3.587 -1.699 0.22
2.204 3.603 -1.704 0.2
2.192 3.609 -1.703 0.21
2.172 3.601 -1.696 0.19
2.16 3.606 -1.695 0.22
2.165 3.642 -1.71 0.19
2.145 3.62 -1.697 0.23
2.14 3.638 -1.703 0.18
2.124 3.636 -1.699 0.23
2.127 3.669 -1.711 0.19
2.101 3.65 -1.699 0.21
2.099 3.674 -1.707 0.2
2.08 3.666 -1.7 0.22
2.079 3.679 -1.705 0.21
2.062 3.674 -1.699 0.23
2.054 3.687 -1.703 0.19
2.035 3.681 -1.696 0.24
2.024 3.689 -1.697 0.22
2.016 3.701 -1.7 0.1
2.003 3.704 -1.699 0.2
2.0 3.712 -1.701 0.11
1.994 3.73 -1.707 0.18
1.978 3.728 -1.703 0.22
1.97 3.743 -1.707 0.19
1.954 3.739 -1.702 0.22
1.944 3.748 -1.703 0.2
1.928 3.748 -1.7 0.24
1.93 3.766 -1.707 0.18
1.91 3.755 -1.699 0.24
1.907 3.779 -1.708 0.2
1.884 3.762 -1.697 0.22
1.879 3.783 -1.704 0.19
1.865 3.784 -1.702 0.23
1.859 3.801 -1.707 0.19
1.847 3.793 -1.702 0.23
1.838 3.805 -1.705 0.2
1.822 3.801 -1.7 0.22
1.814 3.817 -1.705 0.19
1.797 3.811 -1.699 0.21
1.793 3.833 -1.707 0.18
1.774 3.823 -1.7 0.25
1.766 3.839 -1.705 0.18
1.756 3.832 -1.7 0.23
1.749 3.849 -1.706 0.2
1.732 3.844 -1.701 0.22
1.726 3.863 -1.707 0.19
1.708 3.855 -1.701 0.23
1.707 3.886 -1.713 0.21
1.688 3.874 -1.705 0.23
1.684 3.882 -1.707 0.18
1.666 3.874 -1.701 0.23
1.656 3.886 -1.704 0.19
1.641 3.884 -1.701 0.22
1.637 3.908 -1.71 0.19
1.615 3.889 -1.699 0.25
1.615 3.925 -1.713 0.21
1.593 3.906 -1.702 0.12
1.588 3.91 -1.703 0.19
1.577 3.919 -1.704 0.2
1.569 3.936 -1.71 0.19
1.549 3.922 -1.701 0.25
1.542 3.939 -1.707 0.19
1.525 3.933 -1.702 0.25
1.517 3.948 -1.707 0.19
1.505 3.935 -1.699 0.24
1.499 3.957 -1.707 0.2
1.48 3.944 -1.699 0.11
1.47 3.956 -1.703 0.2
1.462 3.973 -1.708 0.18
1.446 3.967 -1.703 0.26
1.436 3.978 -1.707 0.18
1.427 3.974 -1.703 0.25
1.42 3.992 -1.71 0.19
1.4 3.976 -1.7 0.23
1.395 4.003 -1.711 0.22
1.377 3.99 -1.703 0.12
1.366 3.999 -1.705 0.2
1.356 4.012 -1.709 0.17
1.35 4.016 -1.71 0.27
1.338 4.022 -1.711 0.23
1.327 4.031 -1.713 0.23
1.312 4.027 -1.709 0.28
1.298 4.027 -1.707 0.26
1.283 4.023 -1.703 0.35
1.271 4.028 -1.704 0.26
1.267 4.039 -1.708 0.18
1.252 4.036 -1.705 0.27
1.24 4.04 -1.705 0.38
1.228 4.047 -1.707 0.3
1.213 4.044 -1.703 0.37
1.199 4.043 -1.701 0.31
1.19 4.061 -1.707 0.32
1.175 4.057 -1.704 0.39
1.169 4.057 -1.703 0.3
1.16 4.075 -1.71 0.33
1.145 4.072 -1.707 0.37
1.133 4.079 -1.708 0.3
1.118 4.073 -1.704 0.34
1.106 4.08 -1.706 0.44
1.092 4.08 -1.704 0.27
1.09 4.096 -1.711 0.19
1.074 4.089 -1.706 0.29
1.059 4.083 -1.702 0.33
1.05 4.103 -1.709 0.33
1.037 4.106 -1.709 0.36
1.024 4.109 -1.709 0.3
1.01 4.107 -1.707 0.29
1.005 4.114 -1.709 0.41
0.993 4.121 -1.711 0.29
0.975 4.104 -1.702 0.3
0.967 4.125 -1.71 0.22
0.956 4.137 -1.714 0.23
0.938 4.119 -1.704 0.24
0.928 4.136 -1.711 0.32
0.915 4.139 -1.711 0.38
0.907 4.135 -1.708 0.37
0.897 4.148 -1.713 0.27
0.882 4.144 -1.71 0.29
0.869 4.149 -1.711 0.38
0.855 4.146 -1.708 0.33
0.845 4.163 -1.714 0.21
0.832 4.166 -1.714 0.19
0.825 4.165 -1.714 0.25
0.811 4.162 -1.711 0.29
0.799 4.168 -1.713 0.31
0.786 4.171 -1.713 0.36
0.771 4.168 -1.711 0.26
0.757 4.165 -1.708 0.14
0.746 4.176 -1.712 0.21
0.742 4.192 -1.718 0.23
0.73 4.2 -1.721 0.29
0.713 4.182 -1.712 0.31
0.701 4.19 -1.714 0.27
0.689 4.199 -1.718 0.22
0.674 4.19 -1.713 0.24
0.663 4.211 -1.721 0.16
0.649 4.205 -1.718 0.24
0.643 4.212 -1.72 0.2
0.63 4.214 -1.72 0.23
0.618 4.223 -1.723 0.2
0.603 4.211 -1.717 0.23
0.59 4.22 -1.72 0.17
0.577 4.22 -1.719 0.25
0.562 4.211 -1.714 0.24
0.556 4.215 -1.716 0.25
0.544 4.224 -1.719 0.25
0.53 4.222 -1.718 0.18
0.516 4.218 -1.715 0.29
0.503 4.224 -1.717 0.22
0.49 4.229 -1.718 0.23
0.476 4.219 -1.714 0.24
0.471 4.237 -1.721 0.38
0.457 4.232 -1.718 0.29
0.444 4.239 -1.721 0.34
0.431 4.235 -1.718 0.34
0.416 4.227 -1.714 0.34
0.404 4.238 -1.718 0.34
0.391 4.243 -1.72 0.34
0.377 4.233 -1.715 0.34
0.371 4.243 -1.719 0.37
0.357 4.235 -1.715 0.36
0.343 4.234 -1.714 0.2
0.331 4.242 -1.718 0.31
0.317 4.242 -1.717 0.33
0.304 4.254 -1.722 0.33
0.291 4.253 -1.721 0.33
0.284 4.246 -1.718 0.33
0.271 4.25 -1.719 0.31
0.258 4.257 -1.722 0.32
0.244 4.256 -1.721 0.32
0.23 4.247 -1.717 0.32
0.217 4.253 -1.719 0.32
0.204 4.254 -1.719 0.32
0.198 4.262 -1.722 0.31
0.184 4.251 -1.718 0.31
0.171 4.261 -1.722 0.32
0.157 4.254 -1.718 0.32
0.144 4.268 -1.724 0.32
0.13 4.257 -1.719 0.3
0.117 4.263 -1.722 0.3
0.111 4.267 -1.723 0.34
0.097 4.273 -1.726 0.32
0.084 4.264 -1.722 0.29
0.07 4.271 -1.725 0.31
0.057 4.264 -1.722 0.34
0.043 4.262 -1.721 0.3
0.03 4.274 -1.726 0.33
0.017 4.274 -1.726 0.3
0.01 4.27 -1.724 0.33
-0.003 4.272 -1.725 0.29
-0.017 4.275 -1.726 0.33
-0.03 4.272 -1.725 0.32
-0.044 4.277 -1.727 0.3
-0.057 4.268 -1.723 0.34
-0.071 4.277 -1.727 0.32
-0.077 4.271 -1.725 0.32
-0.091 4.271 -1.725 0.32
-0.104 4.282 -1.73 0.31
-0.118 4.278 -1.728 0.33
-0.131 4.262 -1.722 0.29
-0.144 4.273 -1.726 0.33
-0.158 4.273 -1.726 0.32
-0.165 4.27 -1.726 0.31
-0.178 4.274 -1.727 0.28
-0.191 4.266 -1.724 0.33
-0.204 4.261 -1.722 0.29
-0.218 4.268 -1.726 0.34
-0.231 4.26 -1.722 0.29
-0.245 4.261 -1.723 0.31
-0.259 4.268 -1.726 0.31
-0.265 4.264 -1.725 0.31
-0.279 4.265 -1.726 0.32
-0.291 4.256 -1.722 0.31
-0.305 4.263 -1.726 0.31
-0.318 4.256 -1.723 0.32
-0.332 4.257 -1.724 0.31
-0.345 4.258 -1.725 0.3
-0.353 4.266 -1.729 0.31
-0.366 4.26 -1.726 0.32
-0.379 4.255 -1.725 0.32
-0.392 4.252 -1.724 0.31
-0.405 4.249 -1.723 0.32
-0.419 4.249 -1.724 0.32
-0.432 4.25 -1.725 0.31
-0.439 4.251 -1.726 0.31
-0.453 4.257 -1.729 0.31
-0.466 4.25 -1.726 0.32
-0.481 4.259 -1.731 0.31
-0.493 4.247 -1.726 0.32
-0.506 4.247 -1.727 0.32
-0.519 4.24 -1.725 0.32
-0.532 4.237 -1.724 0.32
-0.54 4.245 -1.728 0.32
-0.552 4.238 -1.726 0.33
-0.566 4.236 -1.726 0.33
-0.58 4.238 -1.727 0.34
-0.593 4.24 -1.729 0.34
-0.606 4.231 -1.726 0.34
-0.62 4.234 -1.728 0.37
-0.626 4.233 -1.728 0.36
-0.642 4.244 -1.734 0.2
-0.652 4.225 -1.726 0.29
-0.668 4.238 -1.733 0.39
-0.679 4.221 -1.726 0.3
-0.692 4.219 -1.726 0.31
-0.706 4.219 -1.727 0.35
-0.719 4.216 -1.727 0.34
-0.726 4.215 -1.727 0.34
-0.741 4.226 -1.733 0.33
-0.752 4.212 -1.728 0.32
-0.766 4.21 -1.728 0.14
-0.782 4.224 -1.735 0.18
-0.792 4.207 -1.729 0.22
-0.807 4.212 -1.732 0.23
-0.809 4.187 -1.722 0.18
-0.826 4.204 -1.73 0.28
-0.839 4.2 -1.73 0.24
-0.853 4.203 -1.732 0.27
-0.865 4.193 -1.729 0.16
-0.879 4.194 -1.73 0.28
-0.891 4.185 -1.728 0.23
-0.899 4.193 -1.732 0.19
-0.913 4.194 -1.734 0.26
-0.927 4.194 -1.735 0.16
-0.94 4.188 -1.734 0.26
-0.955 4.194 -1.737 0.19
-0.967 4.187 -1.736 0.25
-0.981 4.186 -1.737 0.2
-0.985 4.174 -1.732 0.12
-1.0 4.178 -1.735 0.2
-1.011 4.166 -1.731 0.11
-1.025 4.168 -1.734 0.18
-1.037 4.161 -1.732 0.11
-1.05 4.156 -1.731 0.19
-1.061 4.146 -1.728 0.11
-1.078 4.156 -1.734 0.19
-1.081 4.14 -1.728 0.05
-1.094 4.139 -1.729 0.16
-1.107 4.135 -1.729 0.2
-1.12 4.13 -1.728 0.25
-1.136 4.139 -1.734 0.24
-1.145 4.123 -1.728 0.11
-1.161 4.128 -1.732 0.19
-1.165 4.119 -1.729 0.2
-1.177 4.11 -1.726 0.1
-1.198 4.133 -1.738 0.17
-1.205 4.112 -1.73 0.21
-1.217 4.103 -1.728 0.1
-1.236 4.12 -1.737 0.17
-1.241 4.09 -1.726 0.21
-1.255 4.112 -1.737 0.19
-1.265 4.099 -1.733 0.23
-1.275 4.087 -1.729 0.22
-1.293 4.098 -1.736 0.25
-1.304 4.089 -1.734 0.25
-1.314 4.076 -1.73 0.25
-1.329 4.077 -1.732 0.44
-1.344 4.082 -1.736 0.3
-1.345 4.062 -1.728 0.17
-1.362 4.07 -1.734 0.28
-1.375 4.068 -1.734 0.35
-1.382 4.048 -1.727 0.33
-1.399 4.056 -1.733 0.32
-1.413 4.055 -1.734 0.32
-1.42 4.033 -1.726 0.33
-1.433 4.05 -1.735 0.4
-1.451 4.061 -1.742 0.35
-1.459 4.042 -1.736 0.3
-1.474 4.044 -1.739 0.27
-1.485 4.033 -1.736 0.17
-1.495 4.023 -1.734 0.27
-1.512 4.029 -1.738 0.19
-1.518 4.026 -1.738 0.24
-1.533 4.027 -1.741 0.19
-1.541 4.01 -1.735 0.24
-1.554 4.007 -1.736 0.18
-1.567 4.004 -1.737 0.25
-1.585 4.012 -1.743 0.19
-1.589 3.985 -1.733 0.12
-1.606 3.99 -1.737 0.19
-1.612 3.988 -1.737 0.21
-1.627 3.989 -1.741 0.17
-1.637 3.978 -1.737 0.23
-1.653 3.981 -1.741 0.17
-1.66 3.962 -1.735 0.24
-1.676 3.967 -1.74 0.19
-1.683 3.948 -1.734 0.25
-1.691 3.951 -1.736 0.22
-1.711 3.962 -1.744 0.2
-1.72 3.948 -1.74 0.25
-1.733 3.945 -1.741 0.18
-1.743 3.934 -1.738 0.25
-1.765 3.949 -1.748 0.18
-1.766 3.918 -1.736 0.25
-1.786 3.931 -1.745 0.2
-1.79 3.923 -1.742 0.22
-1.808 3.929 -1.748 0.19
-1.808 3.897 -1.735 0.24
-1.826 3.904 -1.741 0.22
-1.838 3.897 -1.741 0.18
-1.848 3.888 -1.739 0.26
-1.866 3.894 -1.745 0.18
-1.871 3.887 -1.743 0.24
-1.89 3.895 -1.749 0.18
-1.891 3.867 -1.739 0.25
-1.912 3.879 -1.748 0.21
-1.916 3.857 -1.74 0.12
-1.929 3.853 -1.741 0.21
-1.945 3.853 -1.744 0.2
-1.944 3.837 -1.737 0.25
-1.968 3.854 -1.749 0.18
-1.971 3.829 -1.74 0.23
-1.994 3.844 -1.75 0.18
-1.995 3.817 -1.74 0.24
-2.015 3.827 -1.748 0.19
-2.025 3.816 -1.745 0.23
-2.043 3.821 -1.751 0.18
-2.04 3.801 -1.743 0.23
-2.062 3.814 -1.753 0.21
-2.066 3.792 -1.745 0.12
-2.077 3.783 -1.744 0.21
-2.097 3.791 -1.751 0.2
-2.103 3.775 -1.746 0.25
-2.119 3.777 -1.75 0.19
-2.118 3.76 -1.744 0.24
-2.139 3.77 -1.752 0.18
-2.144 3.752 -1.746 0.25
-2.162 3.755 -1.751 0.21
-2.168 3.738 -1.746 0.12
-2.184 3.739 -1.75 0.18
-2.189 3.72 -1.744 0.21
-2.198 3.723 -1.747 0.22
-2.217 3.728 -1.753 0.2
-2.219 3.704 -1.745 0.25
-2.241 3.714 -1.753 0.2
-2.245 3.695 -1.747 0.12
-2.263 3.699 -1.753 0.18
-2.27 3.684 -1.749 0.12
-2.282 3.678 -1.749 0.21
-2.296 3.687 -1.756 0.21
-2.3 3.667 -1.749 0.25
-2.318 3.671 -1.755 0.16
-2.32 3.648 -1.747 0.23
-2.335 3.647 -1.75 0.18
-2.351 3.646 -1.753 0.24
-2.361 3.637 -1.753 0.19
-2.365 3.63 -1.751 0.23
-2.388 3.641 -1.76 0.21
-2.383 3.609 -1.748 0.12
-2.403 3.614 -1.754 0.21
-2.414 3.606 -1.754 0.11
-2.425 3.597 -1.753 0.16
-2.431 3.582 -1.749 0.21
-2.454 3.592 -1.759 0.18
-2.453 3.578 -1.753 0.24
-2.466 3.573 -1.755 0.18
-2.474 3.561 -1.753 0.25
-2.49 3.559 -1.756 0.17
-2.493 3.541 -1.75 0.23
-2.517 3.551 -1.76 0.21
-2.518 3.528 -1.752 0.12
-2.524 3.526 -1.753 0.21
-2.548 3.535 -1.762 0.2
-2.551 3.516 -1.756 0.23
-2.564 3.511 -1.757 0.2
-2.569 3.495 -1.753 0.23
-2.593 3.503 -1.762 0.19
-2.597 3.486 -1.757 0.23
-2.612 3.495 -1.764 0.19
-2.612 3.472 -1.756 0.21
-2.625 3.467 -1.758 0.1
-2.637 3.46 -1.759 0.2
-2.641 3.443 -1.754 0.1
-2.658 3.442 -1.758 0.08
-2.681 3.45 -1.767 0.0
-2.669 3.413 -1.751 0.0
-2.678 3.413 -1.753 0.0
-0.918 1.135 -0.513 0.0
-0.982 0.971 -0.478 0.0
-3.307 2.9 -1.779 0.0
-3.287 2.865 -1.763 0.02
-3.29 2.85 -1.76 0.03
-3.306 2.854 -1.766 0.03
-3.313 2.842 -1.765 0.03
-3.315 2.826 -1.761 0.03
-3.356 2.843 -1.779 0.0
-3.343 2.813 -1.767 0.0
-3.361 2.811 -1.772 0.0
-3.369 2.799 -1.772 0.0
-3.378 2.789 -1.772 0.0
-3.373 2.777 -1.767 0.0
-3.375 2.76 -1.763 0.0
-3.395 2.759 -1.769 0.0
-3.401 2.746 -1.768 0.0
-3.401 2.728 -1.763 0.0
-3.408 2.716 -1.762 0.0
-3.422 2.71 -1.765 0.0
-3.414 2.695 -1.758 0.0
-3.425 2.686 -1.76 0.0
-3.446 2.685 -1.767 0.0
-3.45 2.671 -1.764 0.0
-3.465 2.665 -1.768 0.0
-3.48 2.659 -1.772 0.0
-3.48 2.642 -1.767 0.0
-3.478 2.632 -1.764 0.0
-3.48 2.617 -1.76 0.0
-3.511 2.622 -1.772 0.0
-3.516 2.609 -1.771 0.0
-3.521 2.596 -1.769 0.0
-3.532 2.587 -1.771 0.0
-3.538 2.574 -1.769 0.0
-3.547 2.563 -1.77 0.0
-3.547 2.555 -1.768 0.0
-3.576 2.558 -1.779 0.0
-3.582 2.546 -1.778 0.0
-3.59 2.535 -1.778 0.0
-3.575 2.508 -1.766 0.0
-3.585 2.498 -1.767 0.06
-3.591 2.485 -1.766 0.04
-3.597 2.481 -1.767 0.08
-3.607 2.471 -1.768 0.09
-3.617 2.461 -1.769 0.18
-3.618 2.446 -1.766 0.11
-3.635 2.44 -1.771 0.19
-3.637 2.425 -1.768 0.11
-3.643 2.412 -1.767 0.21
-3.656 2.413 -1.772 0.2
-3.654 2.395 -1.767 0.25
-3.686 2.4 -1.779 0.2
-3.678 2.378 -1.772 0.12
-3.687 2.368 -1.772 0.21
-3.702 2.361 -1.776 0.2
-3.699 2.342 -1.771 0.23
-3.72 2.347 -1.779 0.19
-3.712 2.326 -1.772 0.23
-3.731 2.322 -1.778 0.18
-3.728 2.304 -1.772 0.25
-3.754 2.303 -1.782 0.2
-3.745 2.282 -1.774 0.12
-3.751 2.269 -1.773 0.21
-3.766 2.262 -1.777 0.16
-3.763 2.253 -1.774 0.26
-3.773 2.243 -1.775 0.2
-3.775 2.228 -1.773 0.21
-3.789 2.22 -1.776 0.23
-3.794 2.207 -1.775 0.18
-3.793 2.19 -1.772 0.26
-3.813 2.186 -1.778 0.19
-3.807 2.174 -1.773 0.24
-3.834 2.174 -1.783 0.21
-3.83 2.156 -1.778 0.12
-3.84 2.145 -1.779 0.21
-3.853 2.137 -1.783 0.2
-3.842 2.115 -1.774 0.23
-3.866 2.113 -1.783 0.2
-3.85 2.088 -1.772 0.12
-3.86 2.086 -1.775 0.2
-3.876 2.079 -1.779 0.1
-3.886 2.068 -1.781 0.2
-3.881 2.05 -1.775 0.11
-3.899 2.044 -1.781 0.18
-3.902 2.03 -1.779 0.21
-3.902 2.014 -1.776 0.1
-3.908 2.01 -1.778 0.2
-3.921 2.001 -1.781 0.21
-3.919 1.984 -1.777 0.04
-3.94 1.979 -1.784 0.0
-3.92 1.954 -1.772 0.0
-3.926 1.942 -1.772 0.0
-3.932 1.929 -1.772 0.0
-3.937 1.924 -1.772 0.0
-3.66 -2.138 -1.711 0.0
-3.628 -2.134 -1.698 0.0
-3.593 -2.128 -1.684 0.0
-3.539 -2.111 -1.66 0.0
-3.566 -2.142 -1.676 0.0
-3.587 -2.163 -1.689 0.0
-3.549 -2.155 -1.673 0.05
-3.543 -2.166 -1.673 0.04
-3.536 -2.177 -1.673 0.07
-3.558 -2.207 -1.688 0.19
-3.564 -2.226 -1.695 0.21
-3.529 -2.22 -1.68 0.25
-3.522 -2.223 -1.679 0.2
-3.514 -2.233 -1.678 0.22
-3.505 -2.243 -1.677 0.18
-3.512 -2.263 -1.684 0.17
-3.523 -2.286 -1.694 0.1
-3.541 -2.314 -1.707 0.21
-3.52 -2.316 -1.699 0.11
-3.511 -2.326 -1.699 0.18
-3.515 -2.336 -1.703 0.2
-3.521 -2.357 -1.71 0.23
-3.482 -2.346 -1.693 0.2
-3.476 -2.358 -1.694 0.1
-3.481 -2.377 -1.7 0.08
-3.488 -2.399 -1.708 0.18
-3.496 -2.42 -1.716 0.2
-3.471 -2.411 -1.705 0.05
-3.468 -2.425 -1.707 0.17
-3.445 -2.425 -1.699 0.11
-3.442 -2.439 -1.702 0.2
-3.428 -2.446 -1.699 0.11
-3.424 -2.458 -1.7 0.18
-3.405 -2.462 -1.695 0.05
-3.411 -2.482 -1.702 0.17
-3.403 -2.484 -1.699 0.2
-3.407 -2.504 -1.706 0.09
-3.386 -2.504 -1.699 0.09
-3.391 -2.525 -1.706 0.09
-3.415 -2.56 -1.723 0.17
-3.391 -2.559 -1.714 0.21
-3.395 -2.578 -1.721 0.16
-3.377 -2.573 -1.714 0.26
-3.371 -2.585 -1.714 0.2
-3.337 -2.575 -1.7 0.21
-3.342 -2.596 -1.707 0.19
-3.307 -2.586 -1.693 0.05
-3.288 -2.587 -1.687 0.17
-3.278 -2.596 -1.686 0.18
-3.278 -2.605 -1.688 0.18
-3.299 -2.638 -1.704 0.09
-3.296 -2.653 -1.707 0.18
-3.257 -2.638 -1.69 0.1
-3.244 -2.645 -1.688 0.18
-3.229 -2.649 -1.684 0.05
-3.23 -2.667 -1.689 0.17
-3.232 -2.677 -1.692 0.19
-3.23 -2.693 -1.696 0.1
-3.236 -2.715 -1.704 0.15
-3.223 -2.722 -1.702 0.23
-3.224 -2.74 -1.707 0.21
-3.202 -2.738 -1.699 0.23
-3.169 -2.728 -1.686 0.09
-3.153 -2.722 -1.679 0.09
-3.144 -2.732 -1.679 0.08
-3.13 -2.737 -1.676 0.16
-3.119 -2.744 -1.674 0.16
-3.118 -2.761 -1.679 0.16
-3.095 -2.758 -1.67 0.04
-3.087 -2.769 -1.671 0.08
-3.075 -2.766 -1.666 0.16
-3.059 -2.77 -1.662 0.04
-3.045 -2.774 -1.659 0.07
-3.026 -2.774 -1.653 0.04
-3.032 -2.797 -1.661 0.0
-2.988 -2.774 -1.641 0.0
-2.973 -2.777 -1.637 0.0
-2.955 -2.777 -1.631 0.0
-2.948 -2.779 -1.63 0.0
-2.928 -2.778 -1.623 0.0
-2.906 -2.775 -1.616 0.0
-2.89 -2.776 -1.611 0.0
-2.874 -2.779 -1.607 0.0
-2.858 -2.78 -1.602 0.0
-2.836 -2.776 -1.594 0.0
-2.807 -2.756 -1.579 0.0
-2.787 -2.753 -1.572 0.0
-2.791 -2.775 -1.58 0.0
-2.772 -2.773 -1.574 0.0
-2.758 -2.777 -1.57 0.0
-2.744 -2.78 -1.567 0.0
-2.732 -2.785 -1.565 0.0
-2.713 -2.775 -1.556 0.0
-2.697 -2.775 -1.551 0.0
-2.689 -2.785 -1.552 0.0
-2.888 -3.1 -1.71 0.0
-2.843 -3.07 -1.687 0.02
-2.86 -3.108 -1.704 0.07
-2.849 -3.116 -1.703 0.04
-2.837 -3.122 -1.702 0.07
-2.828 -3.133 -1.703 0.04
-2.826 -3.14 -1.704 0.0
-2.809 -3.14 -1.699 0.0
-2.796 -3.146 -1.698 0.0
-2.794 -3.163 -1.703 0.0
-2.782 -3.171 -1.702 0.0
-2.781 -3.189 -1.707 0.0
-2.293 -3.736 -1.773 0.0
-2.268 -3.722 -1.762 0.0
-2.248 -3.715 -1.755 0.02
-2.227 -3.706 -1.747 0.12
-2.208 -3.687 -1.736 0.19
-2.163 -3.637 -1.707 0.21
-2.143 -3.629 -1.7 0.1
-2.131 -3.636 -1.7 0.18
-2.117 -3.638 -1.698 0.2
-2.107 -3.646 -1.699 0.1
-2.096 -3.655 -1.699 0.19
-2.088 -3.653 -1.697 0.2
-2.076 -3.66 -1.697 0.1
-2.071 -3.677 -1.703 0.18
-2.059 -3.682 -1.702 0.2
-2.049 -3.692 -1.703 0.1
-2.035 -3.695 -1.702 0.18
-2.02 -3.695 -1.699 0.11
-2.02 -3.708 -1.703 0.2
-2.012 -3.722 -1.707 0.2
-2.006 -3.738 -1.712 0.1
-2.013 -3.78 -1.73 0.18
-1.992 -3.769 -1.721 0.22
-1.985 -3.785 -1.726 0.19
-1.961 -3.768 -1.714 0.12
-1.954 -3.77 -1.714 0.21
-1.943 -3.776 -1.714 0.2
-1.945 -3.81 -1.727 0.16
-1.928 -3.806 -1.722 0.06
-1.922 -3.823 -1.728 0.16
-1.903 -3.816 -1.722 0.2
-1.889 -3.817 -1.719 0.09
-1.881 -3.817 -1.718 0.21
-1.876 -3.838 -1.725 0.11
-1.864 -3.844 -1.725 0.18
-1.842 -3.828 -1.714 0.11
-1.827 -3.829 -1.712 0.18
-1.822 -3.849 -1.719 0.1
-1.816 -3.868 -1.726 0.2
-1.81 -3.87 -1.725 0.26
-1.799 -3.879 -1.726 0.23
-1.777 -3.862 -1.716 0.24
-1.758 -3.853 -1.709 0.1
-1.75 -3.867 -1.713 0.2
-1.738 -3.874 -1.714 0.2
-1.73 -3.888 -1.718 0.17
-1.717 -3.875 -1.711 0.24
-1.704 -3.879 -1.71 0.22
-1.69 -3.879 -1.707 0.2
-1.683 -3.898 -1.714 0.22
-1.677 -3.919 -1.721 0.24
-1.655 -3.9 -1.71 0.12
-1.647 -3.916 -1.714 0.18
-1.618 -3.88 -1.695 0.11
-1.622 -3.908 -1.707 0.17
-1.611 -3.915 -1.708 0.11
-1.589 -3.896 -1.697 0.19
-1.58 -3.909 -1.701 0.2
-1.569 -3.916 -1.702 0.09
-1.552 -3.911 -1.697 0.09
-1.537 -3.907 -1.693 0.08
-1.534 -3.918 -1.697 0.08
-1.521 -3.923 -1.697 0.09
-1.522 -3.962 -1.713 0.18
-1.51 -3.968 -1.714 0.23
-1.485 -3.939 -1.698 0.17
-1.475 -3.95 -1.701 0.09
-1.457 -3.939 -1.694 0.09
-1.45 -3.94 -1.693 0.08
-1.453 -3.988 -1.713 0.15
-1.433 -3.97 -1.703 0.22
-1.404 -3.927 -1.681 0.16
-1.401 -3.958 -1.693 0.16
-1.382 -3.943 -1.684 0.16
-1.366 -3.937 -1.68 0.16
-1.358 -3.936 -1.678 0.04
-1.351 -3.956 -1.685 0.08
-1.335 -3.949 -1.68 0.08
-1.325 -3.959 -1.683 0.16
-1.31 -3.956 -1.68 0.04
-1.298 -3.96 -1.68 0.07
-1.284 -3.961 -1.678 0.04
-1.281 -3.973 -1.683 0.07
-1.267 -3.972 -1.68 0.04
-1.26 -3.995 -1.689 0.07
-1.251 -4.008 -1.693 0.04
-1.246 -4.04 -1.706 0.07
-1.236 -4.052 -1.71 0.15
-1.227 -4.067 -1.714 0.17
-1.216 -4.076 -1.717 0.09
-1.209 -4.078 -1.717 0.2
-1.195 -4.078 -1.715 0.11
-1.174 -4.054 -1.703 0.19
-1.165 -4.07 -1.708 0.11
-1.153 -4.077 -1.71 0.18
-1.134 -4.056 -1.699 0.12
-1.122 -4.063 -1.7 0.2
-1.111 -4.047 -1.692 0.21
-1.091 -4.022 -1.68 0.04
-1.08 -4.032 -1.683 0.14
-1.073 -4.059 -1.693 0.2
-1.058 -4.053 -1.689 0.09
-1.05 -4.074 -1.697 0.18
-1.034 -4.063 -1.691 0.19
-1.026 -4.062 -1.689 0.04
-1.016 -4.074 -1.693 0.07
-1.002 -4.075 -1.692 0.14
-0.989 -4.075 -1.691 0.04
-0.978 -4.085 -1.694 0.16
-0.957 -4.056 -1.68 0.05
-0.944 -4.057 -1.679 0.07
-0.946 -4.094 -1.695 0.14
-0.931 -4.088 -1.691 0.23
-0.921 -4.104 -1.696 0.19
-0.903 -4.081 -1.685 0.22
-0.89 -4.084 -1.685 0.17
-0.875 -4.076 -1.68 0.16
-0.86 -4.068 -1.676 0.04
-0.853 -4.069 -1.676 0.07
-0.841 -4.074 -1.676 0.15
-0.831 -4.089 -1.682 0.18
-0.816 -4.081 -1.677 0.18
-0.8 -4.071 -1.672 0.17
-0.787 -4.07 -1.67 0.18
-0.78 -4.105 -1.684 0.18
-0.772 -4.097 -1.68 0.24
-0.76 -4.105 -1.683 0.18
-0.746 -4.098 -1.679 0.23
-0.733 -4.104 -1.68 0.18
-0.717 -4.084 -1.671 0.16
-0.704 -4.085 -1.67 0.16
-0.688 -4.067 -1.661 0.17
-0.676 -4.077 -1.665 0.16
-0.669 -4.076 -1.664 0.16
-0.656 -4.076 -1.663 0.17
-0.643 -4.076 -1.662 0.17
-0.63 -4.076 -1.661 0.17
-0.618 -4.082 -1.663 0.18
-0.604 -4.077 -1.66 0.18
-0.597 -4.072 -1.657 0.04
-0.584 -4.076 -1.658 0.08
-0.575 -4.101 -1.669 0.04
-0.563 -4.114 -1.673 0.07
-0.553 -4.139 -1.684 0.09
-0.542 -4.158 -1.691 0.19
-0.526 -4.134 -1.68 0.18
-0.513 -4.137 -1.68 0.18
-0.506 -4.134 -1.679 0.18
-0.495 -4.151 -1.685 0.17
-0.481 -4.139 -1.68 0.17
-0.47 -4.168 -1.692 0.19
-0.453 -4.128 -1.673 0.05
-0.44 -4.127 -1.673 0.16
-0.427 -4.134 -1.675 0.19
-0.421 -4.133 -1.674 0.09
-0.408 -4.138 -1.676 0.08
-0.394 -4.126 -1.67 0.09
-0.381 -4.131 -1.672 0.08
-0.369 -4.134 -1.673 0.16
-0.356 -4.144 -1.676 0.17
-0.344 -4.158 -1.682 0.1
-0.338 -4.164 -1.684 0.19
-0.323 -4.143 -1.675 0.18
-0.308 -4.11 -1.66 0.16
-0.295 -4.107 -1.658 0.1
-0.281 -4.097 -1.654 0.08
-0.269 -4.101 -1.655 0.04
-0.257 -4.124 -1.665 0.14
-0.251 -4.134 -1.669 0.19
-0.237 -4.113 -1.659 0.18
-0.224 -4.122 -1.663 0.16
-0.214 -4.173 -1.684 0.16
-0.2 -4.164 -1.68 0.27
-0.186 -4.134 -1.667 0.16
-0.173 -4.138 -1.669 0.04
-0.167 -4.153 -1.675 0.15
-0.154 -4.148 -1.673 0.05
-0.141 -4.141 -1.669 0.15
-0.128 -4.141 -1.669 0.05
-0.114 -4.131 -1.665 0.16
-0.102 -4.155 -1.675 0.05
-0.089 -4.155 -1.675 0.17
-0.076 -4.144 -1.67 0.05
-0.069 -4.15 -1.673 0.16
-0.056 -4.13 -1.664 0.19
-0.043 -4.112 -1.656 0.1
-0.03 -4.145 -1.67 0.18
-0.017 -4.16 -1.676 0.11
-0.004 -4.149 -1.672 0.21
0.009 -4.14 -1.668 0.18
0.015 -4.114 -1.657 0.17
0.028 -4.103 -1.652 0.18
0.041 -4.092 -1.647 0.16
0.054 -4.091 -1.647 0.16
0.066 -4.089 -1.646 0.16
0.079 -4.093 -1.648 0.16
0.092 -4.1 -1.651 0.16
0.099 -4.089 -1.646 0.04
0.111 -4.087 -1.646 0.08
0.124 -4.088 -1.646 0.04
0.137 -4.088 -1.646 0.07
0.149 -4.076 -1.642 0.04
0.163 -4.085 -1.646 0.07
0.178 -4.128 -1.665 0.14
0.185 -4.146 -1.673 0.17
0.197 -4.129 -1.665 0.09
0.211 -4.136 -1.669 0.18
0.224 -4.134 -1.668 0.19
0.236 -4.125 -1.665 0.18
0.248 -4.114 -1.66 0.17
0.26 -4.095 -1.652 0.17
0.267 -4.105 -1.657 0.17
0.28 -4.108 -1.658 0.04
0.296 -4.142 -1.673 0.15
0.308 -4.128 -1.668 0.05
0.322 -4.136 -1.672 0.16
0.333 -4.122 -1.666 0.19
0.345 -4.11 -1.661 0.04
0.351 -4.101 -1.657 0.0
0.363 -4.085 -1.651 0.0
0.372 -4.051 -1.637 0.0
0.389 -4.088 -1.654 0.0
0.401 -4.078 -1.65 0.0
0.415 -4.095 -1.657 0.0
0.432 -4.126 -1.672 0.0
0.44 -4.142 -1.679 0.0
0.453 -4.141 -1.679 0.0
0.463 -4.115 -1.669 0.0
0.477 -4.119 -1.671 0.0
0.491 -4.127 -1.675 0.0
0.503 -4.12 -1.673 0.0
0.518 -4.131 -1.678 0.0
0.532 -4.139 -1.682 0.0
0.542 -4.161 -1.692 0.0
0.617 -4.132 -1.684 0.0
0.623 -4.128 -1.683 0.0
0.638 -4.137 -1.688 0.0
0.65 -4.129 -1.685 0.0
0.825 -4.068 -1.673 0.0
0.831 -4.035 -1.659 0.0
0.842 -4.023 -1.655 0.0
0.852 -4.01 -1.65 0.0
0.861 -4.017 -1.654 0.0
0.87 -4.0 -1.648 0.0
0.885 -4.008 -1.653 0.0
0.895 -3.995 -1.648 0.0
0.909 -3.995 -1.65 0.0
0.923 -4.001 -1.654 0.0
0.935 -3.995 -1.652 0.0
1.97 -3.672 -1.68 0.0
1.983 -3.669 -1.681 0.0
1.96 -3.575 -1.641 0.0
1.978 -3.593 -1.651 0.0
2.002 -3.61 -1.663 0.0
2.0 -3.58 -1.651 0.0
2.005 -3.563 -1.646 0.0
2.016 -3.556 -1.646 0.0
2.037 -3.566 -1.654 0.0
2.04 -3.547 -1.647 0.0
2.048 -3.547 -1.649 0.0
2.052 -3.529 -1.643 0.0
2.065 -3.526 -1.645 0.0
2.091 -3.543 -1.657 0.0
2.083 -3.505 -1.641 0.0
2.109 -3.524 -1.654 0.05
2.117 -3.512 -1.651 0.04
2.127 -3.515 -1.654 0.14
2.134 -3.502 -1.651 0.2
2.144 -3.494 -1.65 0.16
2.153 -3.484 -1.649 0.04
2.172 -3.49 -1.655 0.14
2.173 -3.467 -1.647 0.05
2.188 -3.468 -1.651 0.17
2.192 -3.462 -1.65 0.19
2.205 -3.458 -1.651 0.09
2.207 -3.437 -1.644 0.08
2.203 -3.409 -1.633 0.04
2.228 -3.423 -1.644 0.15
2.229 -3.401 -1.636 0.2
2.248 -3.406 -1.642 0.25
2.251 -3.399 -1.641 0.2
2.263 -3.394 -1.642 0.23
2.256 -3.361 -1.628 0.1
2.27 -3.36 -1.631 0.21
2.29 -3.366 -1.638 0.23
2.291 -3.346 -1.631 0.22
2.292 -3.325 -1.624 0.18
2.299 -3.323 -1.625 0.16
2.307 -3.312 -1.623 0.17
2.317 -3.305 -1.623 0.04
2.331 -3.302 -1.626 0.16
2.345 -3.3 -1.628 0.2
2.351 -3.286 -1.625 0.17
2.353 -3.268 -1.619 0.04
2.372 -3.283 -1.629 0.16
2.37 -3.259 -1.62 0.05
2.392 -3.268 -1.629 0.17
2.391 -3.245 -1.621 0.05
2.396 -3.23 -1.617 0.17
2.412 -3.23 -1.621 0.05
2.424 -3.226 -1.623 0.17
