# .PCD v.7 - Point Cloud Data file format
VERSION .7
FIELDS x y z intensity
SIZE 4 4 4 4
TYPE F F F F
COUNT 1 1 1 1
WIDTH 1949
HEIGHT 1
VIEWPOINT 0 0 0 1 0 0 0
POINTS 1949
DATA ascii
7.314 1.423 -1.664 0.29
7.304 1.445 -1.663 0.28
7.314 1.471 -1.666 0.26
7.298 1.491 -1.664 0.27
7.3 1.504 -1.665 0.29
7.287 1.525 -1.663 0.3
7.281 1.547 -1.662 0.29
7.28 1.571 -1.663 0.27
7.284 1.596 -1.666 0.26
7.273 1.618 -1.664 0.29
7.261 1.639 -1.662 0.25
7.266 1.652 -1.664 0.32
7.257 1.674 -1.663 0.29
7.249 1.696 -1.663 0.27
7.246 1.719 -1.663 0.29
7.242 1.743 -1.664 0.28
7.229 1.763 -1.662 0.29
7.229 1.788 -1.663 0.28
7.23 1.8 -1.664 0.29
7.234 1.825 -1.666 0.25
7.211 1.843 -1.662 0.3
7.204 1.865 -1.662 0.27
7.211 1.892 -1.665 0.25
7.203 1.914 -1.665 0.29
7.193 1.935 -1.664 0.3
7.183 1.945 -1.662 0.29
7.192 1.971 -1.666 0.27
7.176 1.991 -1.663 0.28
7.168 2.013 -1.663 0.23
7.171 2.038 -1.665 0.28
7.157 2.059 -1.663 0.25
7.147 2.08 -1.662 0.28
7.131 2.1 -1.66 0.29
7.15 2.118 -1.666 0.27
7.136 2.138 -1.664 0.29
7.122 2.158 -1.662 0.31
7.12 2.182 -1.663 0.26
7.123 2.207 -1.666 0.28
7.106 2.227 -1.663 0.3
7.107 2.251 -1.665 0.26
7.105 2.263 -1.666 0.27
7.089 2.283 -1.663 0.29
7.082 2.305 -1.663 0.28
7.076 2.328 -1.664 0.28
7.074 2.352 -1.665 0.29
7.065 2.373 -1.665 0.29
7.056 2.395 -1.664 0.3
7.052 2.406 -1.664 0.29
7.037 2.426 -1.662 0.29
7.024 2.446 -1.661 0.29
7.022 2.47 -1.662 0.28
7.019 2.494 -1.664 0.31
7.006 2.514 -1.662 0.29
6.987 2.532 -1.659 0.29
6.983 2.543 -1.659 0.29
6.979 2.566 -1.66 0.31
6.98 2.591 -1.663 0.3
6.971 2.613 -1.663 0.31
6.958 2.633 -1.661 0.29
6.96 2.659 -1.664 0.29
6.945 2.678 -1.662 0.3
6.93 2.685 -1.659 0.26
6.934 2.712 -1.663 0.32
6.923 2.733 -1.662 0.31
6.92 2.756 -1.664 0.26
6.917 2.78 -1.665 0.28
6.905 2.801 -1.664 0.29
6.892 2.821 -1.663 0.26
6.882 2.829 -1.662 0.32
6.879 2.853 -1.663 0.31
6.857 2.87 -1.66 0.28
6.866 2.899 -1.665 0.33
6.85 2.917 -1.663 0.3
6.842 2.94 -1.663 0.31
6.842 2.965 -1.666 0.3
6.832 2.973 -1.664 0.3
6.823 2.995 -1.664 0.3
6.81 3.015 -1.663 0.29
6.804 3.038 -1.664 0.29
6.801 3.062 -1.666 0.3
6.776 3.076 -1.662 0.28
6.771 3.1 -1.663 0.29
6.77 3.125 -1.666 0.32
6.764 3.135 -1.665 0.29
6.754 3.156 -1.665 0.28
6.74 3.176 -1.664 0.27
6.734 3.199 -1.665 0.29
6.722 3.219 -1.665 0.3
6.714 3.241 -1.665 0.32
6.709 3.265 -1.666 0.27
6.697 3.272 -1.665 0.3
6.684 3.292 -1.664 0.27
6.69 3.321 -1.668 0.26
6.678 3.341 -1.668 0.28
6.664 3.36 -1.667 0.28
6.636 3.372 -1.662 0.31
6.635 3.398 -1.665 0.29
6.63 3.409 -1.665 0.29
6.637 3.438 -1.67 0.26
6.608 3.45 -1.665 0.29
6.608 3.476 -1.668 0.27
6.599 3.498 -1.668 0.27
6.581 3.515 -1.666 0.27
6.586 3.531 -1.669 0.29
6.573 3.551 -1.669 0.28
6.56 3.57 -1.668 0.27
6.559 3.596 -1.671 0.28
6.536 3.611 -1.668 0.27
6.528 3.633 -1.669 0.28
6.514 3.652 -1.668 0.28
6.508 3.676 -1.67 0.28
6.507 3.689 -1.671 0.29
6.499 3.711 -1.672 0.3
6.464 3.718 -1.666 0.27
6.469 3.748 -1.67 0.32
6.459 3.769 -1.671 0.29
6.444 3.788 -1.67 0.27
6.42 3.801 -1.666 0.28
6.427 3.819 -1.67 0.29
6.407 3.834 -1.668 0.29
6.387 3.849 -1.666 0.29
6.391 3.879 -1.67 0.29
6.369 3.893 -1.667 0.29
6.343 3.905 -1.664 0.27
6.356 3.94 -1.671 0.32
6.331 3.939 -1.666 0.3
6.322 3.961 -1.666 0.29
6.315 3.984 -1.668 0.29
6.294 3.999 -1.666 0.3
6.278 4.016 -1.665 0.29
6.277 4.043 -1.668 0.28
6.258 4.059 -1.666 0.3
6.245 4.079 -1.666 0.3
6.243 4.092 -1.667 0.29
6.206 4.095 -1.66 0.21
6.214 4.129 -1.666 0.41
6.195 4.144 -1.665 0.29
6.149 4.142 -1.655 0.21
6.146 4.167 -1.658 0.33
6.141 4.192 -1.66 0.32
6.114 4.188 -1.654 0.27
6.113 4.215 -1.658 0.27
6.118 4.247 -1.663 0.41
6.083 4.252 -1.657 0.45
6.084 4.281 -1.661 0.36
6.079 4.305 -1.664 0.32
6.056 4.318 -1.661 0.37
6.054 4.331 -1.662 0.46
6.056 4.361 -1.667 0.43
6.037 4.377 -1.666 0.3
6.03 4.4 -1.667 0.22
6.026 4.426 -1.67 0.28
6.008 4.442 -1.669 0.25
6.007 4.471 -1.673 0.27
5.995 4.476 -1.672 0.26
5.973 4.489 -1.669 0.2
5.986 4.528 -1.677 0.27
5.964 4.541 -1.675 0.23
5.943 4.555 -1.673 0.19
5.946 4.587 -1.678 0.27
5.939 4.611 -1.68 0.21
5.94 4.627 -1.683 0.12
5.919 4.64 -1.681 0.21
5.907 4.661 -1.682 0.2
5.914 4.697 -1.688 0.24
5.892 4.709 -1.686 0.2
5.889 4.737 -1.69 0.12
5.865 4.749 -1.687 0.2
5.873 4.77 -1.692 0.11
5.85 4.782 -1.689 0.2
5.837 4.802 -1.69 0.11
5.82 4.819 -1.689 0.18
5.833 4.861 -1.698 0.1
5.812 4.874 -1.696 0.17
5.798 4.894 -1.697 0.21
5.792 4.919 -1.7 0.1
5.779 4.925 -1.698 0.18
5.776 4.953 -1.702 0.18
5.757 4.968 -1.701 0.09
5.743 4.988 -1.701 0.18
5.735 5.012 -1.704 0.2
5.717 5.029 -1.703 0.1
5.703 5.048 -1.704 0.18
5.71 5.07 -1.708 0.11
5.681 5.076 -1.704 0.17
5.673 5.102 -1.707 0.21
5.66 5.122 -1.708 0.1
5.633 5.13 -1.704 0.2
5.635 5.164 -1.71 0.11
5.62 5.183 -1.711 0.17
5.618 5.197 -1.713 0.21
5.609 5.222 -1.715 0.1
5.588 5.235 -1.714 0.18
5.573 5.254 -1.714 0.21
5.555 5.27 -1.714 0.17
5.541 5.29 -1.714 0.23
5.533 5.316 -1.717 0.19
5.515 5.332 -1.717 0.23
5.504 5.338 -1.716 0.19
5.495 5.363 -1.719 0.24
5.473 5.375 -1.717 0.19
5.471 5.407 -1.722 0.24
5.444 5.415 -1.719 0.18
5.438 5.443 -1.722 0.24
5.434 5.455 -1.724 0.2
5.424 5.479 -1.726 0.12
5.397 5.487 -1.723 0.21
5.381 5.505 -1.723 0.17
5.38 5.538 -1.729 0.27
5.357 5.55 -1.727 0.23
5.333 5.56 -1.725 0.18
5.342 5.586 -1.731 0.26
5.319 5.597 -1.729 0.23
5.304 5.617 -1.73 0.19
5.301 5.649 -1.735 0.26
5.278 5.66 -1.733 0.24
5.252 5.668 -1.73 0.18
5.247 5.699 -1.735 0.26
5.229 5.715 -1.735 0.25
5.215 5.718 -1.733 0.19
5.216 5.754 -1.74 0.26
5.192 5.765 -1.738 0.23
5.165 5.771 -1.735 0.19
5.162 5.804 -1.74 0.27
5.143 5.819 -1.74 0.25
5.121 5.831 -1.738 0.2
5.128 5.858 -1.744 0.27
5.106 5.87 -1.743 0.24
5.084 5.881 -1.742 0.2
5.08 5.915 -1.747 0.27
5.057 5.925 -1.745 0.23
5.036 5.938 -1.744 0.19
5.035 5.974 -1.751 0.27
5.01 5.983 -1.749 0.22
5.003 5.994 -1.749 0.19
4.995 6.023 -1.754 0.26
4.962 6.022 -1.749 0.18
4.963 6.061 -1.756 0.25
4.94 6.072 -1.755 0.19
4.941 6.112 -1.762 0.24
4.907 6.109 -1.756 0.19
4.906 6.128 -1.76 0.22
4.879 6.134 -1.757 0.19
4.875 6.168 -1.763 0.24
4.853 6.18 -1.762 0.18
4.847 6.212 -1.767 0.23
4.82 6.218 -1.764 0.19
4.815 6.251 -1.77 0.21
4.797 6.248 -1.766 0.1
4.786 6.276 -1.77 0.19
4.767 6.291 -1.77 0.05
4.754 6.315 -1.773 0.18
4.735 6.331 -1.773 0.05
4.711 6.34 -1.771 0.17
4.699 6.366 -1.775 0.05
4.678 6.379 -1.774 0.18
4.677 6.399 -1.778 0.05
4.657 6.413 -1.778 0.17
4.642 6.436 -1.78 0.04
4.612 6.436 -1.776 0.16
4.61 6.476 -1.784 0.2
4.585 6.484 -1.782 0.04
4.566 6.5 -1.782 0.18
4.56 6.513 -1.784 0.05
4.542 6.531 -1.785 0.17
4.525 6.552 -1.787 0.19
4.513 6.577 -1.79 0.1
4.483 6.578 -1.786 0.18
4.473 6.608 -1.791 0.05
4.446 6.613 -1.788 0.18
4.444 6.633 -1.792 0.2
4.427 6.651 -1.793 0.1
4.404 6.662 -1.792 0.18
4.388 6.684 -1.795 0.11
4.372 6.706 -1.797 0.19
4.349 6.716 -1.796 0.2
4.333 6.738 -1.798 0.1
4.313 6.73 -1.794 0.18
4.3 6.757 -1.798 0.1
4.282 6.775 -1.799 0.18
4.264 6.793 -1.801 0.21
4.251 6.82 -1.804 0.1
4.216 6.812 -1.798 0.19
4.209 6.848 -1.805 0.1
4.18 6.85 -1.802 0.2
4.176 6.866 -1.804 0.11
4.149 6.871 -1.802 0.2
4.135 6.896 -1.805 0.11
4.12 6.92 -1.809 0.18
4.099 6.935 -1.809 0.22
4.068 6.933 -1.805 0.19
4.059 6.967 -1.811 0.23
4.041 6.96 -1.807 0.2
4.029 6.99 -1.812 0.23
4.001 6.992 -1.809 0.2
3.984 7.013 -1.811 0.25
3.95 7.005 -1.806 0.19
3.953 7.062 -1.818 0.25
3.923 7.061 -1.814 0.2
3.912 7.067 -1.814 0.25
3.892 7.082 -1.815 0.22
3.874 7.103 -1.818 0.2
3.856 7.124 -1.82 0.25
3.826 7.122 -1.816 0.23
3.806 7.138 -1.817 0.2
3.794 7.168 -1.822 0.26
3.777 7.164 -1.819 0.23
3.751 7.169 -1.818 0.19
3.743 7.208 -1.825 0.26
3.715 7.211 -1.823 0.23
3.694 7.225 -1.823 0.2
3.678 7.25 -1.827 0.27
3.653 7.257 -1.825 0.24
3.624 7.256 -1.822 0.2
3.628 7.293 -1.831 0.27
3.604 7.302 -1.83 0.24
3.581 7.314 -1.83 0.19
3.561 7.33 -1.832 0.28
3.534 7.334 -1.83 0.24
3.514 7.351 -1.831 0.19
3.497 7.376 -1.835 0.27
3.482 7.372 -1.832 0.24
3.457 7.38 -1.832 0.2
3.444 7.413 -1.838 0.27
3.419 7.419 -1.836 0.25
3.399 7.439 -1.839 0.25
3.382 7.462 -1.842 0.25
3.351 7.456 -1.838 0.21
3.351 7.488 -1.845 0.28
3.326 7.495 -1.844 0.25
3.306 7.514 -1.846 0.26
3.279 7.516 -1.844 0.26
3.254 7.524 -1.843 0.27
3.233 7.54 -1.845 0.27
3.212 7.555 -1.846 0.26
3.189 7.567 -1.846 0.26
3.182 7.585 -1.85 0.27
3.158 7.593 -1.849 0.25
3.131 7.595 -1.847 0.2
3.116 7.629 -1.853 0.29
3.092 7.637 -1.853 0.25
3.068 7.648 -1.853 0.27
3.047 7.663 -1.855 0.28
3.035 7.67 -1.855 0.27
3.013 7.685 -1.857 0.27
2.989 7.694 -1.857 0.27
2.967 7.709 -1.858 0.27
2.939 7.709 -1.856 0.29
2.92 7.731 -1.859 0.28
2.897 7.744 -1.86 0.27
2.884 7.746 -1.86 0.26
2.864 7.766 -1.862 0.26
2.84 7.777 -1.863 0.27
2.817 7.79 -1.864 0.27
2.791 7.793 -1.862 0.27
2.767 7.805 -1.863 0.27
2.747 7.827 -1.867 0.28
2.733 7.826 -1.865 0.27
2.711 7.842 -1.867 0.27
2.686 7.85 -1.867 0.27
2.661 7.857 -1.867 0.29
2.639 7.872 -1.868 0.26
2.612 7.875 -1.867 0.29
2.594 7.902 -1.872 0.28
2.566 7.902 -1.87 0.27
2.559 7.921 -1.874 0.27
2.53 7.916 -1.87 0.28
2.508 7.935 -1.873 0.27
2.482 7.939 -1.872 0.27
2.457 7.947 -1.872 0.29
2.438 7.973 -1.877 0.26
2.415 7.988 -1.879 0.27
2.405 8.0 -1.881 0.27
2.376 7.994 -1.877 0.29
2.355 8.017 -1.881 0.26
2.327 8.015 -1.879 0.28
2.302 8.02 -1.878 0.28
2.277 8.029 -1.879 0.27
2.256 8.051 -1.882 0.27
2.23 8.056 -1.882 0.3
2.22 8.069 -1.884 0.29
2.194 8.074 -1.884 0.28
2.17 8.085 -1.885 0.28
2.141 8.08 -1.882 0.3
2.117 8.091 -1.883 0.29
2.092 8.097 -1.883 0.27
2.071 8.123 -1.888 0.27
2.058 8.124 -1.887 0.28
2.035 8.14 -1.889 0.28
2.007 8.137 -1.887 0.3
1.981 8.143 -1.887 0.27
1.959 8.163 -1.89 0.27
1.934 8.172 -1.891 0.3
1.907 8.175 -1.89 0.3
1.898 8.193 -1.894 0.28
1.87 8.189 -1.892 0.3
1.846 8.201 -1.893 0.29
1.821 8.212 -1.895 0.29
1.795 8.216 -1.894 0.29
1.769 8.222 -1.894 0.29
1.745 8.235 -1.896 0.28
1.719 8.24 -1.896 0.29
1.709 8.256 -1.899 0.25
1.683 8.26 -1.899 0.27
1.658 8.271 -1.9 0.27
1.631 8.272 -1.899 0.28
1.606 8.279 -1.9 0.3
1.58 8.286 -1.9 0.28
1.556 8.302 -1.903 0.27
1.544 8.312 -1.905 0.28
1.517 8.311 -1.903 0.29
1.491 8.314 -1.903 0.28
1.466 8.327 -1.905 0.29
1.44 8.331 -1.905 0.29
1.413 8.332 -1.904 0.28
1.388 8.346 -1.906 0.26
1.378 8.361 -1.909 0.27
1.351 8.362 -1.908 0.29
1.324 8.362 -1.908 0.27
1.299 8.378 -1.91 0.28
1.273 8.384 -1.911 0.29
1.247 8.386 -1.91 0.28
1.224 8.413 -1.916 0.26
1.211 8.417 -1.916 0.27
1.184 8.415 -1.915 0.3
1.159 8.432 -1.918 0.28
1.131 8.424 -1.915 0.32
1.106 8.439 -1.918 0.29
1.079 8.44 -1.918 0.28
1.052 8.436 -1.916 0.27
1.027 8.451 -1.919 0.27
1.014 8.458 -1.92 0.29
0.987 8.457 -1.919 0.28
0.962 8.472 -1.922 0.27
0.936 8.481 -1.923 0.27
0.909 8.484 -1.923 0.32
0.883 8.492 -1.925 0.29
0.856 8.495 -1.925 0.28
0.842 8.489 -1.923 0.31
0.817 8.501 -1.925 0.28
0.79 8.504 -1.925 0.27
0.764 8.514 -1.927 0.27
0.737 8.51 -1.926 0.27
0.71 8.516 -1.927 0.28
0.683 8.519 -1.927 0.29
0.671 8.531 -1.929 0.29
0.644 8.529 -1.929 0.28
0.618 8.539 -1.93 0.29
0.591 8.543 -1.931 0.27
0.564 8.545 -1.931 0.28
0.537 8.545 -1.93 0.29
0.511 8.554 -1.932 0.29
0.485 8.571 -1.936 0.27
0.471 8.57 -1.936 0.25
0.444 8.571 -1.936 0.3
0.417 8.573 -1.936 0.28
0.39 8.57 -1.935 0.29
0.364 8.577 -1.936 0.27
0.337 8.584 -1.937 0.29
0.31 8.587 -1.938 0.29
0.297 8.603 -1.942 0.27
0.27 8.604 -1.942 0.27
0.243 8.599 -1.94 0.27
0.216 8.613 -1.943 0.29
0.189 8.612 -1.943 0.27
0.162 8.614 -1.943 0.27
0.135 8.607 -1.942 0.28
0.122 8.611 -1.943 0.28
0.095 8.615 -1.943 0.29
0.068 8.633 -1.948 0.29
0.041 8.63 -1.947 0.3
0.013 8.62 -1.944 0.29
-0.014 8.626 -1.946 0.32
-0.041 8.63 -1.947 0.29
-0.068 8.639 -1.949 0.29
-0.082 8.643 -1.95 0.29
-0.109 8.637 -1.949 0.28
-0.136 8.648 -1.951 0.29
-0.163 8.649 -1.952 0.27
-0.19 8.635 -1.949 0.32
-0.217 8.648 -1.952 0.3
-0.245 8.661 -1.955 0.29
-0.258 8.639 -1.95 0.28
-0.285 8.639 -1.95 0.3
-0.313 8.657 -1.955 0.3
-0.34 8.64 -1.951 0.29
-0.367 8.643 -1.952 0.31
-0.395 8.658 -1.956 0.29
-0.422 8.649 -1.954 0.3
-0.449 8.659 -1.957 0.29
-0.463 8.67 -1.959 0.3
-0.49 8.662 -1.958 0.29
-0.517 8.651 -1.956 0.29
-0.545 8.665 -1.959 0.27
-0.571 8.64 -1.954 0.28
-0.599 8.648 -1.956 0.36
-0.614 8.672 -1.962 0.31
-0.64 8.657 -1.959 0.3
-0.668 8.66 -1.96 0.3
-0.696 8.666 -1.962 0.27
-0.722 8.646 -1.958 0.3
-0.746 8.615 -1.951 0.26
-0.772 8.593 -1.946 0.38
-0.805 8.656 -1.962 0.3
-0.818 8.651 -1.961 0.31
-0.847 8.668 -1.966 0.31
-0.873 8.652 -1.963 0.3
-0.9 8.647 -1.962 0.28
-0.928 8.656 -1.965 0.29
-0.954 8.641 -1.962 0.29
-0.982 8.642 -1.963 0.29
-0.997 8.654 -1.966 0.27
-1.023 8.645 -1.965 0.29
-1.053 8.663 -1.97 0.28
-1.079 8.652 -1.968 0.26
-1.105 8.637 -1.965 0.29
-1.132 8.632 -1.965 0.29
-1.161 8.641 -1.968 0.29
-1.187 8.63 -1.966 0.29
-1.2 8.628 -1.966 0.3
-1.228 8.63 -1.968 0.31
-1.252 8.605 -1.963 0.29
-1.28 8.607 -1.964 0.29
-1.307 8.605 -1.964 0.3
-1.333 8.593 -1.963 0.31
-1.361 8.591 -1.963 0.32
-1.375 8.592 -1.964 0.28
-1.399 8.573 -1.96 0.34
-1.426 8.568 -1.96 0.32
-1.457 8.589 -1.966 0.3
-1.483 8.578 -1.965 0.31
-1.51 8.575 -1.965 0.31
-1.539 8.58 -1.968 0.3
-1.55 8.562 -1.964 0.3
-1.576 8.552 -1.963 0.28
-1.606 8.564 -1.967 0.31
-1.63 8.544 -1.963 0.31
-1.659 8.554 -1.967 0.29
-1.688 8.556 -1.969 0.3
-1.709 8.522 -1.962 0.29
-1.738 8.528 -1.964 0.32
-1.754 8.537 -1.967 0.31
-1.778 8.52 -1.964 0.3
-1.807 8.522 -1.966 0.3
-1.836 8.53 -1.97 0.3
-1.863 8.522 -1.969 0.29
-1.888 8.51 -1.968 0.3
-1.917 8.514 -1.97 0.28
-1.93 8.509 -1.97 0.32
-1.957 8.506 -1.971 0.29
-1.985 8.504 -1.971 0.29
-2.012 8.5 -1.972 0.29
-2.037 8.486 -1.97 0.29
-2.063 8.477 -1.97 0.29
-2.086 8.454 -1.965 0.28
-2.102 8.462 -1.968 0.26
-2.127 8.45 -1.967 0.3
-2.153 8.441 -1.966 0.25
-2.179 8.43 -1.965 0.29
-2.206 8.427 -1.966 0.29
-2.23 8.411 -1.964 0.28
-2.259 8.415 -1.967 0.27
-2.286 8.41 -1.967 0.3
-2.296 8.393 -1.964 0.29
-2.323 8.39 -1.965 0.27
-2.349 8.38 -1.964 0.29
-2.377 8.379 -1.966 0.26
-2.401 8.364 -1.964 0.29
-2.431 8.369 -1.967 0.28
-2.451 8.339 -1.962 0.28
-2.469 8.35 -1.965 0.28
-2.494 8.339 -1.964 0.27
-2.518 8.325 -1.963 0.26
-2.548 8.33 -1.966 0.27
-2.573 8.317 -1.965 0.29
-2.591 8.284 -1.959 0.33
-2.623 8.295 -1.964 0.26
-2.643 8.268 -1.959 0.3
-2.661 8.279 -1.963 0.27
-2.685 8.265 -1.961 0.29
-2.712 8.26 -1.962 0.28
-2.739 8.253 -1.963 0.27
-2.763 8.239 -1.961 0.28
-2.787 8.225 -1.96 0.29
-2.811 8.21 -1.958 0.28
-2.825 8.208 -1.959 0.29
-2.851 8.201 -1.959 0.29
-2.876 8.19 -1.959 0.29
-2.902 8.181 -1.959 0.29
-2.931 8.181 -1.961 0.29
-2.953 8.162 -1.959 0.29
-2.983 8.166 -1.962 0.27
-2.996 8.161 -1.962 0.27
-3.021 8.148 -1.961 0.28
-3.046 8.139 -1.961 0.28
-3.072 8.131 -1.962 0.27
-3.096 8.116 -1.96 0.29
-3.118 8.099 -1.958 0.3
-3.145 8.091 -1.959 0.29
-3.167 8.073 -1.957 0.28
-3.184 8.079 -1.96 0.27
-3.209 8.069 -1.96 0.28
-3.231 8.05 -1.957 0.3
-3.256 8.038 -1.957 0.28
-3.28 8.024 -1.956 0.27
-3.303 8.008 -1.955 0.29
-3.328 8.0 -1.955 0.28
-3.341 7.995 -1.955 0.27
-3.368 7.988 -1.956 0.26
-3.389 7.968 -1.954 0.29
-3.41 7.948 -1.951 0.29
-3.438 7.945 -1.953 0.28
-3.468 7.945 -1.956 0.27
-3.496 7.941 -1.958 0.28
-3.508 7.935 -1.958 0.28
-3.528 7.914 -1.955 0.27
-3.557 7.911 -1.957 0.29
-3.58 7.895 -1.956 0.29
-3.606 7.887 -1.957 0.29
-3.626 7.865 -1.954 0.28
-3.654 7.861 -1.956 0.27
-3.67 7.864 -1.958 0.28
-3.693 7.847 -1.957 0.28
-3.717 7.835 -1.957 0.28
-3.737 7.813 -1.954 0.27
-3.76 7.8 -1.954 0.27
-3.787 7.791 -1.955 0.28
-3.812 7.781 -1.955 0.27
-3.835 7.766 -1.954 0.3
-3.843 7.753 -1.952 0.28
-3.869 7.742 -1.953 0.29
-3.89 7.725 -1.951 0.28
-3.915 7.714 -1.952 0.27
-3.937 7.697 -1.95 0.27
-3.961 7.684 -1.95 0.27
-3.987 7.675 -1.951 0.27
-4.002 7.674 -1.953 0.29
-4.025 7.66 -1.952 0.27
-4.043 7.635 -1.949 0.27
-4.067 7.622 -1.949 0.27
-4.096 7.62 -1.952 0.27
-4.115 7.598 -1.95 0.27
-4.135 7.577 -1.947 0.29
-4.165 7.576 -1.95 0.27
-4.174 7.564 -1.949 0.26
-4.196 7.548 -1.948 0.27
-4.222 7.539 -1.95 0.28
-4.241 7.518 -1.947 0.28
-4.264 7.503 -1.947 0.27
-4.293 7.499 -1.95 0.26
-4.304 7.464 -1.943 0.2
-4.328 7.477 -1.949 0.29
-4.346 7.455 -1.947 0.25
-4.363 7.43 -1.943 0.25
-4.4 7.44 -1.95 0.27
-4.418 7.417 -1.948 0.28
-4.437 7.395 -1.945 0.27
-4.456 7.374 -1.943 0.27
-4.475 7.381 -1.947 0.25
-4.486 7.347 -1.942 0.25
-4.516 7.342 -1.944 0.27
-4.536 7.323 -1.943 0.26
-4.552 7.299 -1.94 0.26
-4.587 7.303 -1.945 0.25
-4.606 7.284 -1.944 0.28
-4.615 7.246 -1.937 0.2
-4.637 7.255 -1.942 0.27
-4.658 7.239 -1.942 0.24
-4.676 7.216 -1.939 0.2
-4.707 7.214 -1.943 0.27
-4.719 7.183 -1.938 0.25
-4.725 7.144 -1.931 0.19
-4.769 7.162 -1.941 0.27
-4.775 7.146 -1.938 0.24
-4.786 7.113 -1.933 0.2
-4.821 7.117 -1.939 0.27
-4.831 7.085 -1.934 0.23
-4.854 7.069 -1.934 0.21
-4.877 7.056 -1.934 0.25
-4.891 7.029 -1.931 0.23
-4.902 6.998 -1.926 0.19
-4.935 7.022 -1.936 0.26
-4.941 6.983 -1.929 0.2
-4.971 6.978 -1.932 0.25
-4.989 6.958 -1.93 0.21
-5.017 6.95 -1.933 0.12
-5.021 6.91 -1.926 0.21
-5.043 6.895 -1.926 0.2
-5.063 6.899 -1.929 0.24
-5.079 6.876 -1.927 0.19
-5.103 6.863 -1.928 0.12
-5.117 6.837 -1.925 0.2
-5.141 6.824 -1.926 0.11
-5.159 6.803 -1.925 0.2
-5.184 6.792 -1.926 0.11
-5.183 6.768 -1.922 0.2
-5.213 6.764 -1.925 0.11
-5.217 6.725 -1.918 0.19
-5.246 6.719 -1.922 0.2
-5.272 6.709 -1.923 0.1
-5.288 6.686 -1.922 0.17
-5.307 6.666 -1.921 0.05
-5.311 6.65 -1.918 0.18
-5.33 6.63 -1.917 0.05
-5.349 6.612 -1.917 0.18
-5.38 6.607 -1.921 0.2
-5.396 6.584 -1.919 0.09
-5.404 6.552 -1.914 0.18
-5.431 6.543 -1.916 0.05
-5.445 6.518 -1.914 0.17
-5.459 6.514 -1.915 0.05
-5.47 6.485 -1.912 0.16
-5.494 6.472 -1.913 0.05
-5.503 6.442 -1.909 0.17
-5.534 6.438 -1.913 0.05
-5.54 6.404 -1.908 0.16
-5.563 6.39 -1.909 0.05
-5.558 6.363 -1.903 0.16
-5.596 6.366 -1.91 0.05
-5.604 6.336 -1.906 0.16
-5.623 6.316 -1.905 0.18
-5.637 6.293 -1.903 0.04
-5.656 6.274 -1.903 0.16
-5.67 6.25 -1.901 0.05
-5.681 6.243 -1.901 0.16
-5.696 6.219 -1.9 0.05
-5.706 6.191 -1.896 0.18
-5.732 6.18 -1.899 0.05
-5.747 6.158 -1.897 0.17
-5.767 6.14 -1.897 0.2
-5.79 6.126 -1.899 0.1
-5.799 6.096 -1.895 0.18
-5.812 6.092 -1.896 0.22
-5.821 6.062 -1.893 0.2
-5.841 6.045 -1.893 0.22
-5.859 6.025 -1.893 0.2
-5.869 5.999 -1.89 0.21
-5.887 5.979 -1.889 0.19
-5.9 5.955 -1.888 0.22
-5.905 5.941 -1.886 0.18
-5.923 5.921 -1.886 0.25
-5.93 5.892 -1.882 0.2
-5.96 5.884 -1.886 0.24
-5.961 5.849 -1.88 0.18
-5.987 5.837 -1.882 0.24
-5.991 5.804 -1.878 0.2
-5.997 5.792 -1.877 0.24
-6.013 5.771 -1.876 0.2
-6.035 5.756 -1.877 0.21
-6.035 5.719 -1.871 0.18
-6.058 5.706 -1.873 0.23
-6.064 5.675 -1.869 0.19
-6.089 5.662 -1.871 0.24
-6.093 5.649 -1.87 0.2
-6.109 5.628 -1.869 0.23
-6.117 5.6 -1.866 0.19
-6.13 5.577 -1.865 0.25
-6.139 5.549 -1.862 0.21
-6.152 5.526 -1.86 0.19
-6.177 5.513 -1.863 0.26
-6.181 5.482 -1.859 0.19
-6.193 5.475 -1.86 0.25
-6.197 5.444 -1.855 0.23
-6.212 5.423 -1.855 0.2
-6.237 5.41 -1.857 0.25
-6.239 5.378 -1.853 0.22
-6.242 5.347 -1.848 0.18
-6.283 5.347 -1.856 0.26
-6.278 5.326 -1.852 0.19
-6.295 5.306 -1.852 0.23
-6.305 5.282 -1.85 0.21
-6.32 5.26 -1.849 0.23
-6.325 5.231 -1.846 0.19
-6.335 5.206 -1.844 0.23
-6.344 5.18 -1.841 0.19
-6.354 5.171 -1.842 0.21
-6.375 5.155 -1.843 0.1
-6.374 5.121 -1.838 0.18
-6.402 5.111 -1.842 0.11
-6.399 5.075 -1.836 0.18
-6.413 5.054 -1.835 0.05
-6.427 5.032 -1.835 0.17
-6.455 5.022 -1.839 0.2
-6.459 5.008 -1.837 0.1
-6.462 4.978 -1.833 0.18
-6.493 4.97 -1.838 0.19
-6.507 4.948 -1.838 0.18
-6.524 4.929 -1.838 0.18
-6.526 4.898 -1.834 0.17
-6.535 4.888 -1.834 0.04
-6.535 4.856 -1.83 0.17
-6.565 4.847 -1.834 0.19
-6.574 4.822 -1.832 0.18
-6.571 4.788 -1.827 0.04
-6.582 4.765 -1.826 0.17
-6.602 4.747 -1.827 0.05
-6.619 4.728 -1.828 0.17
-6.615 4.709 -1.825 0.05
-6.625 4.685 -1.823 0.17
-6.633 4.66 -1.821 0.04
-6.651 4.641 -1.822 0.17
-6.659 4.616 -1.82 0.2
-6.671 4.593 -1.819 0.1
-6.67 4.562 -1.815 0.18
-6.676 4.55 -1.815 0.11
-6.684 4.525 -1.813 0.18
-6.698 4.504 -1.813 0.22
-6.699 4.474 -1.809 0.2
-6.717 4.455 -1.81 0.12
-6.711 4.421 -1.804 0.21
-6.712 4.391 -1.801 0.17
-6.737 4.378 -1.804 0.27
-6.723 4.353 -1.798 0.24
-6.735 4.331 -1.797 0.2
-6.758 4.316 -1.8 0.27
-6.747 4.279 -1.793 0.24
-6.76 4.258 -1.793 0.25
-6.774 4.237 -1.793 0.28
-6.794 4.22 -1.795 0.28
-6.797 4.207 -1.794 0.28
-6.809 4.185 -1.794 0.27
-6.808 4.155 -1.79 0.28
-6.82 4.133 -1.79 0.28
-6.844 4.118 -1.793 0.27
-6.854 4.095 -1.792 0.28
-6.855 4.066 -1.789 0.3
-6.866 4.058 -1.79 0.27
-6.871 4.032 -1.788 0.27
-6.9 4.02 -1.792 0.32
-6.908 3.995 -1.791 0.3
-6.925 3.977 -1.792 0.31
-6.929 3.95 -1.79 0.3
-6.959 3.938 -1.795 0.27
-6.956 3.922 -1.792 0.29
-6.969 3.9 -1.792 0.29
-6.988 3.882 -1.794 0.29
-6.998 3.859 -1.794 0.29
-7.014 3.839 -1.795 0.3
-7.031 3.82 -1.796 0.3
-7.044 3.799 -1.797 0.3
-7.047 3.786 -1.796 0.3
-7.055 3.762 -1.795 0.29
-7.074 3.743 -1.797 0.27
-7.079 3.717 -1.795 0.29
-7.111 3.706 -1.8 0.3
-7.104 3.674 -1.795 0.29
-7.117 3.652 -1.796 0.29
-7.134 3.633 -1.797 0.29
-7.141 3.622 -1.797 0.29
-7.158 3.602 -1.799 0.29
-7.167 3.579 -1.798 0.29
-7.168 3.551 -1.796 0.28
-7.19 3.534 -1.798 0.3
-7.194 3.508 -1.797 0.29
-7.203 3.484 -1.796 0.28
-7.222 3.48 -1.8 0.28
-7.23 3.455 -1.799 0.28
-7.242 3.434 -1.799 0.29
-7.251 3.41 -1.799 0.27
-7.273 3.392 -1.802 0.24
-7.276 3.366 -1.8 0.22
-7.301 3.35 -1.804 0.26
-7.317 3.343 -1.806 0.2
-7.316 3.315 -1.804 0.05
-7.322 3.29 -1.802 0.17
-7.334 3.268 -1.803 0.18
-7.342 3.244 -1.802 0.04
-7.35 3.22 -1.802 0.0
-7.396 3.212 -1.811 0.0
-7.378 3.177 -1.804 0.0
-7.381 3.164 -1.803 0.0
-7.396 3.143 -1.804 0.0
-7.404 3.119 -1.804 0.0
-7.421 3.099 -1.806 0.0
-7.431 3.076 -1.806 0.0
-7.421 3.044 -1.801 0.0
-7.461 3.034 -1.809 0.0
-7.457 3.018 -1.806 0.0
-7.475 2.998 -1.809 0.0
-7.468 2.968 -1.804 0.0
-7.494 2.951 -1.809 0.0
-7.496 2.925 -1.807 0.0
-7.505 2.901 -1.807 0.0
-7.532 2.885 -1.811 0.0
-7.509 2.862 -1.804 0.0
-7.536 2.846 -1.809 0.0
-7.564 2.829 -1.814 0.0
-7.572 2.805 -1.814 0.0
-7.559 2.773 -1.808 0.0
-7.579 2.754 -1.811 0.06
-7.567 2.722 -1.806 0.04
-7.569 2.696 -1.804 0.14
-7.595 2.692 -1.81 0.05
-7.574 2.658 -1.802 0.16
-7.591 2.637 -1.804 0.05
-7.605 2.615 -1.806 0.18
-7.61 2.59 -1.805 0.11
-7.601 2.56 -1.801 0.2
-7.615 2.538 -1.802 0.18
-7.633 2.531 -1.806 0.26
-7.634 2.505 -1.804 0.25
-7.651 2.484 -1.806 0.26
-7.664 2.462 -1.808 0.25
-7.665 2.435 -1.806 0.27
-7.687 2.416 -1.81 0.28
-7.678 2.386 -1.805 0.3
-7.685 2.376 -1.806 0.29
-7.7 2.354 -1.808 0.3
-7.695 2.326 -1.805 0.27
-7.719 2.306 -1.809 0.26
-7.731 2.284 -1.811 0.3
-7.739 2.26 -1.811 0.29
-7.749 2.236 -1.811 0.29
-7.751 2.224 -1.811 0.28
-7.752 2.198 -1.81 0.29
-7.778 2.179 -1.814 0.3
-7.783 2.154 -1.814 0.29
-7.773 2.124 -1.81 0.29
-7.791 2.103 -1.812 0.28
-7.797 2.079 -1.812 0.29
-7.809 2.056 -1.814 0.28
-7.814 2.044 -1.814 0.28
-7.819 2.019 -1.814 0.29
-7.825 1.994 -1.814 0.28
-7.831 1.97 -1.814 0.27
-7.841 1.946 -1.815 0.3
-7.836 1.918 -1.812 0.28
-7.848 1.895 -1.813 0.26
-7.853 1.883 -1.814 0.27
-7.857 1.858 -1.813 0.26
-7.866 1.834 -1.814 0.3
-7.881 1.812 -1.817 0.29
-7.876 1.785 -1.814 0.29
-7.891 1.762 -1.816 0.27
-7.894 1.737 -1.816 0.28
-7.905 1.726 -1.818 0.27
-7.908 1.701 -1.817 0.28
-7.913 1.676 -1.817 0.26
-7.917 1.651 -1.817 0.26
-7.912 1.624 -1.814 0.26
-7.929 1.601 -1.817 0.26
-7.936 1.577 -1.818 0.28
-7.937 1.551 -1.817 0.27
-7.947 1.54 -1.818 0.27
-7.954 1.515 -1.819 0.28
-7.955 1.49 -1.818 0.27
-7.959 1.465 -1.818 0.29
-7.96 1.439 -1.817 0.27
-7.968 1.415 -1.818 0.26
-7.971 1.389 -1.818 0.27
-7.979 1.378 -1.819 0.27
-7.987 1.353 -1.82 0.26
-7.985 1.327 -1.818 0.27
-8.001 1.304 -1.821 0.25
-7.995 1.277 -1.819 0.27
-7.986 1.25 -1.816 0.18
-8.095 1.242 -1.841 0.29
-8.086 1.227 -1.839 0.25
-8.095 1.203 -1.84 0.27
-8.12 1.18 -1.845 0.25
-8.091 1.15 -1.837 0.19
-8.087 1.123 -1.835 0.31
-8.102 1.1 -1.838 0.36
-8.115 1.076 -1.84 0.36
-8.125 1.064 -1.842 0.39
-8.139 1.04 -1.845 0.33
-8.174 1.018 -1.853 0.32
-8.163 0.991 -1.849 0.23
-8.172 0.966 -1.851 0.2
-8.189 0.942 -1.854 0.25
-8.182 0.915 -1.852 0.22
-8.176 0.901 -1.85 0.2
-8.203 0.878 -1.856 0.24
-8.193 0.851 -1.853 0.19
-8.213 0.827 -1.857 0.23
-8.209 0.801 -1.855 0.22
-8.214 0.775 -1.856 0.11
-8.212 0.749 -1.855 0.21
-8.215 0.736 -1.855 0.11
-8.218 0.71 -1.855 0.19
-8.232 0.686 -1.858 0.11
-8.224 0.659 -1.856 0.18
-8.242 0.634 -1.86 0.11
-8.226 0.607 -1.855 0.19
-8.249 0.583 -1.86 0.1
-8.22 0.555 -1.853 0.19
-8.244 0.543 -1.859 0.11
-8.221 0.516 -1.853 0.18
-8.245 0.491 -1.858 0.1
-8.226 0.464 -1.853 0.19
-8.246 0.44 -1.858 0.11
-8.238 0.413 -1.855 0.18
-8.257 0.388 -1.86 0.23
-8.226 0.374 -1.852 0.18
-8.243 0.349 -1.856 0.23
-8.221 0.322 -1.85 0.19
-8.235 0.296 -1.853 0.23
-8.205 0.269 -1.846 0.23
-8.21 0.244 -1.847 0.18
-8.226 0.218 -1.851 0.26
-8.219 0.192 -1.849 0.24
-8.206 0.179 -1.846 0.18
-8.218 0.154 -1.848 0.26
-8.195 0.127 -1.843 0.24
-8.189 0.101 -1.841 0.2
-8.213 0.076 -1.847 0.27
-8.209 0.05 -1.846 0.25
-8.209 0.024 -1.846 0.27
-8.21 0.011 -1.846 0.29
-8.221 -0.014 -1.849 0.26
-8.235 -0.04 -1.852 0.28
-8.229 -0.066 -1.851 0.27
-8.238 -0.092 -1.853 0.27
-8.246 -0.118 -1.855 0.27
-8.239 -0.144 -1.853 0.27
-8.233 -0.157 -1.852 0.27
-8.262 -0.183 -1.859 0.27
-8.25 -0.209 -1.856 0.27
-8.251 -0.235 -1.857 0.28
-8.266 -0.261 -1.86 0.28
-8.253 -0.287 -1.858 0.27
-8.25 -0.312 -1.857 0.26
-8.261 -0.326 -1.86 0.27
-8.255 -0.352 -1.859 0.27
-8.25 -0.377 -1.858 0.27
-8.277 -0.405 -1.865 0.24
-8.245 -0.429 -1.857 0.22
-8.273 -0.456 -1.864 0.27
-8.265 -0.482 -1.863 0.25
-8.255 -0.495 -1.86 0.25
-8.244 -0.52 -1.858 0.19
-8.269 -0.548 -1.865 0.27
-8.246 -0.572 -1.86 0.24
-8.238 -0.598 -1.858 0.2
-8.277 -0.626 -1.868 0.26
-8.256 -0.651 -1.863 0.19
-8.277 -0.679 -1.869 0.23
-8.27 -0.691 -1.867 0.2
-8.278 -0.718 -1.87 0.23
-8.264 -0.743 -1.867 0.2
-8.275 -0.77 -1.87 0.12
-8.272 -0.796 -1.87 0.2
-8.274 -0.823 -1.871 0.11
-8.258 -0.847 -1.868 0.19
-8.285 -0.863 -1.875 0.11
-8.252 -0.886 -1.867 0.19
-8.274 -0.915 -1.874 0.11
-8.254 -0.939 -1.869 0.2
-8.274 -0.967 -1.875 0.11
-8.251 -0.991 -1.87 0.19
-8.264 -1.019 -1.874 0.11
-8.254 -1.031 -1.872 0.18
-8.263 -1.058 -1.875 0.22
-8.242 -1.082 -1.871 0.18
-8.248 -1.109 -1.873 0.23
-8.229 -1.133 -1.869 0.18
-8.241 -1.161 -1.873 0.23
-8.212 -1.183 -1.867 0.19
-8.233 -1.199 -1.873 0.24
-8.21 -1.222 -1.868 0.18
-8.22 -1.25 -1.871 0.25
-8.201 -1.274 -1.867 0.23
-8.181 -1.297 -1.864 0.19
-8.206 -1.327 -1.871 0.26
-8.19 -1.351 -1.868 0.23
-8.18 -1.376 -1.867 0.19
-8.201 -1.393 -1.872 0.27
-8.197 -1.418 -1.872 0.25
-8.196 -1.445 -1.873 0.28
-8.18 -1.469 -1.87 0.27
-8.192 -1.497 -1.874 0.25
-8.193 -1.524 -1.876 0.27
-8.181 -1.548 -1.874 0.27
-8.2 -1.565 -1.879 0.27
-8.189 -1.59 -1.878 0.3
-8.205 -1.62 -1.883 0.26
-8.211 -1.648 -1.886 0.27
-8.221 -1.676 -1.889 0.29
-8.224 -1.704 -1.891 0.27
-8.214 -1.729 -1.89 0.27
-8.213 -1.742 -1.891 0.27
-8.214 -1.769 -1.892 0.26
-8.206 -1.795 -1.892 0.26
-8.197 -1.82 -1.891 0.27
-8.18 -1.843 -1.888 0.29
-8.117 -1.856 -1.874 0.28
-8.018 -1.86 -1.851 0.27
-7.923 -1.864 -1.829 0.25
-7.825 -1.855 -1.806 0.27
-7.738 -1.86 -1.786 0.28
-7.653 -1.865 -1.766 0.27
-7.568 -1.87 -1.747 0.27
-7.516 -1.883 -1.735 0.32
-7.477 -1.898 -1.727 0.3
-7.467 -1.92 -1.726 0.28
-7.46 -1.931 -1.725 0.27
-7.444 -1.952 -1.723 0.26
-7.438 -1.975 -1.723 0.29
-7.426 -1.997 -1.721 0.24
-7.463 -2.032 -1.732 0.26
-7.481 -2.062 -1.738 0.31
-7.478 -2.087 -1.739 0.36
-7.473 -2.098 -1.739 0.32
-7.459 -2.119 -1.737 0.28
-7.507 -2.158 -1.75 0.29
-7.476 -2.175 -1.744 0.2
-7.486 -2.203 -1.749 0.29
-7.445 -2.217 -1.74 0.24
-7.457 -2.246 -1.745 0.25
-7.448 -2.256 -1.743 0.12
-7.426 -2.275 -1.74 0.18
-7.437 -2.304 -1.744 0.05
-7.415 -2.322 -1.741 0.0
-7.443 -2.357 -1.749 0.0
-7.484 -2.395 -1.762 0.0
-7.483 -2.421 -1.763 0.0
-7.455 -2.438 -1.758 0.0
-7.446 -2.448 -1.757 0.0
-7.488 -2.488 -1.77 0.0
-7.495 -2.516 -1.773 0.0
-7.485 -2.539 -1.773 0.0
-7.44 -2.55 -1.763 0.0
-7.462 -2.583 -1.771 0.0
-7.456 -2.608 -1.771 0.0
-7.473 -2.627 -1.777 0.0
-7.495 -2.661 -1.784 0.0
-7.493 -2.687 -1.786 0.0
-7.474 -2.706 -1.784 0.0
-7.473 -2.733 -1.785 0.0
-7.448 -2.75 -1.781 0.0
-7.443 -2.775 -1.782 0.0
-7.365 -2.759 -1.763 0.0
-7.338 -2.776 -1.759 0.0
-7.328 -2.798 -1.758 0.0
-7.297 -2.813 -1.753 0.0
-7.268 -2.828 -1.748 0.0
-7.279 -2.858 -1.753 0.0
-7.265 -2.879 -1.751 0.03
-7.257 -2.889 -1.75 0.03
-7.233 -2.906 -1.747 0.07
-7.208 -2.922 -1.742 0.09
-7.154 -2.927 -1.731 0.16
-7.105 -2.933 -1.721 0.21
-7.043 -2.934 -1.707 0.18
-6.986 -2.936 -1.694 0.24
-6.924 -2.923 -1.68 0.23
-6.839 -2.913 -1.66 0.19
-6.755 -2.902 -1.64 0.26
-6.69 -2.9 -1.626 0.24
-6.645 -2.905 -1.617 0.0
-6.611 -2.915 -1.61 0.0
-7.268 -3.27 -1.789 0.23
-7.262 -3.295 -1.79 0.21
-7.244 -3.314 -1.788 0.16
-7.241 -3.34 -1.79 0.45
-7.232 -3.364 -1.79 0.22
-7.241 -3.396 -1.795 0.28
-7.205 -3.407 -1.789 0.25
-7.239 -3.436 -1.799 0.27
-7.23 -3.46 -1.799 0.28
-7.214 -3.48 -1.798 0.27
-7.208 -3.505 -1.799 0.29
-7.223 -3.541 -1.806 0.31
-7.196 -3.556 -1.802 0.33
-7.188 -3.58 -1.803 0.29
-7.185 -3.592 -1.804 0.28
-7.215 -3.636 -1.815 0.29
-7.205 -3.659 -1.815 0.29
-7.208 -3.689 -1.819 0.3
-7.198 -3.712 -1.819 0.23
-7.148 -3.715 -1.809 0.29
-7.09 -3.713 -1.797 0.23
-7.18 -3.789 -1.824 0.25
-7.139 -3.782 -1.815 0.28
-7.124 -3.803 -1.814 0.32
-7.112 -3.825 -1.814 0.29
-7.098 -3.846 -1.813 0.32
-7.107 -3.88 -1.819 0.32
-7.069 -3.888 -1.812 0.31
-7.056 -3.896 -1.81 0.28
-7.09 -3.943 -1.823 0.26
-7.07 -3.962 -1.821 0.28
-7.043 -3.975 -1.817 0.32
-7.02 -3.992 -1.814 0.31
-7.043 -4.034 -1.824 0.25
-7.02 -4.05 -1.821 0.25
-6.992 -4.063 -1.817 0.27
-6.972 -4.067 -1.813 0.22
-6.978 -4.099 -1.818 0.24
-6.955 -4.115 -1.815 0.21
-6.949 -4.141 -1.817 0.12
-6.919 -4.153 -1.812 0.2
-6.897 -4.17 -1.81 0.11
-6.873 -4.184 -1.807 0.21
-6.893 -4.211 -1.814 0.19
-6.868 -4.226 -1.811 0.26
-6.843 -4.24 -1.808 0.23
-6.811 -4.25 -1.803 0.21
-6.78 -4.26 -1.797 0.23
-6.773 -4.286 -1.799 0.46
-6.753 -4.303 -1.797 0.38
-6.707 -4.288 -1.786 0.15
-6.629 -4.269 -1.768 0.19
-6.611 -4.286 -1.767 0.1
-6.558 -4.282 -1.756 0.18
-6.563 -4.314 -1.761 0.11
-6.531 -4.323 -1.756 0.2
-6.513 -4.34 -1.754 0.11
-6.509 -4.367 -1.757 0.18
-6.505 -4.379 -1.758 0.1
-6.461 -4.379 -1.749 0.18
-6.458 -4.407 -1.752 0.2
-6.415 -4.408 -1.744 0.17
-6.392 -4.421 -1.741 0.23
-6.365 -4.432 -1.737 0.2
-6.329 -4.437 -1.731 0.23
-6.284 -4.42 -1.72 0.19
-6.263 -4.435 -1.718 0.23
-6.229 -4.44 -1.712 0.19
-6.183 -4.437 -1.702 0.23
-6.138 -4.434 -1.693 0.19
-6.103 -4.438 -1.687 0.24
-6.051 -4.43 -1.676 0.19
-6.033 -4.432 -1.673 0.23
-5.99 -4.429 -1.664 0.2
-5.933 -4.416 -1.651 0.21
-5.887 -4.41 -1.641 0.1
-5.834 -4.4 -1.63 0.0
-5.797 -4.401 -1.623 0.0
-5.771 -4.409 -1.619 0.0
-5.745 -4.404 -1.613 0.0
-5.717 -4.412 -1.609 0.0
-6.189 -4.866 -1.765 0.11
-6.165 -4.879 -1.763 0.26
-6.137 -4.888 -1.759 0.32
-6.155 -4.918 -1.767 0.29
-6.135 -4.934 -1.765 0.31
-6.076 -4.918 -1.752 0.24
-6.077 -4.951 -1.757 0.3
-6.049 -4.96 -1.753 0.24
-6.02 -4.968 -1.749 0.26
-5.998 -4.982 -1.747 0.26
-5.975 -4.994 -1.745 0.32
-5.957 -4.995 -1.742 0.27
-5.905 -4.984 -1.73 0.19
-5.913 -5.022 -1.738 0.3
-5.861 -5.009 -1.726 0.23
-5.823 -5.009 -1.719 0.23
-5.804 -5.024 -1.718 0.26
-5.801 -5.054 -1.722 0.35
-5.795 -5.064 -1.723 0.31
-5.782 -5.085 -1.724 0.28
-5.778 -5.114 -1.728 0.3
-5.734 -5.107 -1.719 0.29
-5.706 -5.115 -1.715 0.26
-5.677 -5.121 -1.711 0.25
-5.655 -5.134 -1.709 0.36
-5.646 -5.141 -1.708 0.36
-5.632 -5.162 -1.709 0.28
-5.625 -5.187 -1.712 0.26
-5.625 -5.221 -1.718 0.34
-5.592 -5.222 -1.712 0.26
-5.571 -5.236 -1.711 0.3
-5.553 -5.252 -1.71 0.32
-5.544 -5.26 -1.71 0.39
-5.519 -5.269 -1.707 0.28
-5.482 -5.267 -1.7 0.3
-5.449 -5.268 -1.695 0.26
-5.437 -5.29 -1.696 0.34
-5.444 -5.33 -1.704 0.4
-5.42 -5.34 -1.702 0.34
-5.413 -5.366 -1.705 0.35
-5.395 -5.365 -1.702 0.3
-5.376 -5.381 -1.701 0.33
-5.337 -5.376 -1.694 0.3
-5.29 -5.362 -1.684 0.22
-5.309 -5.415 -1.696 0.46
-5.323 -5.463 -1.707 0.31
-5.304 -5.461 -1.703 0.31
-5.269 -5.459 -1.697 0.25
-5.272 -5.497 -1.704 0.28
-5.26 -5.519 -1.706 0.3
-5.252 -5.545 -1.709 0.43
-5.228 -5.555 -1.707 0.32
-5.2 -5.56 -1.703 0.37
-5.188 -5.582 -1.705 0.26
-5.172 -5.583 -1.702 0.32
-5.164 -5.609 -1.706 0.29
-5.156 -5.635 -1.709 0.42
-5.145 -5.658 -1.711 0.41
-5.115 -5.662 -1.707 0.27
-5.104 -5.685 -1.709 0.31
-5.079 -5.694 -1.707 0.35
-5.089 -5.722 -1.714 0.27
-5.067 -5.733 -1.712 0.33
-5.051 -5.752 -1.713 0.35
-5.027 -5.761 -1.711 0.22
-5.034 -5.806 -1.72 0.29
-5.017 -5.823 -1.721 0.24
-5.01 -5.852 -1.725 0.29
-4.981 -5.836 -1.717 0.28
-4.923 -5.806 -1.703 0.21
-4.886 -5.799 -1.696 0.13
-4.832 -5.772 -1.682 0.21
-4.816 -5.79 -1.683 0.11
-4.793 -5.799 -1.681 0.18
-4.781 -5.821 -1.684 0.23
-4.758 -5.812 -1.679 0.2
-4.753 -5.844 -1.684 0.25
-4.747 -5.874 -1.688 0.2
-4.714 -5.87 -1.683 0.25
-4.682 -5.869 -1.678 0.2
-4.672 -5.894 -1.681 0.24
-4.633 -5.883 -1.673 0.19
-4.62 -5.905 -1.675 0.24
-4.602 -5.9 -1.672 0.23
-4.567 -5.894 -1.666 0.2
-4.557 -5.919 -1.669 0.25
-4.527 -5.918 -1.664 0.23
-4.488 -5.906 -1.656 0.19
-4.48 -5.934 -1.66 0.27
-4.441 -5.922 -1.652 0.24
-4.412 -5.902 -1.645 0.2
-4.404 -5.93 -1.649 0.26
-4.374 -5.928 -1.644 0.24
-4.337 -5.917 -1.637 0.18
-4.319 -5.932 -1.637 0.26
-4.282 -5.921 -1.63 0.22
-4.253 -5.92 -1.625 0.19
-4.242 -5.923 -1.624 0.26
-4.204 -5.91 -1.617 0.23
-4.184 -5.922 -1.616 0.18
-4.162 -5.93 -1.615 0.28
-4.126 -5.917 -1.607 0.25
-4.096 -5.914 -1.603 0.2
-4.077 -5.927 -1.603 0.28
-4.057 -5.918 -1.598 0.25
-4.025 -5.911 -1.592 0.2
-4.007 -5.924 -1.592 0.27
-3.98 -5.925 -1.589 0.24
-3.947 -5.915 -1.582 0.19
-3.92 -5.916 -1.579 0.26
-3.893 -5.915 -1.576 0.22
-3.868 -5.897 -1.569 0.19
-3.841 -5.896 -1.565 0.26
-3.816 -5.898 -1.562 0.24
-3.789 -5.897 -1.558 0.19
-3.77 -5.909 -1.558 0.27
-3.739 -5.901 -1.553 0.24
-3.715 -5.905 -1.55 0.2
-3.693 -5.91 -1.548 0.25
-3.675 -5.903 -1.545 0.21
-3.651 -5.906 -1.542 0.22
-3.627 -5.907 -1.54 0.1
-3.606 -5.915 -1.539 0.09
-3.588 -5.928 -1.539 0.0
-3.55 -5.906 -1.53 0.0
-3.539 -5.931 -1.534 0.0
-3.563 -5.991 -1.549 0.0
-3.778 -6.395 -1.659 0.0
-3.889 -6.63 -1.721 0.1
-3.891 -6.681 -1.731 0.23
-3.856 -6.669 -1.725 0.19
-3.817 -6.649 -1.716 0.27
-3.778 -6.629 -1.707 0.27
-3.776 -6.65 -1.711 0.31
-3.751 -6.655 -1.709 0.32
-3.722 -6.652 -1.705 0.31
-3.711 -6.682 -1.71 0.37
-3.678 -6.672 -1.704 0.32
-3.651 -6.673 -1.701 0.23
-3.646 -6.713 -1.709 0.23
-3.615 -6.682 -1.699 0.37
-3.596 -6.696 -1.7 0.27
-3.586 -6.728 -1.706 0.41
-3.569 -6.748 -1.708 0.28
-3.54 -6.744 -1.704 0.35
-3.518 -6.753 -1.703 0.33
-3.512 -6.793 -1.711 0.26
-3.484 -6.766 -1.702 0.3
-3.48 -6.81 -1.711 0.43
-3.462 -6.828 -1.713 0.31
-3.452 -6.861 -1.719 0.34
-3.42 -6.851 -1.714 0.32
-3.39 -6.844 -1.709 0.3
-3.356 -6.831 -1.702 0.3
-3.338 -6.822 -1.699 0.29
-3.317 -6.832 -1.699 0.27
-3.299 -6.85 -1.7 0.27
-3.271 -6.848 -1.697 0.27
-3.248 -6.855 -1.696 0.29
-3.233 -6.879 -1.7 0.3
-3.214 -6.894 -1.701 0.32
-3.214 -6.922 -1.707 0.31
-3.198 -6.945 -1.711 0.32
-3.155 -6.909 -1.699 0.3
-3.128 -6.908 -1.696 0.31
-3.104 -6.912 -1.694 0.28
-3.078 -6.911 -1.692 0.39
-3.062 -6.933 -1.695 0.33
-3.026 -6.911 -1.687 0.29
-2.994 -6.87 -1.674 0.34
-2.985 -6.907 -1.682 0.29
-2.984 -6.963 -1.694 0.31
-2.979 -7.014 -1.705 0.28
-2.956 -7.019 -1.704 0.3
-2.935 -7.032 -1.705 0.33
-2.904 -7.02 -1.699 0.31
-2.885 -7.005 -1.694 0.29
-2.864 -7.017 -1.695 0.32
-2.858 -7.064 -1.705 0.39
-2.823 -7.042 -1.697 0.27
-2.8 -7.048 -1.696 0.27
-2.775 -7.051 -1.694 0.31
-2.75 -7.052 -1.693 0.31
-2.757 -7.102 -1.704 0.34
-2.728 -7.094 -1.7 0.32
-2.714 -7.123 -1.705 0.32
-2.686 -7.117 -1.701 0.26
-2.671 -7.145 -1.707 0.32
-2.652 -7.163 -1.709 0.38
-2.609 -7.116 -1.695 0.3
-2.583 -7.08 -1.685 0.27
-2.553 -7.066 -1.679 0.2
-2.536 -7.089 -1.683 0.28
-2.51 -7.086 -1.68 0.25
-2.492 -7.107 -1.683 0.25
-2.461 -7.089 -1.677 0.28
-2.451 -7.133 -1.686 0.27
-2.449 -7.164 -1.693 0.3
-2.427 -7.172 -1.693 0.33
-2.407 -7.187 -1.695 0.33
-2.384 -7.195 -1.695 0.26
-2.353 -7.176 -1.688 0.29
-2.331 -7.185 -1.689 0.3
-2.323 -7.237 -1.7 0.25
-2.295 -7.23 -1.696 0.28
-2.277 -7.211 -1.691 0.23
-2.254 -7.216 -1.69 0.3
-2.221 -7.192 -1.682 0.24
-2.199 -7.2 -1.683 0.24
-2.17 -7.187 -1.678 0.3
-2.14 -7.169 -1.672 0.25
-2.118 -7.178 -1.672 0.31
-2.106 -7.178 -1.671 0.29
-2.073 -7.149 -1.662 0.27
-2.054 -7.168 -1.666 0.34
-2.043 -7.214 -1.675 0.33
-2.018 -7.211 -1.673 0.21
-1.997 -7.225 -1.675 0.37
-1.979 -7.248 -1.679 0.33
-1.971 -7.264 -1.682 0.38
-1.94 -7.24 -1.675 0.2
-1.913 -7.229 -1.671 0.27
-1.887 -7.222 -1.667 0.24
-1.857 -7.2 -1.66 0.19
-1.842 -7.236 -1.668 0.28
-1.815 -7.226 -1.664 0.25
-1.804 -7.227 -1.664 0.27
-1.779 -7.226 -1.662 0.25
-1.759 -7.242 -1.665 0.27
-1.741 -7.267 -1.669 0.26
-1.718 -7.272 -1.669 0.3
-1.697 -7.283 -1.671 0.32
-1.674 -7.29 -1.671 0.29
-1.667 -7.314 -1.676 0.37
-1.65 -7.344 -1.682 0.32
-1.626 -7.343 -1.681 0.21
-1.605 -7.358 -1.683 0.3
-1.57 -7.312 -1.671 0.24
-1.545 -7.305 -1.668 0.21
-1.526 -7.329 -1.673 0.34
-1.511 -7.316 -1.669 0.32
-1.483 -7.294 -1.662 0.2
-1.464 -7.32 -1.667 0.27
-1.442 -7.328 -1.668 0.24
-1.417 -7.323 -1.666 0.26
-1.398 -7.346 -1.671 0.27
-1.374 -7.347 -1.67 0.27
-1.364 -7.359 -1.672 0.3
-1.339 -7.353 -1.67 0.29
-1.313 -7.338 -1.665 0.29
-1.292 -7.358 -1.669 0.29
-1.269 -7.36 -1.668 0.24
-1.24 -7.331 -1.66 0.28
-1.213 -7.308 -1.654 0.3
-1.187 -7.299 -1.651 0.27
-1.174 -7.289 -1.648 0.3
-1.148 -7.272 -1.643 0.3
-1.123 -7.262 -1.639 0.27
-1.1 -7.265 -1.639 0.26
-1.076 -7.265 -1.638 0.27
-1.054 -7.268 -1.638 0.25
-1.031 -7.269 -1.638 0.25
-1.026 -7.319 -1.65 0.26
-1.01 -7.374 -1.662 0.26
-0.989 -7.391 -1.666 0.33
-0.964 -7.379 -1.662 0.24
-0.944 -7.411 -1.669 0.32
-0.922 -7.423 -1.671 0.41
-0.897 -7.411 -1.667 0.3
-0.884 -7.404 -1.666 0.29
-0.861 -7.407 -1.666 0.46
-0.837 -7.398 -1.663 0.43
-0.811 -7.379 -1.658 0.27
-0.788 -7.382 -1.658 0.25
-0.764 -7.38 -1.657 0.21
-0.743 -7.402 -1.661 0.4
-0.731 -7.405 -1.662 0.35
-0.71 -7.425 -1.666 0.36
-0.684 -7.404 -1.66 0.3
-0.663 -7.431 -1.666 0.33
-0.639 -7.424 -1.664 0.31
-0.618 -7.445 -1.669 0.35
-0.594 -7.447 -1.669 0.34
-0.581 -7.432 -1.665 0.34
-0.557 -7.42 -1.662 0.3
-0.533 -7.412 -1.659 0.26
-0.51 -7.42 -1.661 0.27
-0.486 -7.412 -1.659 0.48
-0.463 -7.417 -1.659 0.41
-0.437 -7.382 -1.651 0.36
-0.422 -7.322 -1.636 0.25
-0.396 -7.273 -1.624 0.18
-0.374 -7.294 -1.629 0.29
-0.35 -7.275 -1.624 0.25
-0.328 -7.278 -1.624 0.26
-0.306 -7.303 -1.63 0.26
-0.284 -7.339 -1.638 0.25
-0.275 -7.384 -1.649 0.37
-0.253 -7.419 -1.658 0.29
-0.229 -7.407 -1.654 0.26
-0.206 -7.411 -1.655 0.36
-0.182 -7.41 -1.655 0.34
-0.158 -7.375 -1.646 0.34
-0.136 -7.413 -1.655 0.3
-0.124 -7.417 -1.656 0.38
-0.101 -7.411 -1.655 0.34
-0.078 -7.41 -1.654 0.25
-0.054 -7.381 -1.647 0.21
-0.031 -7.389 -1.649 0.26
-0.008 -7.391 -1.65 0.23
0.015 -7.41 -1.654 0.28
0.039 -7.408 -1.654 0.33
0.05 -7.383 -1.648 0.25
0.073 -7.383 -1.648 0.27
0.097 -7.39 -1.65 0.25
0.12 -7.372 -1.645 0.34
0.143 -7.382 -1.648 0.31
0.166 -7.375 -1.646 0.2
0.189 -7.379 -1.647 0.29
0.201 -7.363 -1.644 0.25
0.224 -7.36 -1.643 0.24
0.246 -7.328 -1.636 0.3
0.269 -7.345 -1.64 0.29
0.293 -7.356 -1.643 0.28
0.314 -7.312 -1.632 0.26
0.336 -7.274 -1.624 0.29
0.348 -7.281 -1.625 0.27
0.37 -7.272 -1.624 0.26
0.393 -7.275 -1.624 0.28
0.416 -7.268 -1.623 0.3
0.439 -7.276 -1.625 0.26
0.464 -7.318 -1.636 0.3
0.49 -7.363 -1.647 0.29
0.502 -7.36 -1.646 0.25
0.526 -7.376 -1.651 0.3
0.551 -7.396 -1.656 0.34
0.573 -7.386 -1.654 0.28
0.595 -7.357 -1.647 0.24
0.618 -7.363 -1.649 0.32
0.641 -7.353 -1.647 0.33
0.652 -7.352 -1.647 0.26
0.674 -7.338 -1.645 0.2
0.698 -7.338 -1.645 0.3
0.72 -7.328 -1.643 0.23
0.742 -7.318 -1.641 0.2
0.764 -7.308 -1.639 0.28
0.79 -7.327 -1.645 0.3
0.802 -7.333 -1.646 0.23
0.826 -7.344 -1.65 0.27
0.845 -7.305 -1.641 0.18
0.868 -7.302 -1.641 0.29
0.889 -7.278 -1.636 0.25
0.912 -7.281 -1.637 0.27
0.937 -7.292 -1.64 0.23
0.949 -7.296 -1.642 0.27
0.974 -7.309 -1.645 0.28
0.995 -7.292 -1.642 0.3
1.011 -7.241 -1.631 0.25
1.038 -7.263 -1.637 0.28
1.057 -7.238 -1.631 0.25
1.08 -7.231 -1.631 0.27
1.091 -7.229 -1.631 0.27
1.111 -7.206 -1.626 0.2
1.137 -7.226 -1.631 0.27
1.158 -7.213 -1.629 0.25
1.181 -7.211 -1.63 0.22
1.215 -7.274 -1.646 0.32
1.238 -7.271 -1.646 0.32
1.263 -7.28 -1.649 0.32
1.272 -7.265 -1.646 0.29
1.296 -7.27 -1.648 0.37
1.322 -7.28 -1.652 0.36
1.339 -7.247 -1.645 0.22
1.359 -7.225 -1.64 0.33
1.383 -7.229 -1.642 0.29
1.403 -7.213 -1.639 0.29
1.419 -7.233 -1.645 0.31
1.439 -7.214 -1.641 0.27
1.462 -7.209 -1.641 0.3
1.486 -7.214 -1.644 0.29
1.521 -7.268 -1.658 0.35
1.545 -7.271 -1.66 0.31
1.564 -7.247 -1.655 0.3
1.581 -7.271 -1.662 0.27
1.598 -7.24 -1.655 0.21
1.624 -7.246 -1.658 0.29
1.639 -7.207 -1.65 0.24
1.659 -7.192 -1.647 0.24
1.682 -7.187 -1.647 0.31
1.709 -7.2 -1.652 0.3
1.713 -7.168 -1.645 0.31
1.734 -7.155 -1.643 0.3
1.756 -7.149 -1.643 0.29
1.783 -7.16 -1.647 0.27
1.789 -7.089 -1.631 0.25
1.807 -7.068 -1.627 0.27
1.83 -7.064 -1.627 0.28
1.844 -7.075 -1.631 0.29
1.867 -7.071 -1.631 0.28
1.886 -7.052 -1.628 0.28
1.91 -7.053 -1.63 0.25
1.933 -7.051 -1.631 0.22
1.978 -7.129 -1.652 0.31
1.999 -7.117 -1.65 0.32
2.011 -7.118 -1.651 0.35
2.029 -7.095 -1.647 0.31
2.062 -7.126 -1.656 0.41
2.077 -7.095 -1.65 0.28
2.087 -7.045 -1.639 0.29
2.106 -7.028 -1.637 0.36
2.141 -7.064 -1.647 0.29
2.149 -7.051 -1.645 0.32
2.175 -7.055 -1.648 0.32
2.197 -7.049 -1.648 0.36
2.212 -7.019 -1.642 0.28
2.223 -6.979 -1.634 0.29
2.246 -6.974 -1.634 0.26
2.26 -6.943 -1.628 0.3
2.282 -6.972 -1.637 0.32
2.307 -6.976 -1.639 0.34
2.336 -6.989 -1.645 0.34
2.36 -6.989 -1.646 0.25
2.379 -6.971 -1.644 0.24
2.409 -6.987 -1.65 0.38
2.426 -6.967 -1.646 0.32
2.427 -6.934 -1.639 0.26
2.448 -6.924 -1.638 0.36
2.475 -6.931 -1.642 0.33
2.491 -6.907 -1.638 0.32
2.518 -6.913 -1.642 0.38
2.53 -6.88 -1.635 0.3
2.548 -6.861 -1.632 0.29
2.565 -6.842 -1.63 0.27
2.577 -6.842 -1.631 0.26
2.6 -6.835 -1.631 0.29
2.615 -6.811 -1.627 0.28
2.639 -6.81 -1.629 0.28
2.668 -6.821 -1.634 0.26
2.682 -6.793 -1.629 0.27
2.716 -6.817 -1.637 0.27
2.724 -6.806 -1.635 0.3
2.737 -6.777 -1.63 0.29
2.769 -6.796 -1.637 0.29
2.78 -6.762 -1.631 0.23
2.801 -6.751 -1.63 0.33
2.829 -6.758 -1.634 0.37
2.841 -6.728 -1.629 0.31
2.851 -6.722 -1.628 0.38
2.883 -6.74 -1.635 0.32
2.9 -6.72 -1.632 0.32
2.918 -6.703 -1.631 0.3
2.948 -6.716 -1.636 0.31
2.976 -6.721 -1.64 0.28
3.002 -6.724 -1.643 0.37
3.028 -6.755 -1.652 0.36
3.052 -6.75 -1.654 0.3
3.073 -6.741 -1.654 0.36
3.086 -6.713 -1.649 0.28
3.1 -6.688 -1.645 0.29
3.109 -6.651 -1.638 0.26
3.127 -6.636 -1.637 0.25
3.118 -6.589 -1.625 0.04
3.135 -6.572 -1.624 0.07
3.141 -6.531 -1.615 0.0
2.99 -6.165 -1.52 0.0
2.922 -5.975 -1.472 0.03
2.926 -5.935 -1.464 0.04
2.947 -5.931 -1.465 0.16
2.959 -5.931 -1.467 0.2
2.977 -5.92 -1.466 0.18
3.006 -5.932 -1.472 0.24
3.021 -5.915 -1.47 0.23
3.047 -5.921 -1.474 0.19
3.078 -5.936 -1.481 0.27
3.093 -5.919 -1.479 0.25
3.105 -5.918 -1.48 0.2
3.135 -5.931 -1.486 0.27
3.154 -5.922 -1.486 0.25
3.178 -5.921 -1.489 0.2
3.21 -5.937 -1.496 0.27
3.23 -5.93 -1.497 0.25
3.253 -5.927 -1.499 0.2
3.272 -5.94 -1.504 0.27
3.296 -5.939 -1.506 0.24
3.329 -5.955 -1.513 0.23
3.341 -5.933 -1.51 0.18
3.378 -5.955 -1.519 0.29
3.399 -5.947 -1.52 0.25
3.424 -5.949 -1.523 0.25
3.441 -5.957 -1.527 0.26
3.467 -5.958 -1.53 0.26
3.489 -5.953 -1.532 0.26
3.515 -5.954 -1.535 0.27
3.541 -5.957 -1.539 0.27
3.559 -5.944 -1.539 0.27
3.588 -5.949 -1.543 0.25
3.607 -5.94 -1.544 0.18
3.631 -5.957 -1.55 0.28
3.655 -5.954 -1.553 0.25
3.679 -5.953 -1.555 0.25
3.71 -5.961 -1.561 0.24
3.727 -5.946 -1.56 0.18
3.756 -5.951 -1.565 0.28
3.774 -5.937 -1.564 0.25
3.794 -5.949 -1.569 0.25
3.821 -5.95 -1.573 0.25
3.839 -5.937 -1.573 0.21
3.87 -5.944 -1.578 0.28
3.893 -5.939 -1.58 0.23
3.917 -5.934 -1.582 0.18
3.94 -5.929 -1.584 0.26
3.954 -5.929 -1.586 0.23
3.97 -5.913 -1.585 0.2
3.981 -5.889 -1.582 0.25
3.988 -5.859 -1.577 0.21
4.014 -5.858 -1.58 0.18
4.038 -5.853 -1.582 0.27
4.057 -5.842 -1.583 0.21
4.086 -5.865 -1.591 0.18
4.151 -5.919 -1.611 0.2
4.178 -5.917 -1.614 0.45
4.21 -5.923 -1.62 0.37
4.238 -5.924 -1.624 0.34
4.224 -5.864 -1.61 0.28
4.274 -5.895 -1.624 0.32
4.28 -5.884 -1.622 0.28
4.327 -5.91 -1.634 0.28
4.348 -5.899 -1.635 0.38
4.361 -5.878 -1.632 0.29
4.368 -5.848 -1.628 0.3
4.374 -5.819 -1.623 0.23
4.352 -5.751 -1.607 0.2
4.385 -5.777 -1.617 0.29
4.416 -5.78 -1.622 0.32
4.43 -5.76 -1.62 0.25
4.453 -5.752 -1.622 0.19
4.485 -5.756 -1.627 0.28
4.486 -5.721 -1.621 0.23
4.507 -5.71 -1.622 0.27
4.511 -5.697 -1.62 0.22
4.536 -5.692 -1.623 0.27
4.536 -5.654 -1.616 0.24
4.547 -5.633 -1.613 0.26
4.538 -5.585 -1.603 0.29
4.563 -5.58 -1.606 0.29
4.572 -5.555 -1.603 0.27
4.577 -5.543 -1.601 0.31
4.618 -5.557 -1.61 0.28
4.633 -5.54 -1.609 0.27
4.61 -5.477 -1.594 0.27
4.62 -5.454 -1.591 0.37
4.642 -5.445 -1.593 0.27
4.645 -5.414 -1.588 0.27
4.67 -5.426 -1.594 0.3
4.706 -5.434 -1.601 0.32
4.703 -5.395 -1.594 0.25
4.731 -5.394 -1.598 0.27
4.766 -5.399 -1.604 0.34
4.782 -5.383 -1.604 0.31
4.799 -5.368 -1.604 0.33
4.761 -5.292 -1.584 0.29
4.802 -5.321 -1.596 0.34
4.813 -5.3 -1.594 0.3
4.808 -5.26 -1.586 0.23
4.823 -5.244 -1.586 0.29
4.82 -5.207 -1.579 0.34
4.806 -5.159 -1.568 0.32
4.81 -5.131 -1.564 0.34
4.833 -5.139 -1.569 0.32
4.83 -5.104 -1.562 0.29
4.862 -5.106 -1.568 0.39
4.896 -5.109 -1.574 0.36
4.901 -5.082 -1.57 0.34
4.925 -5.075 -1.573 0.45
4.979 -5.099 -1.586 0.36
5.007 -5.112 -1.593 0.22
5.0 -5.072 -1.585 0.44
5.012 -5.052 -1.584 0.3
5.037 -5.046 -1.587 0.34
5.052 -5.029 -1.587 0.35
5.062 -5.008 -1.585 0.26
5.112 -5.026 -1.596 0.28
5.132 -5.03 -1.601 0.37
5.162 -5.028 -1.605 0.33
5.164 -4.998 -1.601 0.4
5.209 -5.01 -1.61 0.36
5.244 -5.013 -1.617 0.36
5.24 -4.977 -1.61 0.27
5.271 -4.976 -1.616 0.29
5.279 -4.967 -1.616 0.36
5.284 -4.94 -1.612 0.3
5.302 -4.926 -1.613 0.36
5.303 -4.896 -1.608 0.37
5.344 -4.903 -1.617 0.29
5.408 -4.931 -1.632 0.3
5.411 -4.902 -1.628 0.24
5.431 -4.906 -1.632 0.33
5.437 -4.879 -1.629 0.34
5.449 -4.86 -1.628 0.27
5.493 -4.868 -1.638 0.0
5.5 -4.843 -1.635 0.0
5.422 -4.744 -1.605 0.0
5.258 -4.57 -1.548 0.0
5.139 -4.452 -1.508 0.0
5.133 -4.418 -1.501 0.02
5.145 -4.401 -1.501 0.14
5.194 -4.415 -1.512 0.19
5.21 -4.4 -1.513 0.18
5.263 -4.417 -1.525 0.25
5.303 -4.422 -1.533 0.24
5.331 -4.418 -1.538 0.26
5.371 -4.437 -1.548 0.27
5.399 -4.431 -1.552 0.27
5.44 -4.436 -1.561 0.27
5.479 -4.44 -1.569 0.25
5.505 -4.433 -1.572 0.21
5.546 -4.437 -1.581 0.28
5.571 -4.428 -1.584 0.23
5.596 -4.434 -1.589 0.18
5.64 -4.441 -1.599 0.27
5.665 -4.431 -1.602 0.23
5.688 -4.421 -1.605 0.18
5.739 -4.432 -1.616 0.26
5.759 -4.418 -1.618 0.19
5.783 -4.408 -1.621 0.11
5.797 -4.404 -1.623 0.18
5.838 -4.407 -1.631 0.22
5.874 -4.405 -1.638 0.21
5.897 -4.394 -1.641 0.25
5.92 -4.382 -1.644 0.34
5.954 -4.379 -1.65 0.36
5.968 -4.36 -1.65 0.31
5.975 -4.35 -1.65 0.27
5.921 -4.282 -1.63 0.29
5.915 -4.25 -1.624 0.29
5.979 -4.268 -1.639 0.29
5.991 -4.248 -1.638 0.27
5.98 -4.212 -1.631 0.25
5.973 -4.179 -1.625 0.33
5.981 -4.17 -1.626 0.38
5.999 -4.155 -1.627 0.29
6.068 -4.175 -1.644 0.29
6.097 -4.167 -1.648 0.24
6.137 -4.166 -1.656 0.22
6.149 -4.146 -1.656 0.27
6.141 -4.113 -1.65 0.35
6.128 -4.09 -1.644 0.28
6.138 -4.068 -1.643 0.39
6.158 -4.054 -1.645 0.3
6.186 -4.045 -1.65 0.35
6.176 -4.01 -1.643 0.32
6.209 -4.005 -1.649 0.37
6.209 -3.977 -1.645 0.38
6.217 -3.968 -1.646 0.41
6.265 -3.972 -1.656 0.38
6.268 -3.946 -1.653 0.25
6.236 -3.898 -1.641 0.32
6.255 -3.882 -1.643 0.33
6.272 -3.866 -1.644 0.29
6.285 -3.847 -1.645 0.37
6.305 -3.845 -1.648 0.34
6.304 -3.817 -1.645 0.22
6.344 -3.815 -1.652 0.34
6.352 -3.793 -1.652 0.34
6.354 -3.767 -1.649 0.4
6.371 -3.75 -1.65 0.35
6.411 -3.747 -1.658 0.34
6.421 -3.738 -1.659 0.32
6.446 -3.726 -1.663 0.41
6.467 -3.712 -1.666 0.39
6.459 -3.68 -1.66 0.31
6.487 -3.669 -1.665 0.34
6.495 -3.647 -1.664 0.3
6.488 -3.616 -1.659 0.22
6.516 -3.618 -1.665 0.43
6.51 -3.588 -1.66 0.34
6.501 -3.556 -1.654 0.29
6.519 -3.54 -1.656 0.33
6.575 -3.543 -1.668 0.32
6.586 -3.523 -1.668 0.43
6.583 -3.495 -1.665 0.3
6.584 -3.468 -1.662 0.25
6.584 -3.455 -1.66 0.32
6.59 -3.432 -1.659 0.41
6.6 -3.411 -1.659 0.41
6.651 -3.411 -1.67 0.27
6.682 -3.401 -1.675 0.31
6.672 -3.369 -1.67 0.39
6.689 -3.352 -1.672 0.46
6.698 -3.343 -1.673 0.36
6.707 -3.321 -1.672 0.37
6.702 -3.292 -1.668 0.31
6.705 -3.268 -1.666 0.0
6.654 -3.217 -1.65 0.0
6.148 -2.946 -1.512 0.05
6.153 -2.925 -1.511 0.08
6.158 -2.915 -1.511 0.21
6.206 -2.914 -1.521 0.26
6.262 -2.917 -1.534 0.27
6.323 -2.921 -1.548 0.29
6.395 -2.931 -1.564 0.29
6.449 -2.931 -1.576 0.29
6.497 -2.928 -1.586 0.28
6.551 -2.941 -1.599 0.29
6.601 -2.938 -1.61 0.29
6.646 -2.933 -1.619 0.29
6.674 -2.921 -1.624 0.26
6.714 -2.913 -1.632 0.25
6.719 -2.891 -1.631 0.17
6.748 -2.878 -1.637 0.3
6.763 -2.872 -1.639 0.23
6.749 -2.841 -1.633 0.31
6.745 -2.814 -1.63 0.19
6.788 -2.807 -1.639 0.28
6.777 -2.778 -1.634 0.24
6.799 -2.762 -1.637 0.25
6.842 -2.754 -1.646 0.25
