# .PCD v.7 - Point Cloud Data file format
VERSION .7
FIELDS x y z intensity
SIZE 4 4 4 4
TYPE F F F F
COUNT 1 1 1 1
WIDTH 1908
HEIGHT 1
VIEWPOINT 0 0 0 1 0 0 0
POINTS 1908
DATA ascii
-4.672 8.37 -1.271 0.0
-4.69 8.278 -1.26 0.0
-4.806 8.423 -1.288 0.0
-4.866 8.466 -1.298 0.05
-7.233 12.517 -2.017 0.14
-7.273 12.496 -2.018 0.29
-7.292 12.485 -2.018 0.29
-7.336 12.469 -2.019 0.32
-7.368 12.434 -2.017 0.28
-7.41 12.415 -2.018 0.29
-7.46 12.411 -2.021 0.32
-7.501 12.391 -2.022 0.31
-7.543 12.372 -2.022 0.3
-7.563 12.362 -2.023 0.29
-7.596 12.328 -2.021 0.25
-7.565 12.191 -2.001 0.0
-6.012 9.611 -1.539 0.0
-5.966 9.47 -1.517 0.0
-5.966 9.405 -1.509 0.0
-5.944 9.304 -1.494 0.0
-5.934 9.256 -1.487 0.0
-5.932 9.189 -1.478 0.0
-5.922 9.111 -1.467 0.0
-5.931 9.062 -1.462 0.0
-5.934 9.004 -1.454 0.0
-5.938 8.949 -1.448 0.0
-5.951 8.907 -1.444 0.0
-5.954 8.852 -1.437 0.0
-5.947 8.812 -1.431 0.0
-5.96 8.77 -1.427 0.0
-5.973 8.73 -1.423 0.0
-5.986 8.69 -1.419 0.0
-5.993 8.642 -1.414 0.0
-6.016 8.618 -1.413 0.0
-6.025 8.574 -1.408 0.0
-6.044 8.572 -1.409 0.0
-6.037 8.505 -1.4 0.0
-6.061 8.482 -1.4 0.07
-6.078 8.449 -1.397 0.09
-6.102 8.427 -1.396 0.15
-6.127 8.406 -1.396 0.29
-6.136 8.362 -1.391 0.23
-6.154 8.359 -1.393 0.27
-6.177 8.335 -1.392 0.29
-6.203 8.316 -1.392 0.27
-6.235 8.304 -1.393 0.21
-6.264 8.289 -1.394 0.18
-6.305 8.288 -1.398 0.0
-6.324 8.259 -1.396 0.0
-6.341 8.255 -1.397 0.0
-6.384 8.257 -1.401 0.0
-6.421 8.251 -1.404 0.0
-6.466 8.256 -1.409 0.0
-6.503 8.25 -1.412 0.0
-6.549 8.254 -1.417 0.0
-6.583 8.244 -1.419 0.0
-6.624 8.242 -1.422 0.0
-6.653 8.252 -1.426 0.0
-6.705 8.263 -1.433 0.0
-6.737 8.25 -1.434 0.0
-6.79 8.262 -1.441 0.0
-6.835 8.264 -1.445 0.0
-6.877 8.262 -1.449 0.0
-6.925 8.266 -1.454 0.0
-6.958 8.279 -1.459 0.0
-6.996 8.271 -1.462 0.0
-7.046 8.278 -1.468 0.0
-7.087 8.274 -1.471 0.0
-7.129 8.269 -1.475 0.0
-7.18 8.277 -1.481 0.0
-7.227 8.278 -1.486 0.0
-7.269 8.273 -1.49 0.0
-7.31 8.295 -1.496 0.0
-7.363 8.301 -1.502 0.0
-7.402 8.293 -1.505 0.0
-7.45 8.295 -1.51 0.0
-7.499 8.296 -1.516 0.0
-7.539 8.289 -1.519 0.0
-7.589 8.291 -1.524 0.0
-7.626 8.306 -1.53 0.0
-7.676 8.308 -1.535 0.0
-7.733 8.317 -1.542 0.0
-7.78 8.314 -1.547 0.0
-7.826 8.311 -1.551 0.0
-7.872 8.308 -1.556 0.0
-7.927 8.314 -1.562 0.0
-7.963 8.326 -1.567 0.0
-8.024 8.336 -1.575 0.0
-8.068 8.329 -1.579 0.0
-8.117 8.328 -1.584 0.0
-8.174 8.334 -1.591 0.0
-8.223 8.332 -1.596 0.0
-8.273 8.33 -1.601 0.0
-8.351 8.356 -1.612 0.0
-8.378 8.357 -1.615 0.0
-8.485 8.358 -1.627 0.26
-8.539 8.359 -1.633 0.2
-8.714 8.424 -1.659 0.46
-8.826 8.479 -1.677 0.26
-8.773 8.402 -1.663 0.12
-8.758 8.335 -1.655 0.37
-8.945 8.46 -1.689 0.15
-8.894 8.358 -1.672 0.29
-8.929 8.338 -1.674 0.2
-8.977 8.33 -1.679 0.51
-9.007 8.306 -1.68 0.27
-9.09 8.356 -1.694 0.18
-10.984 10.041 -2.082 0.16
-11.063 10.05 -2.092 0.26
-11.112 10.032 -2.096 0.52
-11.189 10.038 -2.105 0.31
-11.244 10.024 -2.11 0.47
-11.295 10.005 -2.114 0.41
-11.315 9.959 -2.112 0.45
-11.235 9.858 -2.092 0.39
-11.268 9.824 -2.093 0.21
-11.234 9.733 -2.08 0.12
-11.256 9.689 -2.078 0.17
-11.325 9.688 -2.086 0.22
-11.372 9.666 -2.089 0.21
-11.454 9.674 -2.099 0.22
-11.486 9.67 -2.103 0.3
-11.487 9.609 -2.097 0.3
-11.491 9.552 -2.092 0.3
-11.495 9.494 -2.087 0.3
-11.51 9.445 -2.084 0.29
-11.526 9.398 -2.081 0.31
-11.542 9.351 -2.078 0.3
-11.548 9.326 -2.077 0.31
-11.582 9.294 -2.078 0.32
-11.595 9.244 -2.074 0.29
-11.614 9.2 -2.072 0.3
-11.642 9.162 -2.072 0.29
-11.656 9.114 -2.069 0.29
-11.677 9.072 -2.068 0.29
-11.69 9.023 -2.065 0.29
-11.688 8.992 -2.062 0.2
-11.649 8.904 -2.049 0.18
-11.506 8.737 -2.016 0.0
-11.033 8.322 -1.92 0.0
-11.036 8.269 -1.915 0.0
-11.055 8.23 -1.914 0.0
-11.102 8.211 -1.918 0.07
-11.154 8.223 -1.925 0.11
-11.234 8.227 -1.936 0.34
-11.287 8.212 -1.941 0.0
-11.35 8.203 -1.948 0.12
-11.481 8.244 -1.968 0.12
-11.883 8.477 -2.039 0.29
-11.903 8.435 -2.038 0.31
-11.91 8.412 -2.036 0.3
-11.924 8.365 -2.034 0.3
-11.932 8.315 -2.031 0.29
-11.96 8.279 -2.031 0.29
-11.973 8.232 -2.028 0.32
-11.985 8.185 -2.026 0.3
-12.008 8.145 -2.025 0.3
-12.03 8.106 -2.025 0.3
-12.023 8.073 -2.021 0.26
-12.047 8.034 -2.021 0.33
-12.057 7.987 -2.018 0.32
-12.066 7.938 -2.015 0.27
-12.086 7.897 -2.014 0.35
-12.112 7.86 -2.015 0.31
-12.128 7.816 -2.013 0.3
-12.134 7.793 -2.012 0.32
-12.155 7.753 -2.011 0.31
-12.173 7.71 -2.01 0.29
-12.189 7.667 -2.008 0.29
-12.204 7.623 -2.007 0.31
-12.225 7.583 -2.006 0.3
-12.245 7.542 -2.006 0.31
-12.252 7.52 -2.005 0.32
-12.26 7.472 -2.002 0.3
-12.27 7.425 -2.0 0.29
-12.292 7.386 -1.999 0.33
-12.3 7.338 -1.997 0.31
-12.306 7.289 -1.994 0.31
-12.315 7.242 -1.991 0.29
-12.314 7.216 -1.989 0.29
-12.327 7.171 -1.987 0.3
-12.339 7.126 -1.985 0.3
-12.341 7.076 -1.982 0.3
-12.346 7.027 -1.979 0.29
-12.366 6.987 -1.978 0.29
-12.372 6.94 -1.976 0.28
-12.352 6.903 -1.97 0.19
-12.377 6.866 -1.971 0.44
-12.373 6.813 -1.966 0.25
-12.385 6.769 -1.965 0.28
-12.395 6.723 -1.963 0.27
-12.388 6.669 -1.958 0.19
-12.407 6.63 -1.958 0.39
-12.398 6.575 -1.952 0.2
-12.412 6.557 -1.953 0.38
-12.418 6.511 -1.951 0.18
-12.448 6.476 -1.952 0.36
-12.461 6.434 -1.951 0.18
-12.493 6.401 -1.953 0.35
-12.494 6.351 -1.95 0.18
-12.521 6.316 -1.951 0.36
-12.529 6.295 -1.951 0.2
-12.549 6.256 -1.951 0.23
-12.554 6.209 -1.948 0.19
-12.572 6.169 -1.948 0.23
-12.577 6.123 -1.945 0.19
-12.591 6.08 -1.945 0.23
-12.596 6.034 -1.942 0.2
-12.588 5.982 -1.938 0.17
-12.606 5.966 -1.939 0.4
-12.593 5.911 -1.934 0.22
-12.59 5.862 -1.93 0.16
-12.615 5.825 -1.931 0.42
-12.605 5.772 -1.926 0.25
-12.61 5.727 -1.924 0.26
-12.615 5.682 -1.922 0.22
-12.615 5.658 -1.921 0.38
-12.608 5.607 -1.916 0.25
-12.62 5.565 -1.915 0.26
-12.623 5.519 -1.913 0.27
-12.618 5.47 -1.909 0.29
-12.635 5.43 -1.909 0.27
-12.645 5.387 -1.908 0.29
-12.645 5.363 -1.907 0.29
-12.647 5.317 -1.904 0.28
-12.641 5.269 -1.901 0.3
-12.653 5.227 -1.9 0.29
-12.663 5.185 -1.899 0.26
-12.663 5.138 -1.896 0.26
-12.679 5.098 -1.896 0.25
-12.665 5.069 -1.892 0.17
-12.685 5.031 -1.893 0.43
-12.697 4.99 -1.892 0.24
-12.701 4.945 -1.891 0.19
-12.73 4.911 -1.893 0.41
-12.725 4.863 -1.889 0.23
-12.74 4.823 -1.889 0.2
-12.748 4.803 -1.889 0.35
-12.75 4.758 -1.887 0.19
-12.772 4.72 -1.889 0.36
-12.774 4.676 -1.886 0.17
-12.786 4.635 -1.886 0.38
-12.786 4.589 -1.884 0.19
-12.795 4.547 -1.883 0.38
-12.783 4.497 -1.879 0.22
-12.771 4.471 -1.876 0.19
-12.782 4.429 -1.875 0.41
-12.771 4.381 -1.871 0.24
-12.755 4.33 -1.866 0.26
-12.761 4.288 -1.865 0.27
-12.752 4.24 -1.861 0.27
-12.731 4.189 -1.856 0.23
-12.715 4.162 -1.852 0.27
-12.738 4.125 -1.854 0.25
-12.726 4.077 -1.85 0.53
-12.737 4.036 -1.849 0.32
-12.738 3.992 -1.848 0.32
-12.753 3.953 -1.848 0.32
-12.775 3.916 -1.849 0.57
-12.783 3.896 -1.85 0.29
-12.804 3.859 -1.851 0.3
-12.816 3.819 -1.851 0.32
-12.823 3.777 -1.85 0.29
-12.855 3.743 -1.854 0.3
-12.863 3.701 -1.853 0.3
-12.888 3.665 -1.855 0.34
-12.905 3.626 -1.856 0.28
-12.918 3.608 -1.857 0.34
-12.93 3.567 -1.857 0.27
-12.954 3.53 -1.859 0.34
-12.967 3.49 -1.86 0.32
-12.986 3.451 -1.861 0.29
-13.004 3.412 -1.862 0.33
-13.015 3.371 -1.862 0.32
-13.032 3.354 -1.864 0.32
-13.046 3.314 -1.865 0.3
-13.054 3.272 -1.864 0.29
-13.082 3.236 -1.867 0.3
-13.111 3.199 -1.87 0.32
-13.102 3.153 -1.867 0.32
-13.116 3.113 -1.868 0.32
-13.128 3.094 -1.869 0.3
-13.136 3.053 -1.869 0.29
-13.153 3.013 -1.87 0.29
-13.161 2.971 -1.869 0.29
-13.164 2.929 -1.869 0.29
-13.179 2.889 -1.869 0.33
-13.19 2.848 -1.87 0.28
-13.193 2.805 -1.869 0.3
-13.207 2.786 -1.87 0.34
-13.218 2.745 -1.871 0.32
-13.217 2.702 -1.869 0.32
-13.227 2.661 -1.869 0.29
-13.241 2.62 -1.87 0.34
-13.243 2.577 -1.869 0.32
-13.259 2.537 -1.871 0.3
-13.253 2.515 -1.869 0.3
-13.269 2.474 -1.87 0.35
-13.273 2.432 -1.87 0.29
-13.296 2.393 -1.872 0.34
-13.294 2.35 -1.871 0.33
-13.299 2.307 -1.87 0.3
-13.318 2.268 -1.872 0.3
-13.316 2.246 -1.871 0.36
-13.34 2.207 -1.874 0.3
-13.347 2.165 -1.874 0.31
-13.356 2.123 -1.874 0.33
-13.376 2.084 -1.876 0.32
-13.39 2.043 -1.878 0.29
-13.391 2.0 -1.877 0.34
-13.411 1.96 -1.879 0.32
-13.412 1.938 -1.879 0.29
-13.432 1.898 -1.881 0.35
-13.433 1.855 -1.88 0.29
-13.443 1.814 -1.881 0.31
-13.455 1.772 -1.882 0.3
-13.464 1.73 -1.882 0.31
-13.475 1.689 -1.883 0.31
-13.488 1.669 -1.885 0.32
-13.483 1.625 -1.883 0.26
-13.494 1.584 -1.884 0.29
-13.507 1.542 -1.885 0.3
-13.519 1.501 -1.886 0.29
-13.516 1.457 -1.885 0.3
-13.529 1.416 -1.886 0.32
-13.533 1.373 -1.886 0.3
-13.531 1.352 -1.886 0.28
-13.537 1.309 -1.886 0.32
-13.53 1.266 -1.884 0.27
-13.539 1.224 -1.885 0.32
-13.541 1.181 -1.885 0.29
-13.543 1.138 -1.885 0.3
-13.57 1.098 -1.888 0.32
-13.564 1.076 -1.887 0.29
-13.575 1.034 -1.888 0.28
-13.602 0.993 -1.892 0.32
-13.611 0.95 -1.893 0.28
-13.63 0.909 -1.895 0.29
-13.638 0.866 -1.896 0.3
-13.643 0.824 -1.896 0.3
-13.65 0.802 -1.897 0.26
-13.657 0.76 -1.898 0.27
-13.683 0.718 -1.902 0.24
-13.665 0.674 -1.899 0.17
-13.685 0.632 -1.901 0.46
-13.683 0.589 -1.901 0.23
-13.688 0.546 -1.901 0.2
-13.695 0.525 -1.902 0.41
-13.685 0.481 -1.9 0.23
-13.686 0.438 -1.9 0.19
-13.706 0.396 -1.903 0.41
-13.697 0.331 -1.902 0.4
-13.688 0.288 -1.9 0.25
-13.679 0.245 -1.899 0.27
-13.676 0.202 -1.898 0.27
-13.659 0.18 -1.895 0.25
-13.645 0.137 -1.893 0.27
-13.66 0.094 -1.895 0.26
-13.646 0.051 -1.893 0.29
-13.638 0.008 -1.892 0.29
-13.63 -0.035 -1.891 0.28
-13.642 -0.078 -1.892 0.3
-13.64 -0.12 -1.892 0.3
-13.651 -0.142 -1.894 0.3
-13.676 -0.185 -1.898 0.32
-13.672 -0.228 -1.897 0.28
-13.679 -0.271 -1.899 0.3
-13.68 -0.314 -1.899 0.29
-13.683 -0.357 -1.899 0.3
-13.69 -0.4 -1.901 0.3
-13.693 -0.422 -1.901 0.31
-13.703 -0.465 -1.903 0.3
-13.7 -0.508 -1.903 0.29
-13.704 -0.552 -1.904 0.3
-13.71 -0.595 -1.905 0.31
-13.71 -0.638 -1.905 0.31
-13.712 -0.681 -1.906 0.3
-13.717 -0.703 -1.907 0.28
-13.725 -0.747 -1.908 0.28
-13.736 -0.791 -1.91 0.27
-13.739 -0.834 -1.911 0.27
-13.745 -0.878 -1.912 0.26
-13.752 -0.922 -1.914 0.2
-13.762 -0.966 -1.916 0.42
-13.751 -1.009 -1.915 0.25
-13.75 -1.03 -1.915 0.2
-13.758 -1.074 -1.917 0.39
-13.735 -1.116 -1.914 0.23
-13.72 -1.158 -1.912 0.17
-13.738 -1.203 -1.915 0.42
-13.718 -1.245 -1.913 0.25
-13.7 -1.287 -1.911 0.26
-13.7 -1.308 -1.911 0.27
-13.678 -1.35 -1.908 0.27
-13.678 -1.393 -1.909 0.29
-13.662 -1.435 -1.907 0.29
-13.653 -1.477 -1.906 0.31
-13.645 -1.52 -1.906 0.29
-13.659 -1.565 -1.909 0.29
-13.677 -1.588 -1.912 0.29
-13.683 -1.633 -1.914 0.33
-13.694 -1.678 -1.916 0.32
-13.712 -1.724 -1.92 0.24
-13.648 -1.759 -1.911 0.29
-13.534 -1.788 -1.894 0.3
-13.482 -1.824 -1.887 0.33
-13.476 -1.867 -1.887 0.38
-13.444 -1.884 -1.882 0.53
-13.224 -1.896 -1.849 0.31
-12.968 -1.901 -1.81 0.29
-12.776 -1.914 -1.782 0.34
-12.703 -1.944 -1.771 0.32
-12.703 -1.985 -1.772 0.31
-12.689 -2.024 -1.771 0.27
-12.744 -2.053 -1.78 0.23
-12.798 -2.103 -1.789 0.35
-12.743 -2.135 -1.782 0.35
-12.713 -2.171 -1.778 0.34
-12.7 -2.21 -1.777 0.35
-12.73 -2.256 -1.783 0.34
-12.694 -2.291 -1.779 0.27
-12.702 -2.313 -1.78 0.21
-12.72 -2.358 -1.784 0.46
-13.033 -2.458 -1.834 0.16
-13.12 -2.517 -1.849 0.35
-13.056 -2.547 -1.84 0.27
-13.059 -2.59 -1.842 0.25
-13.063 -2.634 -1.844 0.25
-13.055 -2.653 -1.843 0.26
-13.064 -2.698 -1.846 0.25
-13.04 -2.736 -1.844 0.28
-13.022 -2.775 -1.842 0.29
-13.034 -2.82 -1.846 0.24
-13.015 -2.859 -1.844 0.19
-12.968 -2.891 -1.838 0.46
-12.851 -2.908 -1.821 0.24
-12.794 -2.916 -1.813 0.27
-12.656 -2.927 -1.793 0.26
-12.465 -2.924 -1.764 0.18
-12.295 -2.925 -1.739 0.44
-12.022 -2.901 -1.697 0.24
-11.884 -2.908 -1.677 0.0
-13.043 -3.254 -1.862 0.36
-13.015 -3.29 -1.859 0.24
-13.024 -3.336 -1.862 0.25
-13.01 -3.376 -1.862 0.27
-13.012 -3.42 -1.864 0.26
-13.005 -3.462 -1.864 0.27
-12.994 -3.503 -1.864 0.29
-13.002 -3.527 -1.866 0.3
-12.989 -3.567 -1.866 0.28
-12.989 -3.611 -1.868 0.3
-12.984 -3.654 -1.869 0.3
-12.985 -3.698 -1.871 0.32
-12.974 -3.739 -1.871 0.34
-12.971 -3.782 -1.872 0.31
-12.975 -3.806 -1.874 0.32
-12.974 -3.85 -1.876 0.3
-12.966 -3.892 -1.876 0.34
-12.952 -3.932 -1.876 0.33
-12.909 -3.963 -1.871 0.31
-12.955 -4.022 -1.881 0.26
-12.95 -4.065 -1.882 0.28
-12.935 -4.105 -1.882 0.27
-12.919 -4.122 -1.88 0.3
-12.901 -4.161 -1.879 0.27
-12.861 -4.193 -1.875 0.27
-12.85 -4.234 -1.875 0.24
-12.803 -4.263 -1.87 0.18
-12.795 -4.305 -1.871 0.48
-12.766 -4.34 -1.868 0.25
-12.793 -4.372 -1.874 0.26
-12.703 -4.386 -1.861 0.3
-12.467 -4.348 -1.825 0.27
-12.309 -4.337 -1.802 0.23
-12.307 -4.38 -1.804 0.34
-12.328 -4.431 -1.809 0.28
-12.232 -4.44 -1.796 0.27
-12.116 -4.42 -1.778 0.29
-12.0 -4.42 -1.762 0.29
-11.88 -4.419 -1.744 0.3
-11.742 -4.41 -1.724 0.28
-11.593 -4.396 -1.702 0.25
-11.372 -4.354 -1.668 0.0
-11.418 -4.412 -1.678 0.0
-12.421 -4.865 -1.846 0.28
-12.352 -4.883 -1.837 0.28
-12.291 -4.903 -1.83 0.23
-12.307 -4.954 -1.835 0.4
-12.267 -4.983 -1.831 0.27
-12.105 -4.962 -1.807 0.38
-12.1 -5.005 -1.809 0.27
-12.007 -4.988 -1.794 0.33
-11.936 -5.003 -1.785 0.36
-11.842 -5.008 -1.772 0.29
-11.793 -5.031 -1.767 0.26
-11.752 -5.057 -1.763 0.34
-11.76 -5.104 -1.766 0.31
-11.704 -5.124 -1.76 0.38
-11.678 -5.134 -1.757 0.24
-11.609 -5.148 -1.748 0.24
-11.602 -5.188 -1.749 0.44
-11.519 -5.195 -1.738 0.25
-11.553 -5.254 -1.747 0.36
-11.468 -5.259 -1.735 0.3
-11.43 -5.285 -1.732 0.22
-11.56 -5.389 -1.756 0.31
-11.55 -5.406 -1.756 0.43
-11.599 -5.474 -1.767 0.17
-11.448 -5.447 -1.745 0.48
-11.466 -5.499 -1.751 0.29
-11.287 -5.458 -1.723 0.18
-11.218 -5.468 -1.714 0.49
-11.38 -5.591 -1.745 0.23
-11.414 -5.63 -1.752 0.18
-11.426 -5.68 -1.757 0.42
-11.403 -5.714 -1.756 0.23
-11.348 -5.731 -1.75 0.24
-11.348 -5.775 -1.753 0.36
-11.331 -5.812 -1.753 0.31
-11.286 -5.834 -1.749 0.23
-11.256 -5.841 -1.745 0.45
-11.204 -5.859 -1.739 0.21
-11.174 -5.887 -1.737 0.41
-11.12 -5.904 -1.731 0.25
-11.065 -5.919 -1.725 0.27
-10.999 -5.929 -1.717 0.26
-10.92 -5.931 -1.706 0.27
-10.846 -5.913 -1.695 0.27
-10.767 -5.914 -1.684 0.27
-10.694 -5.918 -1.675 0.26
-10.619 -5.92 -1.665 0.27
-10.543 -5.921 -1.655 0.26
-10.466 -5.921 -1.645 0.2
-10.37 -5.91 -1.631 0.39
-10.278 -5.88 -1.617 0.25
-10.217 -5.887 -1.609 0.2
-10.149 -5.891 -1.6 0.15
-10.07 -5.888 -1.59 0.0
-11.104 -6.583 -1.78 0.14
-11.109 -6.633 -1.785 0.36
-11.098 -6.674 -1.786 0.23
-11.14 -6.723 -1.796 0.34
-11.093 -6.743 -1.791 0.43
-11.087 -6.787 -1.794 0.3
-11.027 -6.798 -1.787 0.35
-10.999 -6.828 -1.786 0.29
-10.954 -6.848 -1.782 0.38
-10.986 -6.916 -1.791 0.31
-10.975 -6.933 -1.791 0.41
-10.978 -6.984 -1.796 0.39
-10.958 -7.019 -1.796 0.23
-10.969 -7.075 -1.802 0.39
-10.964 -7.12 -1.805 0.48
-10.903 -7.13 -1.798 0.32
-10.851 -7.144 -1.793 0.39
-10.775 -7.119 -1.781 0.33
-10.712 -7.125 -1.773 0.27
-10.669 -7.146 -1.77 0.3
-10.649 -7.181 -1.77 0.27
-10.598 -7.195 -1.765 0.21
-10.587 -7.236 -1.767 0.39
-10.567 -7.272 -1.768 0.26
-10.595 -7.315 -1.775 0.41
-10.53 -7.319 -1.767 0.23
-10.518 -7.36 -1.769 0.22
-10.524 -7.413 -1.775 0.46
-10.438 -7.402 -1.763 0.33
-10.321 -7.368 -1.745 0.29
-10.267 -7.379 -1.739 0.27
-10.236 -7.405 -1.738 0.25
-10.189 -7.396 -1.731 0.28
-10.143 -7.412 -1.727 0.3
-10.031 -7.378 -1.71 0.29
-9.968 -7.38 -1.703 0.29
-9.964 -7.426 -1.706 0.29
-9.896 -7.424 -1.698 0.3
-9.827 -7.42 -1.689 0.28
-9.777 -7.407 -1.682 0.29
-9.711 -7.406 -1.673 0.29
-9.657 -7.412 -1.667 0.29
-9.599 -7.416 -1.661 0.3
-9.527 -7.408 -1.651 0.29
-9.477 -7.418 -1.646 0.32
-9.412 -7.414 -1.638 0.3
-9.329 -7.373 -1.624 0.29
-9.26 -7.367 -1.615 0.29
-9.2 -7.366 -1.608 0.21
-9.162 -7.383 -1.605 0.49
-9.094 -7.375 -1.596 0.2
-9.051 -7.388 -1.592 0.13
-8.991 -7.386 -1.585 0.0
-9.739 -8.075 -1.741 0.19
-9.685 -8.082 -1.735 0.36
-9.714 -8.158 -1.746 0.46
-9.635 -8.144 -1.735 0.31
-9.565 -8.136 -1.726 0.28
-9.555 -8.18 -1.73 0.52
-9.479 -8.166 -1.719 0.28
-9.439 -8.158 -1.714 0.38
-9.409 -8.184 -1.713 0.36
-9.355 -8.188 -1.707 0.36
-9.29 -8.184 -1.699 0.37
-9.242 -8.193 -1.695 0.35
-9.19 -8.199 -1.689 0.34
-9.111 -8.18 -1.678 0.28
-9.088 -8.185 -1.676 0.37
-9.025 -8.181 -1.669 0.31
-8.962 -8.174 -1.661 0.36
-8.911 -8.18 -1.656 0.26
-8.862 -8.186 -1.651 0.4
-8.797 -8.178 -1.643 0.35
-8.742 -8.178 -1.637 0.29
-8.705 -8.169 -1.631 0.37
-8.652 -8.171 -1.626 0.31
-8.595 -8.168 -1.619 0.32
-8.549 -8.176 -1.615 0.39
-8.493 -8.174 -1.608 0.31
-8.443 -8.177 -1.603 0.34
-8.386 -8.174 -1.597 0.39
-8.345 -8.159 -1.59 0.31
-8.3 -8.166 -1.586 0.32
-8.247 -8.166 -1.58 0.33
-8.196 -8.166 -1.575 0.34
-8.152 -8.174 -1.571 0.34
-8.096 -8.169 -1.564 0.32
-8.052 -8.176 -1.56 0.42
-8.006 -8.18 -1.556 0.34
-7.987 -8.187 -1.555 0.34
-7.949 -8.199 -1.552 0.3
-7.921 -8.221 -1.551 0.33
-7.915 -8.267 -1.556 0.24
-7.954 -8.359 -1.57 0.35
-7.937 -8.394 -1.572 0.36
-7.898 -8.406 -1.57 0.36
-7.889 -8.423 -1.57 0.36
-7.862 -8.448 -1.57 0.38
-7.828 -8.464 -1.569 0.35
-7.797 -8.484 -1.568 0.39
-7.761 -8.498 -1.566 0.33
-7.724 -8.511 -1.563 0.36
-7.685 -8.522 -1.56 0.38
-7.66 -8.521 -1.558 0.32
-7.618 -8.529 -1.554 0.41
-7.584 -8.544 -1.553 0.35
-7.553 -8.563 -1.552 0.37
-7.513 -8.572 -1.549 0.37
-7.475 -8.584 -1.546 0.43
-7.432 -8.588 -1.542 0.38
-7.423 -8.605 -1.544 0.32
-7.354 -8.579 -1.534 0.43
-7.306 -8.578 -1.529 0.34
-7.273 -8.593 -1.527 0.43
-7.249 -8.621 -1.528 0.33
-7.231 -8.654 -1.53 0.43
-7.194 -8.665 -1.528 0.37
-7.175 -8.698 -1.53 0.41
-7.121 -8.66 -1.52 0.41
-7.075 -8.66 -1.516 0.35
-7.048 -8.682 -1.516 0.44
-7.02 -8.703 -1.515 0.4
-6.994 -8.726 -1.516 0.41
-6.959 -8.739 -1.514 0.41
-6.93 -8.759 -1.514 0.34
-6.915 -8.768 -1.513 0.51
-6.886 -8.788 -1.513 0.31
-6.845 -8.793 -1.51 0.43
-6.832 -8.833 -1.513 0.36
-6.774 -8.815 -1.506 0.45
-6.75 -8.841 -1.507 0.35
-6.71 -8.847 -1.504 0.44
-6.706 -8.87 -1.506 0.34
-6.621 -8.815 -1.491 0.42
-6.62 -8.872 -1.498 0.35
-6.569 -8.861 -1.492 0.46
-6.527 -8.863 -1.489 0.32
-6.514 -8.904 -1.493 0.43
-6.463 -8.893 -1.487 0.38
-6.451 -8.906 -1.487 0.38
-6.413 -8.912 -1.484 0.39
-6.347 -8.879 -1.474 0.43
-6.322 -8.904 -1.475 0.3
-6.293 -8.922 -1.475 0.41
-6.277 -8.959 -1.478 0.45
-6.238 -8.963 -1.475 0.36
-6.194 -8.93 -1.467 0.43
-6.21 -9.013 -1.479 0.41
-6.168 -9.013 -1.476 0.39
-6.136 -9.026 -1.474 0.35
-6.118 -9.062 -1.477 0.51
-6.075 -9.059 -1.474 0.35
-6.016 -9.032 -1.465 0.41
-5.986 -9.017 -1.461 0.39
-5.983 -9.076 -1.468 0.35
-5.93 -9.056 -1.461 0.49
-5.915 -9.096 -1.465 0.31
-5.873 -9.093 -1.461 0.45
-5.837 -9.1 -1.459 0.41
-5.818 -9.133 -1.461 0.4
-5.779 -9.104 -1.454 0.4
-5.726 -9.084 -1.447 0.38
-5.714 -9.129 -1.452 0.34
-5.682 -9.141 -1.451 0.45
-5.653 -9.158 -1.451 0.36
-5.614 -9.16 -1.448 0.43
-5.59 -9.185 -1.45 0.4
-5.58 -9.234 -1.455 0.36
-5.547 -9.212 -1.45 0.47
-5.512 -9.22 -1.448 0.31
-5.468 -9.211 -1.444 0.45
-5.429 -9.212 -1.441 0.4
-5.399 -9.227 -1.44 0.41
-5.37 -9.244 -1.44 0.22
-5.322 -9.228 -1.434 0.52
-5.341 -9.295 -1.445 0.27
-5.268 -9.234 -1.431 0.55
-5.247 -9.265 -1.434 0.42
-5.222 -9.29 -1.435 0.37
-5.197 -9.313 -1.436 0.39
-5.128 -9.258 -1.424 0.38
-5.13 -9.33 -1.434 0.4
-5.12 -9.346 -1.435 0.33
-5.072 -9.328 -1.429 0.47
-5.046 -9.351 -1.43 0.3
-5.019 -9.372 -1.431 0.45
-4.973 -9.356 -1.426 0.39
-4.862 -9.218 -1.399 0.35
-4.897 -9.354 -1.42 0.52
-4.782 -9.206 -1.392 0.17
-4.87 -9.41 -1.426 0.55
-4.83 -9.404 -1.422 0.31
-4.794 -9.407 -1.42 0.47
-4.739 -9.373 -1.411 0.34
-4.708 -9.384 -1.411 0.38
-4.676 -9.395 -1.41 0.43
-4.657 -9.429 -1.414 0.43
-4.661 -9.476 -1.42 0.3
-4.597 -9.421 -1.408 0.42
-4.579 -9.459 -1.412 0.44
-4.521 -9.414 -1.402 0.32
-4.533 -9.516 -1.417 0.44
-4.469 -9.458 -1.405 0.34
-4.46 -9.515 -1.412 0.43
-4.436 -9.504 -1.409 0.31
-4.413 -9.533 -1.412 0.38
-4.363 -9.503 -1.404 0.41
-4.295 -9.433 -1.39 0.37
-4.31 -9.545 -1.407 0.32
-4.244 -9.479 -1.394 0.41
-4.231 -9.529 -1.4 0.36
-4.206 -9.514 -1.396 0.37
-4.193 -9.565 -1.402 0.37
-4.151 -9.551 -1.398 0.45
-4.122 -9.567 -1.398 0.36
-4.072 -9.533 -1.391 0.35
-4.054 -9.575 -1.395 0.46
-4.048 -9.644 -1.405 0.29
-4.046 -9.681 -1.41 0.47
-3.982 -9.614 -1.397 0.38
-3.97 -9.67 -1.404 0.39
-3.938 -9.679 -1.403 0.29
-3.887 -9.64 -1.395 0.42
-3.871 -9.687 -1.401 0.34
-3.833 -9.681 -1.398 0.46
-3.794 -9.626 -1.388 0.4
-3.752 -9.61 -1.383 0.34
-3.732 -9.646 -1.387 0.39
-3.688 -9.623 -1.381 0.38
-3.666 -9.656 -1.385 0.38
-3.647 -9.697 -1.39 0.33
-3.613 -9.699 -1.388 0.42
-3.591 -9.735 -1.392 0.36
-3.565 -9.711 -1.387 0.51
-3.462 -9.523 -1.355 0.33
-3.495 -9.709 -1.383 0.33
-3.477 -9.755 -1.389 0.38
-3.43 -9.719 -1.381 0.38
-3.393 -9.712 -1.378 0.41
-3.368 -9.739 -1.381 0.38
-3.36 -9.765 -1.384 0.45
-3.328 -9.772 -1.384 0.27
-3.253 -9.651 -1.363 0.54
-3.256 -9.76 -1.379 0.38
-3.23 -9.784 -1.381 0.38
-3.19 -9.768 -1.377 0.37
-3.154 -9.759 -1.374 0.42
-3.142 -9.775 -1.375 0.38
-3.1 -9.749 -1.37 0.38
-3.088 -9.817 -1.379 0.33
-3.055 -9.821 -1.378 0.46
-3.026 -9.838 -1.379 0.32
-2.989 -9.825 -1.376 0.39
-2.948 -9.802 -1.371 0.39
-2.939 -9.828 -1.374 0.4
-2.906 -9.829 -1.373 0.41
-2.875 -9.838 -1.373 0.42
-2.855 -9.887 -1.379 0.3
-2.818 -9.873 -1.375 0.46
-2.765 -9.806 -1.363 0.34
-2.739 -9.832 -1.366 0.43
-2.736 -9.88 -1.373 0.31
-2.693 -9.846 -1.366 0.38
-2.659 -9.842 -1.364 0.48
-2.627 -9.846 -1.364 0.34
-2.592 -9.839 -1.361 0.38
-2.559 -9.841 -1.36 0.42
-2.532 -9.863 -1.362 0.42
-2.502 -9.874 -1.363 0.37
-2.473 -9.827 -1.355 0.38
-2.416 -9.731 -1.338 0.43
-2.406 -9.821 -1.351 0.34
-2.373 -9.819 -1.35 0.45
-2.345 -9.838 -1.352 0.35
-2.318 -9.86 -1.354 0.39
-2.272 -9.806 -1.344 0.45
-2.258 -9.813 -1.345 0.35
-2.227 -9.822 -1.345 0.38
-2.206 -9.872 -1.352 0.32
-2.178 -9.894 -1.354 0.44
-2.135 -9.845 -1.346 0.34
-2.106 -9.859 -1.347 0.44
-2.074 -9.864 -1.347 0.34
-2.065 -9.894 -1.351 0.48
-2.033 -9.897 -1.35 0.3
-2.003 -9.913 -1.352 0.44
-1.969 -9.902 -1.349 0.41
-1.939 -9.914 -1.35 0.23
-1.897 -9.867 -1.342 0.52
-1.878 -9.933 -1.351 0.3
-1.857 -9.905 -1.346 0.48
-1.83 -9.938 -1.351 0.25
-1.802 -9.957 -1.353 0.52
-1.772 -9.971 -1.354 0.32
-1.73 -9.916 -1.344 0.53
-1.697 -9.914 -1.343 0.25
-1.668 -9.931 -1.345 0.48
-1.616 -9.719 -1.312 0.34
-1.591 -9.755 -1.317 0.33
-1.57 -9.819 -1.326 0.42
-1.552 -9.903 -1.338 0.41
-1.516 -9.877 -1.333 0.35
-1.493 -9.938 -1.342 0.38
-1.464 -9.959 -1.344 0.38
-1.455 -10.004 -1.351 0.35
-1.416 -9.952 -1.342 0.4
-1.386 -9.966 -1.344 0.47
-1.346 -9.91 -1.335 0.41
-1.312 -9.894 -1.331 0.37
-1.28 -9.89 -1.33 0.45
-1.251 -9.908 -1.332 0.34
-1.239 -9.941 -1.337 0.43
-1.195 -9.841 -1.321 0.32
-1.17 -9.894 -1.329 0.45
-1.137 -9.878 -1.326 0.31
-1.111 -9.929 -1.333 0.32
-1.076 -9.899 -1.328 0.45
-1.041 -9.865 -1.322 0.41
-1.025 -10.008 -1.344 0.38
-1.001 -9.93 -1.331 0.35
-0.971 -9.945 -1.333 0.43
-0.948 -10.041 -1.348 0.34
-0.915 -10.028 -1.345 0.43
-0.88 -9.986 -1.338 0.37
-0.856 -10.073 -1.351 0.33
-0.824 -10.076 -1.351 0.46
-0.798 -9.955 -1.332 0.3
-0.777 -10.077 -1.351 0.44
-0.741 -10.033 -1.344 0.36
-0.709 -10.025 -1.342 0.39
-0.682 -10.096 -1.353 0.34
-0.649 -10.071 -1.348 0.48
-0.62 -10.112 -1.354 0.32
-0.604 -10.119 -1.355 0.43
-0.572 -10.121 -1.355 0.45
-0.538 -10.085 -1.35 0.37
-0.508 -10.104 -1.352 0.39
-0.475 -10.084 -1.349 0.41
-0.445 -10.135 -1.357 0.36
-0.415 -10.168 -1.361 0.43
-0.397 -10.127 -1.355 0.38
-0.364 -10.091 -1.349 0.41
-0.33 -10.035 -1.341 0.38
-0.294 -9.897 -1.319 0.41
-0.269 -10.082 -1.348 0.38
-0.237 -10.085 -1.348 0.45
-0.206 -10.127 -1.354 0.31
-0.188 -10.034 -1.34 0.44
-0.156 -10.011 -1.336 0.45
-0.125 -10.047 -1.342 0.3
-0.094 -10.063 -1.344 0.52
-0.061 -9.945 -1.326 0.23
-0.031 -10.087 -1.348 0.34
0.001 -10.103 -1.35 0.54
0.017 -10.093 -1.349 0.31
0.048 -10.097 -1.349 0.45
0.079 -9.945 -1.326 0.27
0.112 -10.146 -1.357 0.37
0.144 -10.124 -1.354 0.41
0.176 -10.133 -1.355 0.44
0.208 -10.159 -1.359 0.39
0.239 -10.103 -1.351 0.36
0.253 -10.045 -1.342 0.44
0.285 -10.052 -1.343 0.34
0.315 -9.988 -1.333 0.35
0.347 -10.014 -1.338 0.29
0.381 -10.068 -1.346 0.43
0.41 -10.02 -1.339 0.38
0.437 -9.902 -1.321 0.37
0.459 -10.051 -1.344 0.32
0.493 -10.093 -1.351 0.41
0.522 -10.054 -1.345 0.31
0.551 -9.987 -1.335 0.38
0.59 -10.126 -1.356 0.45
0.618 -10.055 -1.346 0.32
0.648 -10.037 -1.343 0.41
0.664 -10.032 -1.343 0.36
0.695 -10.03 -1.343 0.41
0.73 -10.069 -1.349 0.36
0.762 -10.075 -1.35 0.43
0.787 -9.993 -1.338 0.35
0.828 -10.101 -1.355 0.38
0.855 -10.051 -1.348 0.38
0.869 -10.03 -1.345 0.33
0.903 -10.053 -1.349 0.48
0.93 -9.999 -1.341 0.34
0.946 -9.831 -1.315 0.43
0.99 -9.957 -1.335 0.34
1.031 -10.055 -1.351 0.37
1.053 -9.959 -1.337 0.48
1.056 -9.841 -1.319 0.3
1.111 -10.058 -1.353 0.4
1.136 -9.996 -1.344 0.32
1.166 -9.982 -1.342 0.42
1.195 -9.957 -1.339 0.35
1.232 -10.002 -1.346 0.43
1.257 -9.939 -1.337 0.33
1.277 -9.976 -1.343 0.38
1.311 -9.99 -1.346 0.41
1.34 -9.974 -1.344 0.32
1.365 -9.921 -1.337 0.39
1.396 -9.917 -1.337 0.45
1.432 -9.941 -1.341 0.38
1.441 -9.788 -1.318 0.41
1.482 -9.848 -1.328 0.38
1.497 -9.846 -1.328 0.26
1.512 -9.734 -1.311 0.48
1.567 -9.889 -1.336 0.41
1.592 -9.843 -1.33 0.34
1.631 -9.889 -1.338 0.33
1.653 -9.827 -1.329 0.37
1.658 -9.674 -1.306 0.45
1.683 -9.724 -1.314 0.33
1.717 -9.74 -1.318 0.32
1.737 -9.676 -1.308 0.37
1.796 -9.83 -1.333 0.37
1.815 -9.76 -1.323 0.41
1.85 -9.774 -1.326 0.36
1.865 -9.769 -1.326 0.34
1.89 -9.734 -1.321 0.41
1.92 -9.726 -1.321 0.38
1.933 -9.633 -1.308 0.38
1.99 -9.756 -1.328 0.39
2.01 -9.698 -1.32 0.34
2.047 -9.724 -1.325 0.44
2.065 -9.658 -1.315 0.38
2.07 -9.61 -1.308 0.39
2.108 -9.638 -1.314 0.34
2.14 -9.641 -1.315 0.34
2.168 -9.621 -1.313 0.46
2.21 -9.668 -1.322 0.28
2.233 -9.626 -1.316 0.48
2.263 -9.619 -1.316 0.4
2.274 -9.6 -1.314 0.31
2.314 -9.634 -1.32 0.42
2.349 -9.646 -1.323 0.34
2.38 -9.64 -1.324 0.38
2.403 -9.606 -1.319 0.41
2.431 -9.588 -1.318 0.36
2.46 -9.575 -1.317 0.37
2.482 -9.6 -1.321 0.41
2.5 -9.544 -1.314 0.43
2.529 -9.532 -1.313 0.36
2.562 -9.538 -1.315 0.45
2.579 -9.482 -1.308 0.38
2.625 -9.533 -1.317 0.27
2.665 -9.559 -1.323 0.46
2.666 -9.505 -1.315 0.33
2.708 -9.541 -1.322 0.38
2.74 -9.538 -1.323 0.38
2.768 -9.523 -1.322 0.37
2.794 -9.501 -1.32 0.43
2.817 -9.47 -1.316 0.39
2.837 -9.427 -1.311 0.34
2.891 -9.501 -1.324 0.45
2.839 -9.275 -1.288 0.36
2.916 -9.423 -1.314 0.39
2.951 -9.431 -1.316 0.29
2.993 -9.459 -1.322 0.46
3.018 -9.437 -1.32 0.42
3.048 -9.427 -1.32 0.36
3.056 -9.352 -1.31 0.45
3.069 -9.341 -1.309 0.33
3.116 -9.384 -1.317 0.27
3.14 -9.359 -1.315 0.39
3.174 -9.363 -1.317 0.46
3.182 -9.291 -1.307 0.35
3.21 -9.275 -1.306 0.34
3.269 -9.351 -1.32 0.45
3.26 -9.279 -1.309 0.31
3.313 -9.337 -1.32 0.45
3.332 -9.297 -1.315 0.36
3.377 -9.329 -1.322 0.38
3.393 -9.283 -1.317 0.4
3.389 -9.182 -1.302 0.38
3.436 -9.221 -1.31 0.4
3.464 -9.253 -1.316 0.38
3.489 -9.229 -1.314 0.36
3.518 -9.22 -1.314 0.42
3.568 -9.264 -1.323 0.32
3.595 -9.247 -1.322 0.46
3.595 -9.16 -1.31 0.34
3.636 -9.18 -1.315 0.38
3.64 -9.147 -1.311 0.41
3.668 -9.134 -1.31 0.3
3.681 -9.083 -1.304 0.5
3.707 -9.066 -1.303 0.34
3.715 -9.003 -1.295 0.38
3.761 -9.036 -1.302 0.44
3.814 -9.082 -1.311 0.3
3.845 -9.118 -1.318 0.45
3.836 -9.015 -1.303 0.38
3.889 -9.063 -1.313 0.42
3.919 -9.054 -1.314 0.42
3.946 -9.036 -1.313 0.37
3.982 -9.042 -1.316 0.3
3.983 -8.968 -1.306 0.48
4.05 -9.081 -1.326 0.31
4.035 -8.971 -1.309 0.46
4.061 -8.953 -1.308 0.34
4.143 -9.059 -1.328 0.43
4.149 -8.997 -1.32 0.4
4.19 -9.011 -1.325 0.37
4.185 -8.926 -1.313 0.37
4.202 -8.927 -1.314 0.32
4.235 -8.924 -1.316 0.48
4.28 -8.946 -1.322 0.24
4.296 -8.908 -1.318 0.54
4.304 -8.854 -1.311 0.37
4.343 -8.863 -1.315 0.34
4.363 -8.833 -1.312 0.44
4.375 -8.823 -1.311 0.34
4.424 -8.852 -1.318 0.32
4.458 -8.85 -1.321 0.47
4.48 -8.824 -1.318 0.28
4.478 -8.751 -1.308 0.46
4.486 -8.699 -1.302 0.35
4.575 -8.806 -1.323 0.33
4.61 -8.805 -1.325 0.38
4.608 -8.766 -1.32 0.46
4.643 -8.766 -1.322 0.3
4.658 -8.729 -1.318 0.48
4.696 -8.733 -1.321 0.29
4.71 -8.694 -1.317 0.5
4.69 -8.592 -1.302 0.23
4.773 -8.68 -1.32 0.43
4.789 -8.676 -1.321 0.45
4.848 -8.72 -1.331 0.31
4.86 -8.677 -1.326 0.43
4.868 -8.627 -1.32 0.39
4.892 -8.606 -1.319 0.39
4.975 -8.689 -1.336 0.41
5.004 -8.677 -1.337 0.38
5.013 -8.66 -1.335 0.42
5.043 -8.65 -1.336 0.39
5.091 -8.669 -1.343 0.33
5.139 -8.688 -1.349 0.44
5.145 -8.636 -1.342 0.35
5.193 -8.655 -1.349 0.43
5.229 -8.654 -1.351 0.38
5.232 -8.627 -1.348 0.43
5.276 -8.639 -1.353 0.3
5.295 -8.609 -1.351 0.54
5.34 -8.621 -1.356 0.27
5.346 -8.571 -1.35 0.52
5.405 -8.606 -1.359 0.27
5.413 -8.559 -1.354 0.48
5.441 -8.572 -1.358 0.42
5.482 -8.578 -1.362 0.29
5.489 -8.529 -1.356 0.5
5.542 -8.552 -1.364 0.37
5.563 -8.526 -1.362 0.42
5.598 -8.522 -1.364 0.34
5.589 -8.45 -1.354 0.42
5.641 -8.47 -1.361 0.39
5.675 -8.492 -1.367 0.38
5.695 -8.465 -1.365 0.4
5.706 -8.424 -1.361 0.46
5.798 -8.502 -1.379 0.34
5.827 -8.487 -1.38 0.3
5.857 -8.474 -1.381 0.46
5.891 -8.467 -1.383 0.42
5.918 -8.477 -1.386 0.34
5.936 -8.446 -1.384 0.34
5.959 -8.422 -1.383 0.43
5.994 -8.416 -1.385 0.34
6.04 -8.425 -1.391 0.37
6.066 -8.404 -1.39 0.47
6.053 -8.359 -1.384 0.3
6.094 -8.359 -1.387 0.41
6.135 -8.361 -1.391 0.43
6.134 -8.305 -1.384 0.4
6.153 -8.276 -1.382 0.27
6.179 -8.257 -1.382 0.37
6.208 -8.24 -1.383 0.29
6.243 -8.233 -1.385 0.35
6.271 -8.244 -1.389 0.3
6.306 -8.235 -1.391 0.37
6.342 -8.23 -1.394 0.34
6.385 -8.232 -1.398 0.34
6.429 -8.235 -1.403 0.32
6.467 -8.23 -1.406 0.33
6.506 -8.227 -1.409 0.31
6.539 -8.242 -1.414 0.39
6.572 -8.23 -1.416 0.32
6.616 -8.233 -1.421 0.32
6.658 -8.232 -1.424 0.33
6.699 -8.229 -1.428 0.33
6.746 -8.234 -1.433 0.35
6.787 -8.232 -1.437 0.31
6.818 -8.242 -1.441 0.39
6.862 -8.244 -1.446 0.31
6.901 -8.237 -1.449 0.39
6.948 -8.241 -1.454 0.33
6.988 -8.236 -1.457 0.35
7.035 -8.238 -1.462 0.34
7.074 -8.232 -1.465 0.37
7.104 -8.241 -1.469 0.34
7.147 -8.238 -1.473 0.3
7.199 -8.245 -1.479 0.45
7.209 -8.205 -1.476 0.22
7.278 -8.231 -1.486 0.41
7.296 -8.199 -1.484 0.28
7.332 -8.188 -1.486 0.3
7.342 -8.174 -1.486 0.27
7.395 -8.181 -1.492 0.39
7.434 -8.173 -1.495 0.22
7.5 -8.193 -1.504 0.36
7.5 -8.142 -1.498 0.32
7.522 -8.114 -1.497 0.32
7.578 -8.124 -1.504 0.36
7.568 -8.087 -1.499 0.25
7.637 -8.109 -1.509 0.41
7.659 -8.083 -1.508 0.26
7.701 -8.076 -1.512 0.48
7.58 -7.898 -1.48 0.0
7.328 -7.587 -1.418 0.0
7.246 -7.454 -1.395 0.0
7.264 -7.449 -1.396 0.0
7.323 -7.462 -1.404 0.0
7.352 -7.445 -1.405 0.09
7.39 -7.437 -1.409 0.12
7.442 -7.442 -1.415 0.35
7.483 -7.437 -1.419 0.24
7.522 -7.429 -1.422 0.19
7.587 -7.447 -1.431 0.4
7.636 -7.471 -1.439 0.25
7.683 -7.47 -1.444 0.27
7.735 -7.474 -1.45 0.27
7.783 -7.473 -1.455 0.25
7.819 -7.46 -1.458 0.18
7.887 -7.478 -1.467 0.43
7.917 -7.46 -1.469 0.24
7.961 -7.477 -1.476 0.26
8.009 -7.475 -1.481 0.27
8.058 -7.474 -1.486 0.26
8.105 -7.471 -1.491 0.26
8.156 -7.471 -1.497 0.27
8.204 -7.468 -1.502 0.24
8.242 -7.455 -1.505 0.16
8.252 -7.441 -1.505 0.52
8.264 -7.404 -1.502 0.29
8.289 -7.38 -1.503 0.29
8.359 -7.396 -1.512 0.25
8.407 -7.391 -1.517 0.24
8.654 -7.561 -1.563 0.26
8.737 -7.561 -1.573 0.57
8.698 -7.48 -1.56 0.35
8.771 -7.495 -1.57 0.45
8.662 -7.354 -1.543 0.31
8.698 -7.338 -1.546 0.29
8.749 -7.334 -1.551 0.39
8.8 -7.331 -1.557 0.27
8.818 -7.322 -1.558 0.31
8.824 -7.28 -1.555 0.25
8.82 -7.23 -1.55 0.33
8.813 -7.178 -1.544 0.3
8.843 -7.157 -1.545 0.29
8.84 -7.108 -1.54 0.23
8.816 -7.043 -1.531 0.39
8.876 -7.069 -1.541 0.3
8.887 -7.032 -1.539 0.38
8.931 -7.021 -1.543 0.34
8.865 -6.924 -1.526 0.21
8.972 -6.963 -1.542 0.42
9.041 -6.971 -1.551 0.31
9.083 -6.958 -1.555 0.29
9.089 -6.94 -1.554 0.27
8.94 -6.781 -1.521 0.28
9.062 -6.829 -1.541 0.27
9.197 -6.886 -1.563 0.43
9.179 -6.828 -1.555 0.27
9.207 -6.803 -1.556 0.27
9.179 -6.738 -1.547 0.42
9.248 -6.744 -1.556 0.34
9.281 -6.746 -1.56 0.28
9.226 -6.662 -1.546 0.4
9.302 -6.673 -1.556 0.25
9.355 -6.666 -1.562 0.4
9.368 -6.631 -1.561 0.32
9.46 -6.652 -1.574 0.0
8.521 -5.969 -1.396 0.13
8.572 -5.965 -1.402 0.25
8.611 -5.951 -1.406 0.21
8.675 -5.956 -1.414 0.26
8.733 -5.955 -1.422 0.27
8.784 -5.95 -1.428 0.28
8.852 -5.956 -1.437 0.27
8.936 -5.972 -1.449 0.28
8.983 -5.983 -1.456 0.27
9.045 -5.983 -1.464 0.28
9.105 -5.982 -1.471 0.28
9.161 -5.979 -1.478 0.28
9.227 -5.98 -1.487 0.29
9.283 -5.976 -1.494 0.28
9.362 -5.985 -1.505 0.26
9.408 -5.994 -1.511 0.27
9.455 -5.982 -1.517 0.3
9.504 -5.971 -1.522 0.27
9.546 -5.956 -1.526 0.22
9.636 -5.928 -1.536 0.59
9.637 -5.888 -1.533 0.2
9.628 -5.861 -1.529 0.38
9.645 -5.83 -1.529 0.25
9.704 -5.824 -1.536 0.21
9.752 -5.812 -1.542 0.38
9.776 -5.784 -1.543 0.3
9.813 -5.764 -1.546 0.27
9.834 -5.736 -1.547 0.27
9.799 -5.694 -1.539 0.18
9.565 -5.518 -1.494 0.27
9.562 -5.476 -1.491 0.5
9.857 -5.605 -1.54 0.22
9.618 -5.428 -1.494 0.27
9.723 -5.447 -1.51 0.35
9.74 -5.417 -1.51 0.32
9.887 -5.479 -1.534 0.25
9.949 -5.472 -1.542 0.39
9.8 -5.35 -1.513 0.39
9.86 -5.343 -1.52 0.29
9.931 -5.341 -1.53 0.37
9.974 -5.324 -1.534 0.3
9.976 -5.285 -1.532 0.4
9.993 -5.253 -1.532 0.38
9.835 -5.15 -1.503 0.31
10.054 -5.225 -1.538 0.45
9.999 -5.156 -1.526 0.34
10.031 -5.133 -1.529 0.36
10.052 -5.104 -1.53 0.39
10.093 -5.085 -1.534 0.41
10.114 -5.056 -1.535 0.38
10.162 -5.061 -1.542 0.41
10.15 -5.015 -1.537 0.32
10.182 -4.991 -1.54 0.3
10.235 -4.977 -1.546 0.5
10.232 -4.936 -1.543 0.27
10.307 -4.932 -1.553 0.28
10.318 -4.898 -1.552 0.41
10.362 -4.899 -1.558 0.39
10.515 -4.931 -1.582 0.33
10.398 -4.836 -1.559 0.36
10.4 -4.798 -1.557 0.0
9.746 -4.457 -1.444 0.0
9.776 -4.433 -1.447 0.05
9.84 -4.425 -1.455 0.17
9.923 -4.444 -1.468 0.24
10.029 -4.454 -1.484 0.27
10.144 -4.467 -1.5 0.32
10.223 -4.464 -1.511 0.32
10.309 -4.464 -1.524 0.29
10.383 -4.457 -1.534 0.27
10.475 -4.458 -1.547 0.26
10.546 -4.469 -1.557 0.27
10.607 -4.455 -1.565 0.21
10.654 -4.436 -1.57 0.38
10.69 -4.411 -1.574 0.23
10.687 -4.371 -1.571 0.26
10.781 -4.37 -1.585 0.25
10.722 -4.307 -1.573 0.32
10.868 -4.346 -1.596 0.26
10.87 -4.307 -1.594 0.32
10.913 -4.285 -1.599 0.38
10.868 -4.228 -1.589 0.29
10.818 -4.169 -1.579 0.3
10.959 -4.184 -1.6 0.35
11.009 -4.164 -1.606 0.32
10.995 -4.139 -1.602 0.31
11.019 -4.108 -1.604 0.33
11.034 -4.074 -1.604 0.28
11.052 -4.042 -1.605 0.28
11.081 -4.013 -1.608 0.27
11.094 -3.978 -1.608 0.3
11.105 -3.943 -1.608 0.28
11.134 -3.914 -1.61 0.25
11.186 -3.913 -1.618 0.35
11.174 -3.869 -1.614 0.28
11.248 -3.855 -1.624 0.27
11.232 -3.81 -1.62 0.42
11.255 -3.779 -1.621 0.3
11.363 -3.775 -1.637 0.34
11.315 -3.72 -1.627 0.38
11.335 -3.707 -1.63 0.29
11.328 -3.665 -1.627 0.3
11.358 -3.636 -1.63 0.31
11.349 -3.593 -1.626 0.33
11.366 -3.559 -1.627 0.37
11.351 -3.515 -1.623 0.32
11.369 -3.482 -1.624 0.35
11.346 -3.455 -1.62 0.25
11.334 -3.413 -1.616 0.35
11.349 -3.378 -1.617 0.51
11.335 -3.335 -1.613 0.3
11.531 -3.354 -1.642 0.0
11.215 -3.223 -1.59 0.05
10.366 -2.942 -1.453 0.14
10.451 -2.949 -1.466 0.26
10.564 -2.945 -1.483 0.28
10.779 -2.969 -1.515 0.32
10.909 -2.968 -1.534 0.32
11.032 -2.965 -1.553 0.3
11.164 -2.963 -1.572 0.31
11.06 -2.898 -1.554 0.32
11.067 -2.881 -1.554 0.26
11.122 -2.858 -1.562 0.23
11.251 -2.854 -1.581 0.47
11.295 -2.828 -1.586 0.23
11.302 -2.792 -1.586 0.2
11.403 -2.779 -1.6 0.49
11.455 -2.754 -1.607 0.31
11.354 -2.71 -1.591 0.27
11.403 -2.684 -1.597 0.42
11.469 -2.662 -1.606 0.23
11.352 -2.597 -1.587 0.23
11.258 -2.538 -1.57 0.56
11.281 -2.506 -1.573 0.26
11.276 -2.468 -1.571 0.29
11.123 -2.397 -1.546 0.3
11.183 -2.392 -1.554 0.47
11.175 -2.354 -1.552 0.31
11.211 -2.324 -1.557 0.36
11.226 -2.291 -1.558 0.32
11.249 -2.259 -1.56 0.29
11.19 -2.21 -1.55 0.36
11.193 -2.174 -1.549 0.43
11.138 -2.145 -1.54 0.32
11.131 -2.108 -1.538 0.32
11.202 -2.085 -1.548 0.3
11.181 -2.045 -1.544 0.4
11.121 -1.997 -1.534 0.23
11.116 -1.96 -1.532 0.52
11.056 -1.914 -1.521 0.34
11.045 -1.894 -1.519 0.31
11.047 -1.859 -1.519 0.28
11.059 -1.825 -1.52 0.3
11.065 -1.79 -1.52 0.27
11.193 -1.775 -1.539 0.2
11.273 -1.752 -1.55 0.43
11.452 -1.743 -1.577 0.31
11.594 -1.746 -1.599 0.36
11.56 -1.704 -1.593 0.43
11.71 -1.689 -1.615 0.4
11.702 -1.65 -1.613 0.29
11.814 -1.629 -1.63 0.51
11.866 -1.598 -1.637 0.46
11.815 -1.553 -1.628 0.33
11.819 -1.535 -1.628 0.33
11.81 -1.496 -1.626 0.3
11.811 -1.458 -1.626 0.3
11.813 -1.421 -1.625 0.35
11.814 -1.383 -1.625 0.32
11.796 -1.344 -1.621 0.27
11.816 -1.308 -1.624 0.33
11.803 -1.288 -1.621 0.31
11.805 -1.251 -1.621 0.3
11.82 -1.215 -1.623 0.34
11.82 -1.177 -1.622 0.3
11.828 -1.141 -1.623 0.29
11.825 -1.103 -1.622 0.3
11.843 -1.067 -1.624 0.3
11.844 -1.048 -1.624 0.29
11.843 -1.011 -1.623 0.31
11.847 -0.974 -1.623 0.27
11.848 -0.936 -1.623 0.27
11.852 -0.899 -1.623 0.29
11.857 -0.862 -1.624 0.27
11.872 -0.826 -1.626 0.26
11.869 -0.807 -1.625 0.26
11.875 -0.77 -1.626 0.28
11.872 -0.732 -1.625 0.29
11.886 -0.695 -1.627 0.27
11.886 -0.658 -1.626 0.26
11.88 -0.62 -1.625 0.29
11.882 -0.583 -1.625 0.28
11.883 -0.564 -1.625 0.29
11.899 -0.528 -1.627 0.25
11.892 -0.49 -1.626 0.29
11.894 -0.452 -1.626 0.29
11.897 -0.415 -1.626 0.29
11.892 -0.378 -1.625 0.29
11.886 -0.34 -1.624 0.3
11.883 -0.302 -1.623 0.28
11.879 -0.284 -1.623 0.28
11.88 -0.246 -1.623 0.32
11.875 -0.209 -1.622 0.28
11.885 -0.172 -1.623 0.33
11.876 -0.134 -1.622 0.31
11.884 -0.097 -1.623 0.31
11.88 -0.06 -1.623 0.3
11.861 -0.041 -1.62 0.28
11.871 -0.004 -1.621 0.33
10.942 0.022 -1.612 0.26
10.932 0.057 -1.611 0.26
10.928 0.091 -1.61 0.17
10.941 0.126 -1.612 0.29
10.923 0.143 -1.609 0.25
10.923 0.177 -1.609 0.27
10.918 0.211 -1.609 0.27
10.902 0.245 -1.606 0.17
10.92 0.28 -1.609 0.29
10.916 0.314 -1.609 0.25
10.903 0.348 -1.607 0.2
10.929 0.383 -1.611 0.26
10.923 0.4 -1.61 0.18
10.935 0.435 -1.613 0.25
10.926 0.469 -1.611 0.18
10.948 0.504 -1.615 0.24
10.944 0.539 -1.615 0.18
10.958 0.574 -1.617 0.23
10.957 0.608 -1.617 0.19
10.963 0.626 -1.619 0.12
10.946 0.66 -1.616 0.19
10.959 0.695 -1.619 0.11
10.973 0.73 -1.621 0.18
10.965 0.764 -1.62 0.22
10.964 0.799 -1.62 0.19
10.964 0.834 -1.621 0.22
10.948 0.85 -1.619 0.18
10.952 0.885 -1.619 0.23
10.959 0.92 -1.621 0.2
10.956 0.954 -1.621 0.22
10.929 0.987 -1.617 0.18
10.94 1.022 -1.619 0.23
10.923 1.055 -1.617 0.2
10.929 1.073 -1.619 0.25
10.916 1.106 -1.617 0.23
10.912 1.141 -1.617 0.18
10.914 1.176 -1.618 0.26
10.897 1.208 -1.616 0.23
10.875 1.241 -1.613 0.19
10.875 1.275 -1.614 0.27
10.875 1.293 -1.614 0.25
10.857 1.325 -1.612 0.2
10.861 1.36 -1.613 0.28
10.851 1.393 -1.612 0.25
10.846 1.428 -1.612 0.27
10.844 1.462 -1.612 0.25
10.849 1.497 -1.614 0.26
10.825 1.529 -1.611 0.19
10.836 1.548 -1.613 0.29
10.817 1.58 -1.611 0.24
10.818 1.614 -1.612 0.27
10.811 1.648 -1.611 0.27
10.8 1.681 -1.61 0.25
10.804 1.717 -1.612 0.27
10.795 1.75 -1.611 0.28
10.794 1.767 -1.612 0.27
10.785 1.8 -1.611 0.26
10.783 1.835 -1.612 0.27
10.771 1.868 -1.611 0.25
10.785 1.905 -1.614 0.25
10.753 1.934 -1.61 0.18
10.763 1.971 -1.612 0.29
10.748 1.986 -1.61 0.25
10.751 2.021 -1.612 0.27
10.741 2.054 -1.611 0.27
10.739 2.089 -1.612 0.27
10.716 2.119 -1.609 0.16
10.727 2.157 -1.612 0.3
10.709 2.188 -1.61 0.25
10.707 2.205 -1.611 0.27
10.702 2.239 -1.611 0.28
10.685 2.271 -1.609 0.28
10.692 2.307 -1.612 0.29
10.669 2.337 -1.609 0.29
10.667 2.372 -1.61 0.27
10.656 2.405 -1.609 0.27
10.652 2.422 -1.609 0.28
10.639 2.454 -1.609 0.28
10.645 2.49 -1.611 0.29
10.642 2.525 -1.612 0.27
10.638 2.559 -1.612 0.27
10.623 2.591 -1.611 0.28
10.616 2.625 -1.611 0.29
10.608 2.641 -1.611 0.31
10.594 2.672 -1.61 0.29
10.597 2.709 -1.612 0.25
10.575 2.738 -1.609 0.29
10.565 2.771 -1.609 0.3
10.575 2.809 -1.612 0.26
10.557 2.84 -1.611 0.27
10.557 2.876 -1.612 0.27
10.553 2.892 -1.612 0.27
10.538 2.924 -1.611 0.3
10.529 2.957 -1.611 0.28
10.517 2.99 -1.611 0.29
10.515 3.025 -1.612 0.28
10.491 3.053 -1.61 0.28
10.494 3.09 -1.612 0.29
10.484 3.105 -1.611 0.28
10.489 3.142 -1.614 0.27
10.475 3.174 -1.613 0.3
10.467 3.208 -1.613 0.28
10.457 3.241 -1.613 0.28
10.454 3.276 -1.614 0.29
10.469 3.316 -1.619 0.25
10.435 3.324 -1.614 0.3
10.436 3.36 -1.616 0.27
10.423 3.392 -1.615 0.27
10.405 3.423 -1.614 0.26
10.398 3.457 -1.615 0.27
10.391 3.49 -1.615 0.27
10.384 3.524 -1.616 0.26
10.38 3.541 -1.616 0.26
10.365 3.573 -1.616 0.29
10.354 3.605 -1.616 0.28
10.35 3.64 -1.617 0.26
10.324 3.668 -1.614 0.27
10.308 3.699 -1.614 0.27
10.311 3.736 -1.616 0.29
10.302 3.751 -1.616 0.28
10.277 3.779 -1.614 0.27
10.278 3.816 -1.616 0.28
10.259 3.845 -1.614 0.27
10.247 3.878 -1.614 0.28
10.231 3.908 -1.614 0.28
10.222 3.942 -1.614 0.29
10.212 3.956 -1.614 0.29
10.19 3.985 -1.612 0.28
10.189 4.021 -1.614 0.27
10.167 4.05 -1.613 0.29
10.165 4.086 -1.614 0.26
10.141 4.113 -1.613 0.2
10.114 4.139 -1.61 0.35
10.09 4.166 -1.608 0.3
10.089 4.185 -1.609 0.34
10.075 4.216 -1.609 0.38
10.064 4.249 -1.609 0.33
10.054 4.282 -1.61 0.3
10.044 4.315 -1.611 0.45
10.045 4.353 -1.613 0.36
10.044 4.371 -1.614 0.34
10.043 4.408 -1.616 0.2
10.059 4.453 -1.622 0.28
10.053 4.488 -1.623 0.24
10.046 4.523 -1.624 0.19
10.048 4.562 -1.627 0.26
10.067 4.609 -1.633 0.2
10.044 4.617 -1.63 0.12
10.031 4.65 -1.63 0.2
10.04 4.692 -1.635 0.11
10.036 4.729 -1.636 0.19
10.039 4.769 -1.64 0.11
10.034 4.805 -1.641 0.18
10.028 4.841 -1.643 0.05
10.02 4.876 -1.644 0.18
10.032 4.902 -1.648 0.05
10.021 4.936 -1.649 0.16
10.015 4.972 -1.65 0.05
9.997 5.002 -1.65 0.16
10.004 5.045 -1.654 0.05
10.006 5.085 -1.657 0.16
10.002 5.123 -1.659 0.05
9.991 5.137 -1.659 0.15
9.989 5.176 -1.661 0.05
9.971 5.206 -1.661 0.16
9.972 5.247 -1.664 0.05
9.957 5.279 -1.664 0.18
9.958 5.32 -1.667 0.2
9.946 5.354 -1.668 0.1
9.934 5.367 -1.668 0.19
9.959 5.421 -1.675 0.11
9.93 5.446 -1.673 0.18
9.923 5.483 -1.675 0.23
9.913 5.518 -1.676 0.17
9.909 5.557 -1.679 0.23
9.883 5.583 -1.677 0.18
9.907 5.617 -1.683 0.25
9.892 5.65 -1.684 0.2
9.89 5.69 -1.687 0.23
9.869 5.719 -1.686 0.18
9.869 5.761 -1.689 0.23
9.841 5.786 -1.688 0.18
9.85 5.833 -1.693 0.23
9.853 5.856 -1.695 0.2
9.844 5.893 -1.697 0.23
9.826 5.924 -1.697 0.18
9.837 5.973 -1.702 0.24
9.824 6.007 -1.703 0.19
9.811 6.042 -1.705 0.12
9.804 6.08 -1.707 0.19
9.818 6.11 -1.711 0.11
9.804 6.144 -1.712 0.2
9.81 6.191 -1.717 0.11
9.795 6.225 -1.718 0.18
9.794 6.267 -1.721 0.05
9.767 6.294 -1.72 0.16
9.772 6.34 -1.725 0.19
9.777 6.365 -1.727 0.18
9.759 6.397 -1.728 0.18
9.75 6.436 -1.73 0.17
9.745 6.476 -1.733 0.17
9.734 6.513 -1.735 0.17
9.717 6.546 -1.735 0.17
9.714 6.589 -1.739 0.17
9.689 6.616 -1.738 0.17
9.685 6.635 -1.739 0.17
9.669 6.669 -1.74 0.17
9.649 6.701 -1.74 0.16
9.641 6.74 -1.743 0.17
9.631 6.778 -1.745 0.17
9.616 6.813 -1.746 0.18
9.611 6.855 -1.749 0.09
9.602 6.871 -1.75 0.16
9.587 6.906 -1.751 0.05
9.568 6.938 -1.752 0.17
9.559 6.978 -1.754 0.11
9.551 7.018 -1.757 0.17
9.531 7.049 -1.757 0.21
9.523 7.09 -1.76 0.1
9.515 7.107 -1.761 0.18
9.503 7.145 -1.763 0.22
9.482 7.176 -1.763 0.19
9.476 7.218 -1.766 0.23
9.45 7.245 -1.766 0.18
9.455 7.297 -1.771 0.24
9.429 7.324 -1.771 0.18
9.436 7.354 -1.774 0.24
9.418 7.387 -1.775 0.18
9.408 7.427 -1.778 0.24
9.39 7.461 -1.779 0.19
9.383 7.504 -1.783 0.24
9.362 7.536 -1.783 0.19
9.359 7.581 -1.787 0.23
9.351 7.6 -1.788 0.18
9.349 7.647 -1.793 0.25
9.319 7.671 -1.791 0.2
9.308 7.711 -1.794 0.25
9.284 7.741 -1.794 0.23
9.264 7.774 -1.795 0.18
9.265 7.824 -1.801 0.26
9.242 7.83 -1.798 0.23
9.233 7.872 -1.801 0.18
9.238 7.927 -1.808 0.26
9.192 7.937 -1.803 0.23
9.185 7.982 -1.807 0.19
9.175 8.024 -1.81 0.26
9.133 8.038 -1.807 0.23
9.12 8.077 -1.809 0.18
9.13 8.113 -1.814 0.27
9.108 8.144 -1.815 0.25
9.084 8.174 -1.815 0.18
9.073 8.216 -1.818 0.27
9.055 8.252 -1.82 0.24
9.029 8.28 -1.82 0.19
9.016 8.321 -1.823 0.26
9.008 8.339 -1.824 0.23
8.98 8.366 -1.824 0.2
8.974 8.413 -1.828 0.27
8.944 8.439 -1.828 0.25
8.935 8.483 -1.831 0.2
8.926 8.527 -1.835 0.24
8.9 8.557 -1.835 0.22
8.887 8.571 -1.835 0.2
8.878 8.617 -1.839 0.28
8.861 8.654 -1.842 0.23
8.822 8.671 -1.839 0.18
8.829 8.732 -1.847 0.26
8.805 8.764 -1.848 0.23
8.775 8.789 -1.847 0.18
8.785 8.826 -1.852 0.27
8.761 8.858 -1.853 0.23
8.673 8.823 -1.839 0.05
8.221 8.414 -1.743 0.0
8.175 8.42 -1.738 0.06
8.077 8.424 -1.728 0.38
8.054 8.427 -1.726 0.27
7.983 8.405 -1.716 0.04
7.94 8.413 -1.712 0.12
7.887 8.409 -1.705 0.16
7.852 8.425 -1.704 0.1
7.815 8.438 -1.701 0.08
7.804 8.48 -1.705 0.04
7.822 8.526 -1.712 0.12
8.489 9.315 -1.876 0.24
8.48 9.364 -1.881 0.11
8.445 9.384 -1.88 0.16
8.422 9.418 -1.881 0.23
8.407 9.461 -1.885 0.23
8.382 9.493 -1.886 0.21
8.368 9.537 -1.89 0.13
8.328 9.522 -1.884 0.0
7.461 8.58 -1.68 0.0
7.366 8.524 -1.664 0.0
7.292 8.494 -1.652 0.0
7.028 8.423 -1.617 0.0
6.531 8.427 -1.568 0.0
6.514 8.432 -1.567 0.0
6.479 8.442 -1.565 0.0
6.042 8.434 -1.522 0.0
6.001 8.432 -1.518 0.0
5.959 8.428 -1.514 0.0
5.943 8.434 -1.513 0.0
5.893 8.419 -1.507 0.0
5.843 8.403 -1.5 0.0
5.81 8.412 -1.498 0.0
5.817 8.479 -1.507 0.0
5.805 8.52 -1.512 0.04
5.752 8.499 -1.504 0.04
5.704 8.455 -1.494 0.13
5.661 8.448 -1.49 0.12
5.613 8.435 -1.484 0.06
5.588 8.454 -1.484 0.04
5.481 8.406 -1.468 0.17
5.381 8.309 -1.447 0.36
5.418 8.395 -1.461 0.0
5.396 8.419 -1.463 0.02
5.307 8.396 -1.452 0.0
5.265 8.387 -1.447 0.06
5.232 8.394 -1.445 0.08
5.204 8.407 -1.445 0.09
5.18 8.428 -1.446 0.04
5.178 8.455 -1.449 0.0
5.153 8.473 -1.449 0.0
5.091 8.43 -1.438 0.0
5.053 8.427 -1.435 0.0
5.011 8.417 -1.43 0.0
4.984 8.431 -1.43 0.0
4.961 8.454 -1.431 0.04
4.991 8.597 -1.453 0.0
4.884 8.474 -1.428 0.02
4.861 8.496 -1.429 0.0
4.82 8.485 -1.424 0.0
4.796 8.505 -1.425 0.0
4.77 8.521 -1.425 0.0
4.763 8.54 -1.427 0.0
4.754 8.588 -1.433 0.0
4.729 8.606 -1.434 0.0
4.714 8.644 -1.438 0.0
4.688 8.66 -1.438 0.0
4.666 8.685 -1.44 0.0
4.662 8.744 -1.448 0.0
4.662 8.777 -1.453 0.0
4.636 8.795 -1.454 0.0
4.62 8.831 -1.457 0.0
4.597 9.064 -1.489 0.46
4.578 9.098 -1.492 0.82
4.593 9.164 -1.502 0.82
4.595 9.24 -1.513 0.83
4.586 9.295 -1.521 0.83
4.573 9.343 -1.527 0.74
4.577 9.427 -1.539 0.59
4.566 9.481 -1.546 0.57
4.511 9.441 -1.536 0.07
5.444 11.452 -1.888 0.16
5.408 11.471 -1.889 0.11
5.371 11.484 -1.888 0.19
5.339 11.51 -1.89 0.11
5.306 11.534 -1.891 0.17
5.27 11.551 -1.891 0.22
5.231 11.562 -1.89 0.1
5.19 11.569 -1.888 0.18
5.18 11.595 -1.892 0.11
5.138 11.597 -1.889 0.18
5.106 11.624 -1.891 0.11
5.073 11.649 -1.892 0.18
5.033 11.658 -1.891 0.05
4.996 11.672 -1.891 0.18
4.963 11.696 -1.892 0.11
4.949 11.715 -1.894 0.18
4.912 11.729 -1.894 0.11
4.873 11.74 -1.893 0.18
4.845 11.776 -1.897 0.11
4.808 11.791 -1.897 0.18
4.774 11.815 -1.898 0.22
4.736 11.828 -1.898 0.18
4.719 11.839 -1.899 0.23
4.686 11.863 -1.9 0.23
4.65 11.882 -1.901 0.11
4.613 11.896 -1.901 0.18
4.574 11.909 -1.901 0.11
4.532 11.91 -1.898 0.2
4.497 11.932 -1.9 0.11
4.472 11.922 -1.897 0.2
4.437 11.942 -1.898 0.11
4.392 11.935 -1.894 0.19
4.358 11.958 -1.896 0.11
4.326 11.987 -1.898 0.17
4.287 11.998 -1.898 0.23
4.252 12.019 -1.899 0.19
4.213 12.029 -1.899 0.23
4.196 12.041 -1.9 0.19
4.159 12.056 -1.9 0.23
4.12 12.067 -1.9 0.19
4.084 12.084 -1.9 0.13
4.04 12.08 -1.897 0.19
4.003 12.094 -1.898 0.11
3.965 12.107 -1.898 0.19
3.949 12.122 -1.899 0.11
3.905 12.118 -1.897 0.18
3.871 12.143 -1.899 0.2
3.832 12.151 -1.898 0.19
3.793 12.161 -1.898 0.12
3.756 12.177 -1.898 0.2
3.717 12.187 -1.898 0.11
3.699 12.195 -1.898 0.18
3.656 12.193 -1.896 0.12
3.619 12.206 -1.897 0.18
3.581 12.219 -1.897 0.12
3.539 12.217 -1.895 0.18
3.501 12.23 -1.895 0.12
3.46 12.232 -1.893 0.19
3.423 12.25 -1.895 0.11
3.404 12.256 -1.895 0.19
3.366 12.268 -1.895 0.11
3.327 12.277 -1.895 0.18
3.287 12.283 -1.894 0.23
3.247 12.288 -1.893 0.15
3.209 12.3 -1.893 0.26
3.169 12.302 -1.892 0.17
3.151 12.313 -1.893 0.24
3.108 12.306 -1.89 0.18
3.074 12.334 -1.893 0.23
3.035 12.344 -1.893 0.19
2.995 12.348 -1.892 0.12
2.954 12.347 -1.891 0.2
2.917 12.364 -1.892 0.2
2.897 12.369 -1.892 0.24
2.858 12.376 -1.892 0.18
2.821 12.395 -1.893 0.24
2.78 12.392 -1.892 0.18
2.744 12.414 -1.894 0.23
2.705 12.425 -1.894 0.19
2.66 12.406 -1.89 0.14
2.644 12.424 -1.892 0.3
2.606 12.438 -1.893 0.2
2.568 12.454 -1.894 0.25
2.529 12.46 -1.894 0.25
2.491 12.473 -1.895 0.2
2.452 12.485 -1.895 0.25
2.415 12.504 -1.897 0.2
2.376 12.51 -1.897 0.25
2.356 12.515 -1.897 0.19
2.32 12.536 -1.899 0.25
2.278 12.532 -1.897 0.21
2.239 12.539 -1.897 0.17
2.201 12.554 -1.899 0.26
2.163 12.57 -1.9 0.19
2.124 12.579 -1.901 0.25
2.103 12.577 -1.9 0.19
2.064 12.589 -1.901 0.24
2.023 12.584 -1.899 0.19
1.986 12.608 -1.902 0.25
1.946 12.61 -1.901 0.23
1.907 12.618 -1.901 0.2
1.868 12.63 -1.902 0.25
1.848 12.632 -1.902 0.2
1.811 12.656 -1.905 0.25
1.768 12.638 -1.901 0.23
1.727 12.638 -1.9 0.18
1.689 12.657 -1.903 0.26
1.651 12.67 -1.904 0.19
1.612 12.681 -1.905 0.25
1.57 12.672 -1.903 0.23
1.55 12.674 -1.903 0.2
1.511 12.689 -1.904 0.25
1.47 12.682 -1.902 0.24
1.429 12.677 -1.901 0.18
1.391 12.695 -1.903 0.26
1.349 12.678 -1.899 0.2
1.311 12.703 -1.903 0.25
1.291 12.703 -1.903 0.2
1.252 12.719 -1.904 0.24
1.212 12.717 -1.903 0.2
1.173 12.731 -1.905 0.25
1.133 12.738 -1.906 0.22
1.093 12.746 -1.906 0.2
1.054 12.761 -1.908 0.25
1.013 12.756 -1.907 0.19
0.994 12.772 -1.909 0.24
