# .PCD v.7 - Point Cloud Data file format
VERSION .7
FIELDS x y z intensity
SIZE 4 4 4 4
TYPE F F F F
COUNT 1 1 1 1
WIDTH 1908
HEIGHT 1
VIEWPOINT 0 0 0 1 0 0 0
POINTS 1908
DATA ascii
-15.416 17.352 0.442 0.21
-15.439 17.27 0.441 0.26
-15.421 17.195 0.441 0.29
-15.421 17.087 0.44 0.27
-15.429 16.988 0.439 0.28
-15.436 16.889 0.438 0.29
-15.427 16.773 0.438 0.29
-15.428 16.669 0.437 0.3
-15.423 16.559 0.436 0.29
-15.411 16.494 0.435 0.27
-15.42 16.4 0.435 0.29
-15.426 16.304 0.434 0.31
-15.425 16.2 0.433 0.29
-15.419 16.093 0.432 0.28
-15.414 15.987 0.432 0.28
-15.418 15.891 0.431 0.29
-15.44 15.814 0.431 0.32
-15.398 15.722 0.43 0.25
-15.403 15.628 0.429 0.29
-15.407 15.534 0.428 0.29
-15.474 15.504 0.429 0.22
-15.575 15.508 0.429 0.48
-15.654 15.488 0.43 0.24
-15.751 15.487 0.43 0.18
-15.808 15.494 0.431 0.39
-15.877 15.464 0.431 0.2
-15.942 15.431 0.431 0.32
-15.979 15.369 0.431 0.0
-15.961 15.256 0.43 0.0
-15.89 15.093 0.429 0.0
-15.81 14.923 0.427 0.0
-15.734 14.759 0.425 0.0
-15.69 14.671 0.424 0.0
-15.691 14.58 0.424 0.0
-15.682 14.48 0.423 0.0
-15.669 14.377 0.422 0.1
-17.001 15.498 0.44 0.28
-17.113 15.502 0.441 0.27
-17.211 15.493 0.441 0.27
-17.284 15.51 0.442 0.26
-17.4 15.515 0.443 0.27
-17.521 15.524 0.444 0.28
-17.615 15.508 0.444 0.25
-17.729 15.511 0.445 0.22
-17.836 15.505 0.446 0.0
-17.922 15.481 0.447 0.0
-16.783 14.454 0.431 0.12
-18.141 15.522 0.449 0.21
-21.262 18.071 0.489 0.27
-21.386 18.061 0.49 0.32
-21.511 18.05 0.491 0.32
-21.639 18.043 0.492 0.32
-21.788 18.051 0.493 0.34
-21.916 18.041 0.494 0.32
-22.023 18.071 0.495 0.32
-22.148 18.058 0.496 0.14
-17.931 14.532 0.44 0.0
-22.453 18.072 0.498 0.11
-24.03 19.215 0.518 0.24
-24.042 19.101 0.518 0.31
-24.039 18.976 0.517 0.32
-24.001 18.885 0.516 0.29
-24.021 18.779 0.515 0.31
-24.026 18.662 0.515 0.33
-24.014 18.531 0.514 0.32
-24.037 18.429 0.513 0.33
-24.023 18.299 0.512 0.31
-24.037 18.191 0.512 0.33
-24.023 18.121 0.511 0.32
-24.007 17.991 0.51 0.32
-24.012 17.877 0.51 0.33
-24.022 17.767 0.509 0.32
-24.024 17.653 0.508 0.32
-24.02 17.534 0.508 0.32
-24.026 17.423 0.507 0.34
-24.035 17.315 0.507 0.34
-24.009 17.239 0.506 0.26
-23.959 17.089 0.505 0.35
-21.393 15.161 0.472 0.15
-21.413 15.074 0.472 0.38
-21.494 15.031 0.472 0.16
-24.946 17.323 0.514 0.32
-25.092 17.308 0.515 0.29
-25.218 17.337 0.516 0.29
-25.391 17.338 0.518 0.31
-25.558 17.335 0.519 0.31
-25.714 17.322 0.521 0.29
-25.89 17.323 0.522 0.29
-26.074 17.327 0.524 0.29
-26.225 17.309 0.525 0.29
-26.386 17.356 0.526 0.29
-26.538 17.336 0.528 0.31
-26.716 17.333 0.529 0.29
-26.887 17.324 0.53 0.29
-27.069 17.321 0.532 0.29
-27.243 17.312 0.533 0.27
-27.428 17.308 0.535 0.27
-27.612 17.304 0.537 0.27
-27.767 17.34 0.538 0.28
-27.964 17.341 0.54 0.27
-28.143 17.329 0.541 0.25
-28.33 17.322 0.543 0.22
-28.532 17.322 0.545 0.16
-28.668 17.282 0.545 0.16
-28.921 17.311 0.548 0.27
-29.088 17.348 0.549 0.25
-29.292 17.345 0.551 0.25
-29.496 17.341 0.553 0.21
-29.701 17.336 0.555 0.42
-29.889 17.32 0.556 0.25
-30.097 17.315 0.558 0.2
-30.327 17.32 0.56 0.39
-30.481 17.344 0.562 0.24
-30.692 17.337 0.563 0.19
-30.921 17.338 0.565 0.39
-31.131 17.327 0.567 0.22
-31.36 17.326 0.569 0.2
-31.615 17.337 0.572 0.26
-31.802 17.31 0.573 0.21
-32.007 17.356 0.575 0.2
-32.238 17.35 0.577 0.35
-32.46 17.338 0.579 0.22
-32.659 17.313 0.581 0.28
-32.681 17.194 0.58 0.26
-32.671 17.057 0.58 0.25
-32.689 16.936 0.579 0.25
-32.7 16.812 0.579 0.23
-28.641 14.672 0.532 0.21
-32.655 16.595 0.577 0.15
-32.659 16.468 0.577 0.0
-32.668 16.344 0.576 0.0
-35.322 17.393 0.605 0.0
-35.34 17.264 0.605 0.0
-35.308 17.18 0.604 0.0
-32.653 15.637 0.573 0.37
-32.664 15.517 0.573 0.25
-32.638 15.379 0.572 0.26
-32.661 15.265 0.572 0.27
-32.662 15.14 0.571 0.26
-32.666 15.017 0.571 0.26
-32.655 14.95 0.57 0.26
-32.634 14.817 0.569 0.27
-32.664 14.707 0.569 0.27
-32.657 14.581 0.569 0.0
-32.556 14.413 0.567 0.0
-32.6 14.31 0.567 0.0
-32.976 14.352 0.571 0.0
-33.247 14.407 0.573 0.0
-33.621 14.444 0.577 0.0
-33.916 14.445 0.58 0.0
-34.306 14.483 0.584 0.0
-34.575 14.469 0.586 0.0
-34.975 14.507 0.59 0.0
-35.279 14.503 0.593 0.0
-35.567 14.556 0.596 0.0
-42.968 17.422 0.676 0.03
-43.154 17.34 0.677 0.09
-43.545 17.338 0.681 0.14
-43.93 17.331 0.684 0.2
-44.29 17.312 0.688 0.24
-44.346 17.174 0.688 0.18
-44.327 17.086 0.687 0.17
-44.32 16.924 0.687 0.17
-44.345 16.774 0.686 0.17
-44.341 16.614 0.686 0.17
-44.337 16.453 0.685 0.0
-44.387 16.313 0.685 0.0
-46.968 17.093 0.712 0.0
-46.959 16.923 0.712 0.0
-46.942 16.834 0.711 0.0
-44.307 15.733 0.682 0.0
-39.991 14.062 0.636 0.0
-39.964 13.912 0.635 0.0
-40.041 13.798 0.635 0.0
-40.073 13.668 0.635 0.0
-44.304 14.953 0.68 0.0
-44.324 14.882 0.68 0.0
-55.096 17.344 0.791 0.0
-55.552 17.392 0.795 0.0
-55.576 17.208 0.795 0.0
-55.811 17.089 0.797 0.0
-57.333 17.357 0.812 0.0
-57.315 17.155 0.812 0.0
-57.577 17.037 0.814 0.0
-58.35 17.066 0.821 0.0
-58.959 17.143 0.828 0.0
-59.622 17.133 0.834 0.0
-60.466 17.17 0.842 0.0
-60.986 17.11 0.847 0.0
-61.649 17.087 0.854 0.0
-62.323 17.063 0.86 0.0
-63.475 17.164 0.872 0.0
-63.832 17.153 0.875 0.0
-62.264 16.522 0.858 0.0
-62.244 16.308 0.857 0.0
-50.841 13.155 0.738 0.0
-50.847 12.986 0.737 0.0
-49.088 12.374 0.719 0.0
-49.082 12.208 0.718 0.0
-49.064 12.122 0.718 0.0
-49.168 11.984 0.719 0.0
-49.345 11.863 0.72 0.0
-67.721 15.821 0.91 0.0
-67.835 15.623 0.911 0.0
-68.429 15.534 0.916 0.0
-69.868 15.629 0.931 0.0
-70.148 15.576 0.933 0.0
-70.39 15.398 0.935 0.0
-58.076 12.136 0.807 0.0
-58.298 11.992 0.809 0.0
-67.077 10.744 0.894 0.0
-70.872 8.4 0.928 0.0
-49.127 -11.208 0.716 0.0
-44.198 -10.227 0.666 0.0
-44.252 -10.313 0.666 0.0
-44.577 -10.537 0.67 0.0
-44.486 -10.663 0.669 0.0
-44.467 -10.806 0.67 0.0
-41.208 -10.15 0.636 0.0
-41.2 -10.285 0.636 0.0
-41.08 -10.392 0.635 0.0
-40.959 -10.43 0.634 0.0
-40.843 -10.537 0.633 0.0
-40.438 -10.568 0.63 0.0
-40.186 -10.637 0.627 0.09
-39.957 -10.711 0.625 0.09
-39.806 -10.804 0.624 0.0
-39.878 -10.958 0.625 0.0
-39.937 -11.042 0.626 0.0
-40.191 -11.249 0.629 0.0
-40.402 -11.445 0.632 0.0
-39.982 -11.461 0.627 0.0
-40.508 -11.75 0.633 0.0
-40.475 -11.879 0.633 0.0
-44.106 -13.098 0.672 0.0
-66.313 -22.692 0.915 0.0
-66.244 -22.901 0.915 0.0
-68.304 -23.734 0.938 0.0
-66.19 -23.232 0.916 0.0
-52.481 -18.6 0.77 0.0
-52.237 -18.698 0.768 0.0
-47.872 -17.303 0.722 0.0
-47.795 -17.445 0.721 0.0
-50.888 -18.758 0.755 0.0
-50.82 -18.914 0.755 0.0
-46.525 -17.563 0.71 0.0
-46.273 -17.634 0.708 0.0
-45.87 -17.646 0.704 0.0
-45.656 -17.728 0.702 0.0
-45.29 -17.75 0.699 0.0
-44.326 -17.532 0.689 0.0
-43.927 -17.454 0.685 0.0
-43.532 -17.456 0.681 0.0
-42.86 -17.342 0.674 0.0
-42.411 -17.316 0.67 0.0
-42.075 -17.333 0.667 0.0
-41.175 -17.113 0.658 0.07
-40.835 -17.122 0.655 0.0
-40.696 -17.139 0.653 0.0
-40.395 -17.162 0.651 0.0
-39.766 -17.041 0.644 0.0
-39.413 -17.037 0.641 0.0
-38.958 -16.985 0.637 0.07
-38.729 -17.03 0.635 0.0
-38.471 -17.061 0.632 0.0
-38.203 -17.014 0.63 0.0
-37.294 -16.749 0.62 0.13
-37.082 -16.794 0.619 0.16
-37.008 -16.9 0.618 0.1
-36.876 -16.981 0.617 0.0
-36.494 -16.944 0.614 0.07
-36.242 -16.965 0.612 0.14
-36.051 -17.014 0.61 0.16
-35.945 -17.033 0.609 0.09
-35.842 -17.122 0.609 0.0
-35.25 -16.975 0.603 0.12
-35.049 -17.014 0.601 0.12
-20.977 -10.253 0.443 0.0
-34.6 -17.065 0.597 0.07
-34.416 -17.109 0.596 0.14
-33.994 -16.965 0.591 0.16
-33.722 -16.962 0.589 0.1
-33.537 -17.001 0.587 0.08
-33.377 -17.052 0.586 0.0
-32.944 -16.961 0.582 0.12
-32.589 -16.908 0.578 0.1
-32.357 -16.916 0.576 0.14
-32.378 -16.992 0.577 0.09
-31.826 -16.83 0.571 0.13
-31.854 -16.973 0.572 0.09
-20.012 -10.733 0.437 0.11
-19.115 -10.328 0.427 0.23
-19.042 -10.366 0.426 0.21
-19.032 -10.438 0.427 0.5
-19.872 -10.941 0.436 0.11
-30.071 -16.695 0.555 0.16
-29.903 -16.725 0.553 0.3
-29.709 -16.739 0.552 0.15
-19.011 -10.78 0.428 0.23
-18.976 -10.838 0.428 0.34
-18.961 -10.909 0.428 0.23
-19.374 -11.188 0.433 0.21
-19.313 -11.234 0.433 0.3
-19.293 -11.304 0.433 0.24
-28.222 -16.668 0.538 0.16
-27.791 -16.531 0.534 0.18
-27.561 -16.511 0.532 0.32
-27.44 -16.557 0.531 0.23
-27.216 -16.538 0.529 0.23
-27.115 -16.534 0.528 0.2
-27.076 -16.628 0.528 0.27
-26.835 -16.596 0.526 0.2
-26.515 -16.513 0.523 0.18
-26.343 -16.521 0.521 0.31
-26.165 -16.524 0.52 0.24
-25.768 -16.386 0.516 0.18
-25.577 -16.321 0.514 0.38
-25.302 -16.257 0.511 0.23
-25.209 -16.309 0.511 0.16
-25.124 -16.367 0.51 0.39
-25.047 -16.429 0.51 0.2
-24.854 -16.414 0.508 0.25
-24.719 -16.436 0.507 0.2
-24.613 -16.422 0.506 0.15
-24.347 -16.355 0.504 0.42
-24.185 -16.356 0.502 0.19
-15.447 -10.506 0.396 0.2
-15.396 -10.542 0.396 0.25
-15.344 -10.578 0.396 0.32
-15.216 -10.56 0.394 0.57
-15.3 -10.69 0.396 0.25
-22.906 -16.074 0.49 0.23
-22.855 -16.145 0.49 0.32
-22.705 -16.146 0.489 0.24
-22.553 -16.145 0.488 0.18
-12.784 -9.199 0.366 0.21
-12.685 -9.188 0.366 0.42
-12.743 -9.292 0.367 0.29
-13.045 -9.544 0.371 0.47
-12.901 -9.5 0.369 0.3
-14.512 -10.762 0.39 0.32
-12.772 -9.53 0.368 0.34
-12.764 -9.586 0.369 0.26
-12.665 -9.575 0.368 0.34
-13.026 -9.913 0.373 0.2
-12.363 -9.437 0.364 0.43
-12.294 -9.445 0.364 0.32
-12.229 -9.457 0.363 0.35
-12.171 -9.473 0.363 0.27
-12.17 -9.534 0.363 0.41
-12.063 -9.511 0.362 0.46
-12.047 -9.56 0.363 0.24
-11.971 -9.53 0.362 0.47
-12.552 -10.059 0.37 0.3
-12.607 -10.169 0.371 0.4
-12.594 -10.224 0.371 0.29
-11.944 -9.757 0.363 0.54
-19.666 -16.19 0.465 0.25
-19.516 -16.17 0.463 0.3
-19.326 -16.064 0.461 0.33
-19.377 -16.209 0.463 0.32
-19.201 -16.164 0.461 0.24
-19.08 -16.165 0.46 0.26
-18.977 -16.18 0.459 0.36
-18.85 -16.175 0.458 0.31
-18.665 -16.118 0.456 0.29
-18.573 -16.141 0.456 0.29
-18.516 -16.142 0.455 0.3
-18.352 -16.1 0.454 0.34
-18.28 -16.139 0.454 0.23
-18.154 -16.13 0.453 0.38
-18.043 -16.132 0.452 0.3
-17.871 -16.08 0.45 0.32
-17.699 -16.026 0.449 0.36
-17.562 -15.951 0.447 0.24
-17.388 -15.893 0.445 0.26
-17.319 -15.93 0.445 0.36
-17.311 -16.024 0.446 0.37
-17.155 -15.98 0.444 0.27
-17.045 -15.977 0.443 0.34
-16.991 -16.027 0.443 0.33
-16.913 -16.004 0.443 0.25
-16.773 -15.971 0.441 0.37
-16.75 -16.05 0.442 0.34
-16.671 -16.075 0.441 0.39
-16.533 -16.042 0.44 0.28
-16.36 -15.974 0.438 0.27
-16.225 -15.942 0.437 0.36
-16.253 -16.02 0.438 0.27
-16.007 -15.876 0.435 0.31
-15.904 -15.874 0.434 0.38
-15.855 -15.924 0.434 0.26
-15.816 -15.985 0.434 0.38
-15.707 -15.975 0.434 0.34
-15.581 -15.947 0.433 0.28
-15.508 -15.922 0.432 0.38
-15.364 -15.873 0.43 0.32
-15.354 -15.963 0.431 0.25
-15.236 -15.94 0.43 0.43
-15.146 -15.946 0.429 0.3
-15.055 -15.95 0.429 0.35
-14.968 -15.958 0.428 0.35
-14.761 -15.836 0.426 0.25
-14.724 -15.846 0.426 0.31
-14.708 -15.929 0.426 0.34
-14.616 -15.93 0.426 0.39
-14.466 -15.866 0.424 0.32
-14.349 -15.837 0.423 0.3
-14.274 -15.854 0.423 0.3
-14.194 -15.864 0.422 0.41
-14.123 -15.836 0.422 0.28
-14.072 -15.879 0.422 0.38
-13.984 -15.879 0.421 0.29
-13.934 -15.923 0.421 0.34
-13.859 -15.938 0.421 0.39
-13.751 -15.915 0.42 0.34
-13.591 -15.829 0.418 0.32
-13.491 -15.762 0.417 0.39
-13.4 -15.755 0.416 0.29
-13.381 -15.834 0.417 0.36
-13.375 -15.928 0.417 0.33
-13.201 -15.821 0.415 0.36
-13.133 -15.841 0.415 0.36
-13.068 -15.864 0.415 0.37
-13.043 -15.884 0.415 0.34
-12.956 -15.88 0.414 0.37
-12.757 -15.736 0.412 0.3
-12.721 -15.793 0.412 0.32
-12.542 -15.67 0.41 0.29
-12.448 -15.653 0.409 0.33
-12.398 -15.692 0.409 0.38
-12.37 -15.707 0.409 0.4
-12.275 -15.687 0.409 0.37
-12.192 -15.681 0.408 0.33
-12.169 -15.754 0.408 0.41
-12.106 -15.775 0.408 0.38
-12.038 -15.789 0.408 0.37
-12.027 -15.878 0.409 0.38
-11.902 -15.815 0.407 0.33
-11.858 -15.808 0.407 0.43
-11.831 -15.876 0.407 0.32
-11.733 -15.848 0.407 0.39
-11.671 -15.869 0.406 0.29
-11.569 -15.833 0.405 0.43
-11.512 -15.859 0.405 0.32
-11.406 -15.818 0.404 0.35
-11.381 -15.836 0.404 0.3
-11.28 -15.799 0.403 0.38
-11.165 -15.742 0.402 0.41
-11.113 -15.774 0.402 0.41
-11.091 -15.848 0.403 0.33
-11.008 -15.835 0.402 0.38
-10.938 -15.84 0.402 0.31
-10.909 -15.852 0.402 0.29
-10.847 -15.868 0.401 0.35
-10.742 -15.821 0.401 0.26
-10.625 -15.755 0.399 0.3
-10.543 -15.738 0.399 0.3
-10.419 -15.66 0.397 0.38
-10.395 -15.731 0.398 0.28
-10.323 -15.728 0.397 0.32
-10.278 -15.714 0.397 0.29
-10.213 -15.721 0.397 0.34
-10.144 -15.723 0.396 0.34
-10.101 -15.765 0.396 0.25
-10.063 -15.815 0.397 0.34
-10.001 -15.828 0.396 0.32
-9.936 -15.834 0.396 0.32
-9.873 -15.788 0.395 0.27
-9.801 -15.784 0.395 0.3
-9.739 -15.794 0.395 0.32
-9.662 -15.78 0.394 0.28
-9.597 -15.785 0.394 0.32
-9.538 -15.799 0.394 0.29
-9.466 -15.791 0.393 0.3
-9.418 -15.768 0.393 0.29
-9.359 -15.781 0.393 0.34
-9.282 -15.763 0.392 0.29
-9.216 -15.765 0.392 0.27
-9.153 -15.771 0.392 0.36
-9.086 -15.769 0.391 0.32
-9.021 -15.771 0.391 0.31
-8.969 -15.737 0.39 0.28
-8.914 -15.754 0.39 0.29
-8.845 -15.749 0.39 0.32
-8.777 -15.742 0.389 0.32
-8.707 -15.733 0.389 0.32
-8.645 -15.737 0.389 0.36
-8.58 -15.736 0.388 0.34
-8.543 -15.727 0.388 0.34
-8.474 -15.716 0.388 0.27
-8.415 -15.725 0.387 0.36
-8.347 -15.716 0.387 0.34
-8.282 -15.714 0.387 0.32
-8.219 -15.713 0.386 0.26
-8.156 -15.712 0.386 0.32
-8.119 -15.702 0.386 0.29
-8.05 -15.688 0.385 0.39
-7.994 -15.701 0.385 0.34
-7.933 -15.703 0.385 0.42
-7.869 -15.697 0.385 0.35
-7.806 -15.695 0.384 0.36
-7.75 -15.705 0.384 0.32
-7.712 -15.69 0.384 0.26
-7.647 -15.684 0.384 0.49
-7.588 -15.686 0.383 0.32
-7.518 -15.667 0.383 0.32
-7.461 -15.674 0.383 0.31
-7.402 -15.678 0.382 0.46
-7.334 -15.661 0.382 0.36
-7.299 -15.649 0.382 0.26
-7.244 -15.661 0.382 0.29
-7.181 -15.652 0.381 0.39
-7.124 -15.659 0.381 0.33
-7.064 -15.655 0.381 0.38
-6.992 -15.626 0.38 0.28
-6.942 -15.646 0.38 0.39
-6.878 -15.635 0.38 0.32
-6.845 -15.626 0.38 0.3
-6.793 -15.64 0.38 0.38
-6.732 -15.633 0.379 0.38
-6.666 -15.616 0.379 0.38
-6.61 -15.62 0.379 0.34
-6.555 -15.626 0.378 0.35
-6.492 -15.615 0.378 0.29
-6.466 -15.622 0.378 0.35
-6.403 -15.607 0.378 0.38
-6.343 -15.601 0.377 0.36
-6.288 -15.606 0.377 0.36
-6.23 -15.601 0.377 0.35
-6.168 -15.589 0.377 0.36
-6.114 -15.595 0.377 0.29
-6.079 -15.577 0.376 0.32
-6.02 -15.572 0.376 0.32
-5.965 -15.574 0.376 0.39
-5.908 -15.57 0.376 0.24
-5.855 -15.579 0.375 0.34
-5.802 -15.586 0.375 0.37
-5.741 -15.573 0.375 0.31
-5.712 -15.568 0.375 0.3
-5.656 -15.567 0.375 0.29
-5.594 -15.547 0.374 0.32
-5.542 -15.556 0.374 0.32
-5.488 -15.558 0.374 0.46
-5.432 -15.556 0.374 0.34
-5.374 -15.547 0.373 0.28
-5.346 -15.544 0.373 0.31
-5.29 -15.539 0.373 0.29
-5.235 -15.539 0.373 0.32
-5.181 -15.54 0.373 0.3
-5.123 -15.526 0.372 0.29
-5.079 -15.557 0.373 0.33
-5.022 -15.55 0.372 0.3
-4.988 -15.528 0.372 0.3
-4.931 -15.516 0.372 0.29
-4.877 -15.515 0.372 0.33
-4.824 -15.517 0.371 0.31
-4.771 -15.516 0.371 0.3
-4.714 -15.506 0.371 0.27
-4.663 -15.513 0.371 0.34
-4.635 -15.509 0.371 0.35
-4.58 -15.501 0.371 0.36
-4.528 -15.505 0.37 0.36
-4.48 -15.52 0.37 0.34
-4.424 -15.509 0.37 0.35
-4.37 -15.503 0.37 0.36
-4.317 -15.503 0.37 0.38
-4.265 -15.503 0.37 0.34
-4.238 -15.502 0.37 0.27
-4.183 -15.492 0.369 0.32
-4.129 -15.484 0.369 0.39
-4.079 -15.491 0.369 0.38
-4.028 -15.496 0.369 0.36
-3.975 -15.489 0.369 0.34
-3.922 -15.488 0.369 0.34
-3.894 -15.477 0.369 0.38
-3.838 -15.462 0.368 0.33
-3.784 -15.451 0.368 0.34
-3.738 -15.474 0.368 0.33
-3.685 -15.464 0.368 0.3
-3.632 -15.46 0.368 0.35
-3.582 -15.462 0.368 0.37
-3.554 -15.452 0.367 0.34
-3.503 -15.455 0.367 0.4
-3.454 -15.462 0.367 0.4
-3.4 -15.447 0.367 0.34
-3.348 -15.442 0.367 0.3
-3.3 -15.457 0.367 0.25
-3.249 -15.455 0.367 0.47
-3.218 -15.425 0.366 0.31
-3.168 -15.431 0.366 0.35
-3.116 -15.424 0.366 0.35
-3.066 -15.421 0.366 0.36
-3.016 -15.427 0.366 0.36
-2.967 -15.433 0.366 0.34
-2.915 -15.424 0.366 0.34
-2.889 -15.419 0.366 0.36
-2.834 -15.39 0.365 0.35
-2.787 -15.409 0.366 0.35
-2.739 -15.418 0.366 0.38
-2.688 -15.413 0.365 0.39
-2.638 -15.413 0.365 0.38
-2.589 -15.413 0.365 0.35
-2.535 -15.392 0.365 0.32
-2.503 -15.344 0.364 0.41
-2.444 -15.283 0.364 0.23
-2.374 -15.15 0.362 0.5
-2.329 -15.176 0.362 0.32
-2.267 -15.088 0.361 0.34
-2.213 -15.045 0.361 0.45
-2.169 -15.078 0.361 0.35
-2.141 -15.048 0.361 0.46
-2.093 -15.05 0.361 0.37
-2.039 -15.009 0.36 0.34
-1.994 -15.034 0.361 0.42
-1.959 -15.131 0.361 0.36
-1.913 -15.153 0.362 0.41
-1.86 -15.113 0.361 0.44
-1.837 -15.122 0.361 0.41
-1.792 -15.148 0.361 0.38
-1.739 -15.111 0.361 0.34
-1.682 -15.029 0.36 0.4
-1.638 -15.058 0.36 0.42
-1.588 -15.042 0.36 0.44
-1.537 -15.011 0.36 0.44
-1.514 -15.021 0.36 0.31
-1.464 -14.992 0.359 0.4
-1.42 -15.028 0.36 0.45
-1.379 -15.106 0.361 0.42
-1.328 -15.065 0.36 0.34
-1.28 -15.059 0.36 0.43
-1.235 -15.103 0.36 0.37
-1.211 -15.095 0.36 0.32
-1.166 -15.126 0.361 0.43
-1.115 -15.082 0.36 0.34
-1.066 -15.07 0.36 0.5
-1.022 -15.121 0.36 0.34
-0.97 -15.058 0.36 0.38
-0.922 -15.037 0.36 0.41
-0.875 -15.056 0.36 0.45
-0.853 -15.091 0.36 0.38
-0.804 -15.048 0.36 0.45
-0.757 -15.052 0.36 0.28
-0.707 -15.011 0.359 0.5
-0.66 -15.005 0.359 0.41
-0.611 -14.977 0.359 0.36
-0.589 -14.998 0.359 0.32
-0.541 -14.973 0.359 0.43
-0.494 -14.977 0.359 0.32
-0.445 -14.939 0.358 0.53
-0.399 -14.968 0.359 0.31
-0.351 -14.929 0.358 0.51
-0.305 -14.944 0.358 0.25
-0.258 -14.951 0.358 0.54
-0.234 -14.955 0.358 0.35
-0.187 -14.908 0.358 0.45
-0.14 -14.903 0.358 0.42
-0.093 -14.921 0.358 0.35
-0.046 -14.859 0.357 0.47
0.0 -14.917 0.358 0.36
0.047 -14.841 0.357 0.35
0.07 -14.835 0.357 0.5
0.119 -15.085 0.36 0.28
0.165 -14.94 0.358 0.37
0.212 -14.944 0.358 0.47
0.259 -14.963 0.358 0.34
0.308 -15.036 0.359 0.44
0.353 -14.953 0.358 0.37
0.377 -14.959 0.358 0.43
0.423 -14.947 0.358 0.35
0.469 -14.906 0.358 0.43
0.515 -14.898 0.358 0.31
0.561 -14.873 0.358 0.48
0.608 -14.875 0.358 0.33
0.655 -14.881 0.358 0.48
0.682 -14.952 0.359 0.29
0.726 -14.894 0.358 0.48
0.774 -14.909 0.358 0.39
0.816 -14.829 0.357 0.42
0.86 -14.774 0.357 0.4
0.909 -14.813 0.357 0.38
0.957 -14.832 0.357 0.36
0.981 -14.843 0.358 0.43
1.028 -14.848 0.358 0.35
1.075 -14.85 0.358 0.4
1.12 -14.817 0.357 0.45
1.168 -14.831 0.358 0.34
1.211 -14.786 0.357 0.49
1.267 -14.897 0.358 0.27
1.302 -15.019 0.36 0.38
1.332 -14.838 0.358 0.39
1.389 -14.937 0.359 0.29
1.429 -14.859 0.358 0.58
1.485 -14.95 0.359 0.36
1.549 -15.108 0.361 0.3
1.581 -14.964 0.359 0.42
1.624 -14.923 0.359 0.41
1.644 -14.889 0.359 0.37
1.687 -14.848 0.358 0.36
1.734 -14.844 0.358 0.46
1.776 -14.801 0.358 0.39
1.824 -14.805 0.358 0.45
1.874 -14.833 0.358 0.34
1.896 -14.816 0.358 0.33
1.94 -14.791 0.358 0.43
1.991 -14.818 0.358 0.35
2.041 -14.836 0.359 0.43
2.089 -14.843 0.359 0.35
2.136 -14.836 0.359 0.53
2.22 -15.085 0.361 0.29
2.241 -14.904 0.36 0.33
2.252 -14.815 0.359 0.45
2.298 -14.808 0.359 0.35
2.346 -14.811 0.359 0.38
2.391 -14.793 0.359 0.46
2.44 -14.797 0.359 0.38
2.485 -14.782 0.359 0.41
2.531 -14.774 0.359 0.52
2.577 -14.898 0.36 0.27
2.6 -14.758 0.359 0.4
2.656 -14.803 0.359 0.35
2.689 -14.72 0.358 0.44
2.741 -14.743 0.359 0.41
2.794 -14.769 0.359 0.41
2.846 -14.788 0.359 0.41
2.865 -14.762 0.359 0.34
2.91 -14.747 0.359 0.42
2.965 -14.779 0.36 0.36
3.019 -14.811 0.36 0.47
3.069 -14.815 0.36 0.31
3.112 -14.789 0.36 0.32
3.167 -14.819 0.36 0.44
3.188 -14.804 0.36 0.37
3.237 -14.805 0.36 0.5
3.308 -14.905 0.362 0.24
3.328 -14.775 0.36 0.4
3.368 -14.735 0.36 0.5
3.408 -14.699 0.36 0.32
3.46 -14.714 0.36 0.43
3.491 -14.741 0.36 0.34
3.53 -14.701 0.36 0.43
3.582 -14.713 0.36 0.38
3.627 -14.696 0.36 0.37
3.691 -14.757 0.361 0.45
3.735 -14.735 0.361 0.36
3.779 -14.716 0.361 0.43
3.879 -14.907 0.363 0.33
3.903 -14.903 0.363 0.46
3.948 -14.886 0.363 0.36
3.974 -14.795 0.362 0.43
4.019 -14.778 0.362 0.33
4.071 -14.787 0.362 0.47
4.089 -14.672 0.361 0.36
4.12 -14.694 0.361 0.46
4.235 -14.92 0.364 0.29
4.233 -14.739 0.362 0.4
4.27 -14.693 0.362 0.3
4.32 -14.691 0.362 0.39
4.344 -14.607 0.361 0.48
4.412 -14.664 0.362 0.26
4.417 -14.598 0.361 0.48
4.473 -14.616 0.362 0.39
4.521 -14.612 0.362 0.4
4.572 -14.613 0.362 0.39
4.616 -14.591 0.362 0.36
4.66 -14.57 0.362 0.43
4.712 -14.575 0.362 0.39
4.776 -14.617 0.363 0.34
4.796 -14.6 0.363 0.45
4.838 -14.573 0.362 0.39
4.889 -14.575 0.363 0.39
4.954 -14.614 0.363 0.38
5.009 -14.625 0.363 0.41
5.03 -14.538 0.363 0.37
5.105 -14.607 0.364 0.45
5.145 -14.646 0.364 0.3
5.206 -14.671 0.365 0.41
5.25 -14.651 0.365 0.44
5.293 -14.625 0.364 0.36
5.333 -14.593 0.364 0.44
5.385 -14.591 0.364 0.41
5.464 -14.664 0.365 0.36
5.479 -14.635 0.365 0.4
5.518 -14.599 0.365 0.41
5.581 -14.625 0.365 0.33
5.648 -14.663 0.366 0.37
5.694 -14.645 0.366 0.34
5.755 -14.664 0.366 0.45
5.791 -14.622 0.366 0.37
5.82 -14.628 0.366 0.38
5.883 -14.652 0.367 0.37
5.95 -14.684 0.367 0.42
6.021 -14.726 0.368 0.38
6.072 -14.72 0.368 0.36
6.12 -14.704 0.368 0.39
6.147 -14.639 0.368 0.43
6.165 -14.616 0.368 0.44
6.244 -14.676 0.368 0.33
6.267 -14.601 0.368 0.48
6.393 -14.767 0.37 0.22
6.402 -14.661 0.369 0.47
6.413 -14.562 0.368 0.41
6.526 -14.693 0.37 0.34
6.598 -14.729 0.37 0.26
6.571 -14.609 0.369 0.49
6.701 -14.772 0.371 0.21
6.656 -14.553 0.369 0.46
6.694 -14.514 0.369 0.4
6.746 -14.507 0.369 0.3
6.792 -14.488 0.369 0.46
6.892 -14.58 0.37 0.35
6.942 -14.627 0.371 0.38
6.994 -14.618 0.371 0.41
7.073 -14.664 0.372 0.34
7.103 -14.608 0.371 0.4
7.162 -14.613 0.372 0.48
7.205 -14.585 0.372 0.31
7.247 -14.611 0.372 0.28
7.327 -14.658 0.373 0.38
7.389 -14.665 0.373 0.47
7.522 -14.813 0.375 0.3
7.547 -14.746 0.375 0.36
7.552 -14.643 0.374 0.44
7.428 -14.294 0.37 0.22
7.455 -14.237 0.37 0.26
7.48 -14.229 0.37 0.38
7.519 -14.195 0.37 0.43
7.573 -14.189 0.37 0.42
7.631 -14.191 0.37 0.29
8.015 -14.791 0.377 0.27
8.093 -14.824 0.378 0.35
8.149 -14.814 0.378 0.29
8.183 -14.82 0.378 0.27
8.238 -14.81 0.379 0.25
8.298 -14.809 0.379 0.37
8.352 -14.797 0.379 0.33
8.372 -14.723 0.378 0.35
8.349 -14.577 0.377 0.38
8.383 -14.53 0.377 0.44
8.415 -14.533 0.377 0.3
8.488 -14.553 0.378 0.4
8.549 -14.552 0.378 0.43
8.621 -14.57 0.378 0.37
8.663 -14.536 0.378 0.31
8.731 -14.546 0.379 0.4
8.803 -14.561 0.379 0.39
8.849 -14.587 0.38 0.38
8.916 -14.593 0.38 0.29
8.918 -14.493 0.379 0.4
8.974 -14.482 0.379 0.48
9.07 -14.535 0.38 0.35
9.145 -14.552 0.381 0.34
9.226 -14.579 0.382 0.45
9.266 -14.592 0.382 0.34
9.31 -14.561 0.382 0.33
9.331 -14.493 0.381 0.38
9.437 -14.556 0.383 0.44
9.477 -14.518 0.382 0.34
9.561 -14.546 0.383 0.38
9.599 -14.505 0.383 0.43
9.609 -14.471 0.383 0.39
9.679 -14.477 0.383 0.4
9.765 -14.507 0.384 0.38
9.835 -14.512 0.384 0.34
9.888 -14.491 0.385 0.48
9.982 -14.531 0.385 0.33
9.975 -14.424 0.384 0.43
10.054 -14.44 0.385 0.32
10.114 -14.478 0.386 0.35
10.132 -14.407 0.385 0.36
10.186 -14.388 0.385 0.35
10.244 -14.374 0.386 0.37
10.343 -14.417 0.387 0.35
10.401 -14.402 0.387 0.45
10.47 -14.449 0.388 0.37
10.559 -14.475 0.388 0.35
10.643 -14.495 0.389 0.32
10.685 -14.457 0.389 0.4
10.728 -14.42 0.389 0.36
10.825 -14.455 0.39 0.35
10.901 -14.461 0.39 0.46
10.907 -14.376 0.39 0.29
10.961 -14.4 0.39 0.41
11.031 -14.397 0.391 0.32
11.074 -14.359 0.39 0.43
11.127 -14.335 0.391 0.36
11.167 -14.294 0.391 0.47
11.264 -14.325 0.391 0.38
11.327 -14.311 0.392 0.32
11.349 -14.293 0.392 0.39
11.4 -14.265 0.392 0.4
11.506 -14.306 0.393 0.38
11.595 -14.324 0.393 0.45
11.704 -14.365 0.394 0.36
11.91 -14.524 0.397 0.19
11.815 -14.317 0.395 0.44
11.883 -14.353 0.396 0.31
11.928 -14.315 0.396 0.43
12.003 -14.314 0.396 0.38
12.066 -14.298 0.396 0.34
12.109 -14.257 0.396 0.34
12.25 -14.331 0.398 0.38
12.352 -14.359 0.399 0.39
12.414 -14.385 0.399 0.29
12.445 -14.329 0.399 0.41
12.532 -14.338 0.4 0.46
12.677 -14.413 0.401 0.39
12.707 -14.355 0.401 0.29
12.813 -14.384 0.402 0.25
12.806 -14.285 0.401 0.26
12.854 -14.294 0.402 0.49
13.071 -14.443 0.404 0.25
13.035 -14.313 0.403 0.39
13.122 -14.318 0.404 0.33
13.208 -14.32 0.404 0.33
13.293 -14.323 0.405 0.37
13.344 -14.287 0.405 0.39
13.391 -14.292 0.405 0.36
13.447 -14.261 0.405 0.36
13.542 -14.273 0.406 0.39
13.659 -14.305 0.407 0.33
13.676 -14.233 0.407 0.38
13.81 -14.282 0.408 0.34
13.892 -14.277 0.409 0.38
13.967 -14.309 0.409 0.34
14.02 -14.273 0.409 0.35
14.114 -14.279 0.41 0.4
14.2 -14.275 0.411 0.36
14.312 -14.298 0.412 0.34
14.335 -14.231 0.411 0.45
14.412 -14.218 0.412 0.32
14.471 -14.187 0.412 0.38
14.542 -14.211 0.413 0.36
14.615 -14.193 0.413 0.38
14.693 -14.179 0.414 0.33
14.831 -14.223 0.415 0.36
14.94 -14.237 0.416 0.32
14.976 -14.182 0.416 0.44
15.122 -14.23 0.417 0.27
15.178 -14.238 0.418 0.36
15.255 -14.22 0.418 0.33
15.335 -14.205 0.418 0.34
15.409 -14.184 0.419 0.36
15.449 -14.131 0.419 0.4
15.647 -14.222 0.421 0.26
15.739 -14.216 0.422 0.34
15.8 -14.226 0.422 0.4
15.905 -14.229 0.423 0.39
15.888 -14.125 0.422 0.28
16.153 -14.269 0.425 0.36
16.235 -14.252 0.426 0.44
16.277 -14.198 0.426 0.23
16.329 -14.153 0.426 0.37
16.359 -14.134 0.426 0.32
16.464 -14.135 0.427 0.36
16.622 -14.18 0.428 0.41
16.816 -14.254 0.43 0.2
16.84 -14.183 0.43 0.35
16.929 -14.168 0.43 0.3
16.955 -14.099 0.43 0.36
17.072 -14.151 0.431 0.34
17.205 -14.17 0.432 0.31
17.274 -14.136 0.433 0.31
17.272 -14.044 0.432 0.38
17.457 -14.104 0.434 0.3
17.563 -14.098 0.435 0.34
17.679 -14.1 0.436 0.34
17.715 -14.083 0.436 0.37
17.778 -14.042 0.436 0.3
17.852 -14.01 0.437 0.35
18.0 -14.035 0.438 0.34
18.074 -14.001 0.438 0.34
18.25 -14.046 0.44 0.31
18.329 -14.015 0.44 0.33
18.418 -14.037 0.441 0.29
18.485 -13.997 0.442 0.32
18.59 -13.984 0.442 0.32
18.676 -13.957 0.443 0.36
18.779 -13.942 0.444 0.28
18.806 -13.871 0.443 0.4
18.939 -13.877 0.445 0.28
19.137 -13.976 0.447 0.3
19.185 -13.919 0.447 0.34
19.257 -13.879 0.447 0.38
19.388 -13.881 0.448 0.26
19.502 -13.87 0.449 0.27
19.573 -13.828 0.449 0.35
19.697 -13.823 0.45 0.3
19.781 -13.835 0.451 0.34
19.865 -13.801 0.452 0.29
19.977 -13.787 0.453 0.36
20.237 -13.872 0.455 0.29
20.118 -13.698 0.453 0.27
20.471 -13.844 0.457 0.34
20.661 -13.877 0.459 0.19
20.674 -13.792 0.458 0.37
20.814 -13.838 0.46 0.38
20.978 -13.852 0.461 0.3
21.493 -14.095 0.467 0.22
21.601 -14.069 0.468 0.21
21.882 -14.154 0.471 0.18
21.869 -14.048 0.47 0.2
21.959 -14.008 0.47 0.51
22.214 -14.122 0.473 0.21
22.175 -14.0 0.472 0.21
22.401 -14.043 0.474 0.3
22.742 -14.158 0.478 0.16
22.839 -14.119 0.479 0.23
23.132 -14.199 0.482 0.16
23.288 -14.194 0.483 0.23
23.411 -14.219 0.484 0.24
23.569 -14.213 0.485 0.11
23.72 -14.203 0.487 0.14
23.804 -14.152 0.487 0.3
23.998 -14.165 0.489 0.21
24.073 -14.108 0.489 0.21
24.183 -14.07 0.49 0.3
24.526 -14.218 0.494 0.09
24.724 -14.229 0.495 0.15
24.814 -14.177 0.496 0.19
24.792 -14.062 0.495 0.25
24.845 -13.989 0.495 0.22
24.905 -13.919 0.496 0.0
25.288 -14.029 0.499 0.0
25.734 -14.223 0.504 0.0
25.922 -14.221 0.506 0.0
26.112 -14.218 0.508 0.08
26.319 -14.224 0.51 0.14
26.492 -14.21 0.511 0.09
26.68 -14.202 0.513 0.09
26.875 -14.198 0.514 0.0
27.037 -14.229 0.516 0.0
27.244 -14.229 0.518 0.0
27.46 -14.232 0.52 0.0
27.632 -14.211 0.521 0.0
27.864 -14.219 0.523 0.07
28.082 -14.219 0.525 0.0
28.101 -14.118 0.525 0.0
28.236 -14.131 0.526 0.0
28.468 -14.135 0.528 0.0
28.796 -14.185 0.532 0.0
29.098 -14.22 0.534 0.0
29.299 -14.204 0.536 0.0
29.533 -14.203 0.538 0.0
29.768 -14.201 0.541 0.0
29.95 -14.23 0.542 0.0
30.193 -14.229 0.545 0.0
30.441 -14.229 0.547 0.0
30.687 -14.226 0.549 0.0
30.904 -14.209 0.551 0.0
31.182 -14.218 0.554 0.0
31.403 -14.2 0.555 0.0
31.648 -14.25 0.558 0.0
31.877 -14.233 0.56 0.0
32.143 -14.231 0.562 0.0
32.415 -14.229 0.565 0.0
32.67 -14.219 0.567 0.0
25.422 -10.881 0.487 0.29
25.437 -10.84 0.487 0.0
33.753 -14.25 0.577 0.0
34.008 -14.232 0.58 0.0
34.265 -14.213 0.582 0.0
34.584 -14.218 0.585 0.0
34.863 -14.205 0.588 0.0
35.071 -14.161 0.589 0.0
35.212 -14.089 0.59 0.0
35.5 -14.14 0.593 0.0
36.056 -14.229 0.599 0.0
36.378 -14.224 0.602 0.0
36.745 -14.235 0.605 0.0
37.031 -14.212 0.608 0.0
37.359 -14.203 0.611 0.0
37.711 -14.201 0.614 0.0
38.031 -14.253 0.618 0.0
38.381 -14.247 0.621 0.0
38.724 -14.236 0.624 0.0
39.079 -14.227 0.627 0.0
39.471 -14.229 0.631 0.0
39.846 -14.223 0.635 0.0
40.211 -14.21 0.638 0.0
40.573 -14.266 0.642 0.0
40.989 -14.268 0.646 0.0
41.359 -14.251 0.649 0.0
41.754 -14.24 0.653 0.0
42.149 -14.227 0.657 0.0
42.423 -14.171 0.659 0.0
42.677 -14.107 0.661 0.0
43.411 -14.274 0.669 0.0
43.861 -14.269 0.673 0.0
44.281 -14.251 0.677 0.0
44.733 -14.242 0.682 0.0
45.197 -14.233 0.686 0.0
45.639 -14.215 0.69 0.0
46.135 -14.21 0.695 0.0
46.593 -14.271 0.7 0.0
47.059 -14.252 0.704 0.0
47.546 -14.236 0.709 0.0
48.076 -14.23 0.714 0.0
48.567 -14.209 0.719 0.0
49.094 -14.196 0.724 0.0
49.625 -14.18 0.729 0.0
49.838 -14.156 0.731 0.0
50.685 -14.225 0.739 0.0
51.306 -14.225 0.745 0.0
33.89 -9.176 0.562 0.0
53.175 -14.204 0.763 0.0
53.799 -14.189 0.769 0.0
54.479 -14.277 0.776 0.0
55.803 -14.249 0.789 0.0
59.553 -14.311 0.826 0.0
45.458 -10.629 0.679 0.0
45.522 -10.493 0.679 0.0
62.662 -14.227 0.856 0.0
64.031 -13.588 0.869 0.0
57.709 -2.1 0.791 0.86
57.699 -1.918 0.791 0.72
57.807 -1.74 0.792 0.0
69.889 13.03 0.431 0.0
69.838 13.247 0.431 0.0
65.549 13.291 0.418 0.0
53.435 13.132 0.38 0.0
53.236 13.26 0.38 0.0
47.595 13.056 0.362 0.14
47.518 13.115 0.362 0.0
47.577 13.292 0.363 0.0
67.536 20.006 0.429 0.0
67.518 20.116 0.429 0.0
54.229 17.752 0.387 0.0
37.641 12.922 0.332 0.16
37.568 13.029 0.332 0.24
37.527 13.147 0.332 0.0
37.559 13.291 0.332 0.0
52.707 19.294 0.384 0.15
52.841 19.532 0.384 0.17
53.023 19.788 0.385 0.0
47.172 19.403 0.368 0.18
46.893 19.461 0.367 0.37
46.639 19.442 0.366 0.2
46.331 19.484 0.365 0.25
46.052 19.538 0.364 0.21
45.775 19.59 0.364 0.2
45.495 19.64 0.363 0.38
45.207 19.685 0.362 0.23
44.951 19.741 0.362 0.19
44.695 19.713 0.361 0.4
44.413 19.756 0.36 0.24
44.154 19.807 0.359 0.2
43.889 19.854 0.359 0.41
43.63 19.902 0.358 0.24
43.353 19.941 0.357 0.18
43.101 19.99 0.357 0.29
42.879 19.969 0.356 0.18
42.608 20.006 0.355 0.34
27.669 13.108 0.303 0.17
27.527 13.146 0.303 0.25
27.424 13.203 0.303 0.31
27.411 13.303 0.303 0.42
27.483 13.445 0.303 0.32
41.177 20.21 0.351 0.2
41.088 20.327 0.351 0.25
41.241 20.564 0.352 0.19
40.609 20.569 0.35 0.0
39.762 20.455 0.348 0.23
39.575 20.438 0.347 0.25
39.38 20.494 0.347 0.19
39.304 20.612 0.347 0.36
39.213 20.721 0.347 0.52
38.879 20.859 0.346 0.0
38.506 20.814 0.345 0.13
38.067 20.655 0.343 0.22
37.863 20.698 0.343 0.27
37.647 20.734 0.342 0.26
37.541 20.83 0.342 0.29
37.317 20.859 0.342 0.19
37.133 20.91 0.341 0.0
36.908 20.937 0.341 0.09
34.154 19.448 0.331 0.21
34.147 19.586 0.331 0.22
34.116 19.711 0.331 0.14
33.983 19.777 0.331 0.38
33.459 19.613 0.329 0.21
33.305 19.664 0.329 0.18
33.352 19.833 0.329 0.29
32.992 19.69 0.328 0.2
32.927 19.791 0.328 0.17
32.704 19.797 0.327 0.32
32.812 20.004 0.328 0.18
32.367 19.873 0.327 0.26
32.296 19.969 0.327 0.18
32.193 20.045 0.326 0.16
32.091 20.052 0.326 0.3
32.196 20.258 0.327 0.15
31.693 20.081 0.325 0.14
31.243 19.935 0.324 0.14
31.483 20.227 0.325 0.16
31.306 20.252 0.324 0.17
31.188 20.315 0.324 0.33
35.878 23.446 0.342 0.22
35.901 23.622 0.342 0.25
35.921 23.798 0.343 0.27
35.881 23.934 0.343 0.33
35.891 24.103 0.343 0.29
35.908 24.278 0.343 0.29
35.937 24.463 0.344 0.29
35.938 24.629 0.344 0.31
35.985 24.744 0.344 0.19
23.926 16.573 0.299 0.34
23.882 16.654 0.299 0.26
23.737 16.665 0.298 0.32
23.544 16.64 0.298 0.35
23.451 16.685 0.298 0.36
22.767 16.308 0.295 0.31
22.521 16.185 0.294 0.24
22.291 16.127 0.294 0.31
22.087 16.085 0.293 0.29
22.073 16.181 0.293 0.39
22.042 16.265 0.293 0.3
21.978 16.325 0.293 0.38
22.053 16.488 0.294 0.32
22.128 16.598 0.294 0.37
22.114 16.696 0.294 0.18
21.595 16.412 0.292 0.3
21.492 16.441 0.292 0.36
21.662 16.679 0.293 0.27
21.346 16.542 0.292 0.4
21.355 16.657 0.292 0.29
21.237 16.619 0.292 0.26
21.279 16.76 0.292 0.29
21.373 16.942 0.293 0.28
21.203 16.917 0.292 0.19
21.108 16.95 0.292 0.44
21.157 17.099 0.293 0.28
21.142 17.197 0.293 0.36
20.994 17.132 0.292 0.25
20.854 17.126 0.292 0.27
21.001 17.357 0.293 0.52
21.862 18.183 0.296 0.23
21.003 17.583 0.293 0.17
19.303 16.369 0.287 0.99
19.25 16.376 0.286 0.99
19.183 16.424 0.286 0.99
19.122 16.476 0.286 0.99
19.095 16.557 0.286 0.99
19.018 16.596 0.286 0.99
18.966 16.655 0.286 0.99
18.909 16.711 0.286 0.99
19.057 16.894 0.287 0.7
20.627 18.4 0.294 0.23
20.794 18.666 0.295 0.43
21.342 19.278 0.297 0.19
20.49 18.627 0.294 0.3
20.253 18.528 0.293 0.27
20.249 18.642 0.294 0.36
20.067 18.65 0.293 0.52
20.352 19.034 0.295 0.24
20.229 19.039 0.294 0.18
20.489 19.404 0.296 0.4
20.264 19.313 0.295 0.19
20.201 19.374 0.295 0.26
20.71 19.986 0.298 0.16
21.11 20.436 0.299 0.15
19.943 19.43 0.295 0.25
19.789 19.401 0.294 0.36
19.822 19.556 0.295 0.26
19.841 19.699 0.295 0.3
19.587 19.569 0.294 0.3
19.599 19.704 0.294 0.38
19.702 19.869 0.295 0.32
19.662 19.954 0.295 0.28
19.505 19.92 0.295 0.25
19.474 20.014 0.295 0.41
19.534 20.202 0.295 0.33
19.727 20.529 0.297 0.21
19.647 20.575 0.296 0.31
19.694 20.689 0.297 0.2
19.738 20.867 0.297 0.49
19.877 21.145 0.298 0.22
19.767 21.161 0.298 0.26
19.783 21.312 0.298 0.33
19.606 21.255 0.298 0.25
19.56 21.339 0.298 0.32
19.573 21.421 0.298 0.34
19.569 21.552 0.299 0.19
19.579 21.7 0.299 0.5
19.843 22.13 0.3 0.1
38.692 43.389 0.39 0.15
38.735 43.712 0.391 0.0
46.853 53.201 0.43 0.0
46.691 53.186 0.43 0.0
46.44 53.236 0.43 0.0
46.191 53.288 0.429 0.0
39.206 45.814 0.397 0.0
39.084 45.963 0.397 0.0
39.456 46.845 0.4 0.18
39.281 46.937 0.4 0.32
39.297 47.256 0.401 0.11
39.348 47.62 0.402 0.15
39.378 47.963 0.402 0.12
39.5 48.421 0.404 0.08
39.535 48.775 0.405 0.08
39.588 49.156 0.406 0.2
39.649 49.389 0.406 0.19
39.662 49.725 0.407 0.0
27.471 34.676 0.346 0.07
26.227 33.322 0.34 0.17
26.207 33.513 0.341 0.2
26.251 33.788 0.342 0.14
26.107 33.821 0.341 0.14
26.031 33.832 0.341 0.12
10.894 14.276 0.263 0.2
10.82 14.271 0.263 0.25
10.787 14.321 0.263 0.23
10.724 14.331 0.263 0.55
10.688 14.378 0.263 0.5
10.662 14.437 0.263 0.29
10.688 14.52 0.264 0.14
10.622 14.526 0.264 0.41
10.719 14.754 0.264 0.41
10.637 14.738 0.264 0.23
10.33 14.409 0.263 0.49
10.417 14.627 0.263 0.4
10.415 14.722 0.264 0.28
10.257 14.596 0.263 0.35
10.176 14.53 0.263 0.29
10.266 14.755 0.263 0.43
10.12 14.645 0.263 0.36
10.123 14.747 0.263 0.43
10.147 14.881 0.264 0.23
10.52 15.532 0.266 0.33
10.187 15.144 0.264 0.37
10.157 15.15 0.264 0.23
9.956 14.952 0.263 0.49
9.894 14.962 0.263 0.34
9.775 14.882 0.263 0.45
9.407 14.423 0.261 0.41
9.385 14.487 0.261 0.22
9.374 14.57 0.261 0.26
9.393 14.651 0.262 0.49
9.528 14.963 0.263 0.15
9.657 15.272 0.264 0.24
9.538 15.189 0.263 0.54
9.549 15.312 0.264 0.24
9.503 15.345 0.264 0.3
9.457 15.38 0.264 0.44
10.979 17.91 0.273 0.29
9.432 15.501 0.264 0.21
10.833 17.924 0.273 0.52
9.688 16.148 0.266 0.25
9.622 16.153 0.266 0.3
9.524 16.104 0.266 0.36
10.525 17.919 0.272 0.31
10.486 17.916 0.272 0.23
10.412 17.92 0.272 0.38
10.333 17.913 0.272 0.37
10.259 17.914 0.272 0.38
10.186 17.918 0.272 0.39
10.11 17.915 0.272 0.39
10.041 17.924 0.272 0.39
9.966 17.923 0.271 0.45
9.934 17.931 0.271 0.25
9.868 17.945 0.271 0.57
9.829 18.007 0.271 0.34
9.751 17.998 0.271 0.46
9.687 18.016 0.271 0.36
9.608 18.004 0.271 0.47
9.545 18.022 0.271 0.36
9.495 17.996 0.271 0.47
9.432 18.013 0.271 0.38
9.354 18.002 0.271 0.5
9.291 18.019 0.271 0.36
9.214 18.009 0.271 0.47
9.148 18.018 0.271 0.37
9.07 18.006 0.27 0.49
9.036 18.007 0.27 0.38
8.934 17.946 0.27 0.53
8.849 17.915 0.27 0.41
8.784 17.925 0.27 0.41
8.711 17.92 0.27 0.4
8.646 17.929 0.27 0.41
8.576 17.928 0.269 0.41
8.509 17.931 0.269 0.42
8.474 17.932 0.269 0.42
8.404 17.927 0.269 0.41
8.339 17.936 0.269 0.4
8.269 17.933 0.269 0.41
8.198 17.926 0.269 0.4
8.136 17.941 0.269 0.41
8.064 17.931 0.269 0.41
8.029 17.928 0.269 0.34
7.96 17.925 0.269 0.52
6.775 15.396 0.26 0.36
6.716 15.392 0.26 0.36
6.657 15.389 0.26 0.34
6.601 15.394 0.26 0.36
6.547 15.399 0.26 0.34
6.52 15.404 0.26 0.18
6.485 15.456 0.26 0.49
6.429 15.458 0.26 0.45
6.373 15.461 0.26 0.45
6.315 15.457 0.259 0.45
6.263 15.47 0.259 0.46
6.205 15.467 0.259 0.45
6.174 15.46 0.259 0.46
6.118 15.459 0.259 0.46
6.06 15.456 0.259 0.47
6.003 15.452 0.259 0.48
5.949 15.458 0.259 0.48
5.896 15.463 0.259 0.49
5.839 15.461 0.259 0.48
5.809 15.454 0.259 0.48
5.754 15.455 0.259 0.46
5.698 15.452 0.259 0.48
5.642 15.451 0.259 0.5
5.589 15.458 0.259 0.49
5.536 15.462 0.259 0.51
5.48 15.459 0.259 0.5
5.427 15.463 0.258 0.5
5.398 15.458 0.258 0.49
5.347 15.469 0.258 0.49
5.29 15.459 0.258 0.5
5.233 15.451 0.258 0.5
5.182 15.46 0.258 0.5
5.127 15.457 0.258 0.5
5.073 15.458 0.258 0.5
5.048 15.462 0.258 0.5
4.989 15.448 0.258 0.5
4.936 15.45 0.258 0.5
4.888 15.465 0.258 0.5
4.83 15.452 0.258 0.47
4.781 15.467 0.258 0.49
4.728 15.465 0.258 0.48
4.697 15.453 0.258 0.49
4.648 15.464 0.258 0.5
4.592 15.455 0.258 0.5
4.539 15.453 0.258 0.51
4.489 15.463 0.258 0.49
4.435 15.46 0.258 0.5
4.379 15.447 0.257 0.64
4.322 15.431 0.257 0.49
4.281 15.378 0.257 0.39
4.231 15.384 0.257 0.32
4.179 15.384 0.257 0.35
4.128 15.389 0.257 0.39
4.077 15.39 0.257 0.26
4.089 15.633 0.258 0.58
3.999 15.489 0.257 0.24
4.021 15.676 0.258 0.21
4.022 15.884 0.258 0.4
4.021 16.09 0.259 0.22
4.02 16.303 0.26 0.21
4.016 16.51 0.26 0.26
4.015 16.73 0.261 0.2
4.015 16.965 0.262 0.2
4.013 17.195 0.262 0.37
4.04 17.433 0.263 0.19
4.036 17.668 0.264 0.15
4.036 17.926 0.265 0.47
3.949 17.799 0.264 0.24
3.91 17.891 0.265 0.14
3.861 17.936 0.265 0.46
3.805 17.948 0.265 0.38
3.774 17.941 0.265 0.47
3.716 17.947 0.265 0.37
3.656 17.94 0.265 0.45
3.599 17.946 0.264 0.37
3.54 17.943 0.264 0.45
3.484 17.958 0.264 0.37
3.423 17.944 0.264 0.45
3.394 17.945 0.264 0.38
3.334 17.94 0.264 0.45
3.278 17.95 0.264 0.38
3.219 17.945 0.264 0.46
3.162 17.955 0.264 0.38
3.101 17.935 0.264 0.46
3.046 17.955 0.264 0.38
2.986 17.944 0.264 0.46
2.958 17.951 0.264 0.37
2.901 17.954 0.264 0.39
2.842 17.946 0.264 0.38
2.785 17.951 0.264 0.46
2.727 17.949 0.264 0.38
2.668 17.944 0.264 0.46
2.612 17.954 0.264 0.38
2.582 17.942 0.264 0.46
2.524 17.943 0.264 0.37
2.468 17.95 0.264 0.46
2.41 17.946 0.264 0.38
2.353 17.95 0.264 0.47
2.296 17.953 0.264 0.37
2.237 17.938 0.264 0.46
2.21 17.954 0.264 0.37
2.151 17.941 0.264 0.47
2.096 17.953 0.264 0.38
2.037 17.944 0.264 0.46
1.982 17.962 0.264 0.3
1.924 17.95 0.264 0.48
1.868 17.958 0.264 0.38
1.839 17.951 0.264 0.39
1.781 17.947 0.264 0.38
1.725 17.951 0.264 0.38
1.668 17.956 0.264 0.38
1.611 17.953 0.264 0.39
1.554 17.956 0.264 0.39
1.497 17.951 0.264 0.39
1.44 17.952 0.264 0.39
1.413 17.958 0.264 0.38
1.355 17.946 0.264 0.45
1.298 17.948 0.264 0.37
1.241 17.942 0.263 0.45
1.186 17.956 0.264 0.38
1.129 17.958 0.264 0.38
1.072 17.951 0.263 0.46
1.044 17.955 0.263 0.38
0.987 17.956 0.263 0.45
0.931 17.959 0.263 0.37
0.874 17.948 0.263 0.45
0.818 17.953 0.263 0.38
0.761 17.949 0.263 0.46
0.705 17.959 0.263 0.38
0.676 17.945 0.263 0.45
0.62 17.965 0.263 0.38
0.564 17.958 0.263 0.38
0.507 17.946 0.263 0.45
0.451 17.97 0.263 0.38
0.394 17.953 0.263 0.45
0.338 17.964 0.263 0.37
0.281 17.945 0.263 0.46
0.253 17.961 0.263 0.36
0.197 17.956 0.263 0.45
0.14 17.957 0.263 0.38
0.084 17.957 0.263 0.46
0.027 17.941 0.263 0.45
-0.029 15.681 0.256 0.34
-0.078 15.671 0.256 0.38
-0.102 15.667 0.256 0.41
-0.152 15.701 0.256 0.32
-0.227 17.962 0.263 0.17
-0.283 17.977 0.263 0.41
-0.34 17.968 0.263 0.52
-0.396 17.975 0.263 0.39
-0.452 17.968 0.263 0.46
-0.481 17.965 0.263 0.58
-0.536 17.943 0.263 0.68
-0.594 17.975 0.263 0.39
-0.65 17.967 0.263 0.52
-0.707 17.979 0.264 0.4
-0.764 17.979 0.264 0.41
-0.82 17.975 0.264 0.41
-0.848 17.967 0.264 0.54
-0.905 17.98 0.264 0.4
-0.962 17.976 0.264 0.41
-1.018 17.978 0.264 0.43
-1.074 17.961 0.264 0.54
-1.132 17.976 0.264 0.4
-1.188 17.966 0.264 0.53
-1.245 17.974 0.264 0.4
-1.273 17.966 0.264 0.53
-1.33 17.978 0.264 0.39
-1.387 17.978 0.264 0.41
-1.444 17.973 0.264 0.53
-1.5 17.971 0.264 0.4
-1.557 17.972 0.264 0.41
-1.615 17.977 0.264 0.41
-1.643 17.972 0.264 0.41
-1.7 17.975 0.264 0.41
-1.758 17.984 0.264 0.41
-1.814 17.972 0.264 0.54
-1.872 17.982 0.264 0.4
-1.928 17.98 0.264 0.41
-1.985 17.974 0.264 0.41
-2.013 17.971 0.264 0.41
-2.071 17.978 0.264 0.41
-2.128 17.978 0.264 0.42
-2.186 17.981 0.264 0.41
-2.241 17.964 0.264 0.53
-2.301 17.983 0.264 0.4
-2.356 17.965 0.264 0.52
-2.414 17.972 0.264 0.39
-2.444 17.98 0.264 0.41
-2.5 17.966 0.264 0.53
-2.559 17.974 0.264 0.4
-2.616 17.974 0.264 0.41
-2.674 17.977 0.264 0.41
-2.732 17.977 0.264 0.41
-2.79 17.976 0.264 0.41
-2.819 17.978 0.264 0.41
-2.878 17.988 0.264 0.41
-2.935 17.977 0.264 0.42
-2.991 17.966 0.264 0.41
-3.05 17.97 0.264 0.54
-3.109 17.976 0.264 0.4
-3.166 17.969 0.264 0.54
-3.226 17.982 0.264 0.4
-3.252 17.963 0.264 0.53
-3.315 17.988 0.264 0.4
-3.37 17.97 0.264 0.52
-3.43 17.979 0.264 0.4
-3.489 17.98 0.265 0.41
-3.544 17.965 0.265 0.53
-3.606 17.979 0.265 0.39
-3.635 17.977 0.265 0.41
-3.695 17.986 0.265 0.41
-3.75 17.966 0.265 0.52
-3.812 17.98 0.265 0.39
-3.87 17.973 0.265 0.52
-3.929 17.975 0.265 0.4
-3.99 17.982 0.265 0.44
-4.032 18.038 0.265 0.63
-4.042 17.819 0.264 0.28
-4.196 17.972 0.265 0.54
-4.242 17.918 0.265 0.59
-4.25 17.702 0.264 0.3
-4.254 17.475 0.263 0.33
-4.254 17.236 0.263 0.32
-4.231 17.027 0.262 0.29
-4.235 16.816 0.261 0.3
-4.236 16.597 0.261 0.3
-4.241 16.402 0.26 0.27
-4.247 16.212 0.26 0.38
-4.248 16.011 0.259 0.34
-4.254 15.83 0.258 0.37
-4.231 15.645 0.258 0.27
-4.235 15.468 0.257 0.18
-4.275 15.424 0.257 0.4
-4.326 15.418 0.257 0.39
-4.379 15.42 0.257 0.4
-4.43 15.417 0.257 0.39
-4.482 15.413 0.257 0.4
-4.51 15.421 0.257 0.39
-4.56 15.411 0.257 0.48
-4.618 15.429 0.258 0.31
-4.663 15.403 0.258 0.55
-4.725 15.432 0.258 0.28
-4.772 15.414 0.258 0.48
-4.826 15.418 0.258 0.38
-4.879 15.416 0.258 0.39
-4.905 15.416 0.258 0.48
-4.96 15.419 0.258 0.37
-5.011 15.413 0.258 0.48
-5.069 15.426 0.258 0.38
-5.12 15.417 0.258 0.39
-5.172 15.411 0.258 0.47
-5.227 15.415 0.258 0.37
-5.255 15.418 0.258 0.48
-5.311 15.424 0.258 0.37
-5.365 15.423 0.258 0.39
-5.419 15.421 0.258 0.47
-5.472 15.419 0.258 0.37
-5.527 15.419 0.258 0.48
-5.585 15.428 0.259 0.36
-5.614 15.434 0.259 0.39
-5.666 15.424 0.259 0.47
-5.724 15.432 0.259 0.38
-5.776 15.423 0.259 0.45
-5.833 15.429 0.259 0.38
-5.887 15.424 0.259 0.46
-5.94 15.419 0.259 0.36
-5.997 15.42 0.259 0.45
-6.034 15.444 0.259 0.3
-6.082 15.425 0.259 0.52
-6.14 15.429 0.259 0.29
-6.161 15.34 0.259 0.39
-6.209 15.321 0.259 0.37
-6.25 15.285 0.259 0.57
-6.312 15.298 0.259 0.34
-6.399 15.442 0.259 0.38
-6.454 15.438 0.26 0.39
-6.51 15.435 0.26 0.45
-6.572 15.445 0.26 0.35
-6.622 15.43 0.26 0.46
-6.687 15.448 0.26 0.37
-6.742 15.441 0.26 0.39
-6.799 15.439 0.26 0.38
-6.829 15.441 0.26 0.39
-6.885 15.436 0.26 0.45
-6.947 15.445 0.26 0.37
-7.001 15.436 0.26 0.46
-8.228 18.0 0.269 0.34
-8.293 17.994 0.269 0.47
-8.362 17.993 0.269 0.37
-8.399 18.0 0.269 0.48
-8.472 18.008 0.27 0.36
-8.533 17.99 0.27 0.47
-8.604 17.994 0.27 0.35
-8.672 17.992 0.27 0.47
-8.746 18.001 0.27 0.36
-8.813 17.995 0.27 0.47
-8.86 18.019 0.27 0.36
-8.924 18.005 0.27 0.45
-8.995 18.008 0.27 0.36
-9.063 18.001 0.27 0.46
-9.137 18.008 0.27 0.36
-9.201 17.993 0.271 0.46
-9.278 18.003 0.271 0.35
-9.345 17.995 0.271 0.47
-9.39 18.013 0.271 0.36
-9.46 18.01 0.271 0.47
-9.536 18.015 0.271 0.35
-9.601 18.001 0.271 0.47
-9.678 18.01 0.271 0.36
-9.745 17.998 0.271 0.47
-9.823 18.008 0.271 0.35
-9.864 18.016 0.272 0.47
-9.937 18.014 0.272 0.37
-10.008 18.009 0.272 0.47
-10.084 18.013 0.272 0.35
-10.149 17.997 0.272 0.46
-10.231 18.008 0.272 0.35
-10.3 17.998 0.272 0.46
-10.356 18.031 0.272 0.35
-10.418 18.007 0.272 0.45
-10.504 18.026 0.273 0.35
-10.565 18.0 0.273 0.45
-10.649 18.013 0.273 0.35
-10.721 18.005 0.273 0.45
-10.8 18.009 0.273 0.35
-10.873 18.003 0.273 0.45
-10.923 18.021 0.273 0.35
-10.99 18.004 0.273 0.54
-11.075 18.016 0.273 0.34
-11.141 17.996 0.274 0.55
-11.223 18.003 0.274 0.31
-11.287 17.98 0.274 0.49
-11.372 17.988 0.274 0.37
-11.422 18.006 0.274 0.39
-11.507 18.014 0.274 0.4
-11.581 18.004 0.274 0.48
-11.661 18.005 0.274 0.38
-11.741 18.005 0.275 0.39
-11.821 18.003 0.275 0.39
-11.891 17.986 0.275 0.45
-11.979 17.997 0.275 0.38
-12.024 18.003 0.275 0.47
-12.108 18.007 0.275 0.37
-12.188 18.003 0.275 0.45
-12.274 18.008 0.276 0.38
-12.35 17.997 0.276 0.39
-12.427 17.988 0.276 0.45
-12.517 17.998 0.276 0.38
-12.572 18.016 0.276 0.39
-12.649 18.006 0.276 0.45
-12.74 18.016 0.276 0.32
-12.857 18.06 0.277 0.62
-11.095 15.475 0.267 0.2
-11.12 15.408 0.267 0.37
-11.168 15.373 0.267 0.35
-13.129 18.02 0.277 0.17
-13.208 18.009 0.277 0.45
-13.295 18.009 0.277 0.38
-13.38 18.006 0.278 0.45
-13.476 18.017 0.278 0.37
-13.553 18.002 0.278 0.45
-13.64 17.999 0.278 0.37
-13.733 18.004 0.278 0.44
-13.788 18.017 0.278 0.37
-13.871 18.008 0.278 0.44
-13.968 18.017 0.279 0.36
-14.049 18.005 0.279 0.45
-14.141 18.006 0.279 0.36
-14.232 18.005 0.279 0.43
-14.321 18.001 0.279 0.36
-14.377 18.013 0.279 0.43
-14.477 18.023 0.28 0.35
-14.559 18.008 0.28 0.43
-14.656 18.012 0.28 0.41
-14.744 18.005 0.28 0.42
-14.838 18.005 0.28 0.42
-14.933 18.004 0.281 0.35
-14.995 18.021 0.281 0.43
-15.091 18.021 0.281 0.37
-15.23 18.072 0.281 0.6
-15.175 17.892 0.281 0.16
-15.35 17.983 0.281 0.38
-15.366 17.888 0.281 0.22
-15.355 17.762 0.281 0.53
-15.199 17.525 0.28 0.22
-15.285 17.513 0.28 0.16
-15.37 17.5 0.28 0.37
-15.364 17.382 0.28 0.35
-15.367 17.276 0.28 0.34
-15.372 17.172 0.279 0.33
-15.368 17.06 0.279 0.33
-15.372 16.956 0.279 0.3
-15.361 16.891 0.279 0.33
-15.358 16.78 0.279 0.35
-15.359 16.676 0.278 0.34
-15.37 16.584 0.278 0.29
-15.358 16.467 0.278 0.32
-15.359 16.364 0.278 0.32
-15.374 16.277 0.277 0.38
-15.348 16.199 0.277 0.3
-15.351 16.1 0.277 0.38
-15.36 16.008 0.277 0.32
-15.351 15.898 0.276 0.36
-15.352 15.799 0.276 0.3
-15.358 15.706 0.276 0.32
-15.357 15.607 0.276 0.38
-15.362 15.514 0.276 0.3
-15.367 15.47 0.276 0.32
-15.455 15.462 0.276 0.34
-15.56 15.469 0.276 0.39
-15.661 15.472 0.276 0.34
-15.741 15.454 0.276 0.3
-15.842 15.456 0.277 0.35
-15.943 15.457 0.277 0.38
-16.004 15.468 0.277 0.3
-16.112 15.474 0.277 0.32
-16.208 15.469 0.277 0.32
-16.307 15.466 0.278 0.39
-16.407 15.463 0.278 0.35
-16.509 15.462 0.278 0.29
-16.604 15.454 0.278 0.36
-16.692 15.486 0.279 0.31
-16.792 15.481 0.279 0.37
-16.896 15.48 0.279 0.34
-16.998 15.475 0.279 0.35
-17.098 15.469 0.279 0.29
-17.208 15.47 0.28 0.33
-17.314 15.468 0.28 0.35
-17.415 15.46 0.28 0.34
-17.502 15.488 0.28 0.33
-17.611 15.486 0.281 0.33
-17.72 15.483 0.281 0.32
-17.821 15.474 0.281 0.3
-17.944 15.482 0.282 0.35
-18.06 15.484 0.282 0.37
-18.15 15.462 0.282 0.18
-21.231 18.035 0.295 0.36
-21.37 18.038 0.295 0.37
-21.494 18.027 0.295 0.36
-21.633 18.029 0.296 0.36
-21.767 18.025 0.296 0.36
-21.898 18.017 0.296 0.36
-22.028 18.009 0.296 0.36
-22.139 18.042 0.297 0.36
-22.276 18.038 0.297 0.39
-22.409 18.029 0.297 0.32
-23.958 19.154 0.303 0.37
-23.965 19.036 0.303 0.37
-23.968 18.916 0.303 0.38
-23.978 18.802 0.303 0.38
-23.977 18.68 0.303 0.38
-23.95 18.598 0.302 0.38
-23.943 18.473 0.302 0.39
-23.954 18.361 0.302 0.4
-23.962 18.248 0.302 0.37
-23.963 18.13 0.302 0.39
-23.964 18.013 0.301 0.38
-23.968 17.898 0.301 0.39
-23.948 17.825 0.301 0.38
-23.943 17.704 0.301 0.39
-23.937 17.584 0.3 0.4
-23.947 17.475 0.3 0.4
-23.948 17.361 0.3 0.4
-23.949 17.247 0.3 0.38
-23.954 17.137 0.3 0.42
-23.95 17.077 0.3 0.45
-21.324 15.1 0.289 0.3
-21.373 15.034 0.289 0.26
-24.767 17.311 0.302 0.24
-24.909 17.293 0.302 0.38
-25.07 17.289 0.303 0.37
-25.236 17.287 0.303 0.36
-25.393 17.278 0.304 0.36
-25.536 17.316 0.304 0.37
-25.699 17.31 0.304 0.36
-25.868 17.306 0.305 0.35
-26.031 17.296 0.305 0.37
-26.203 17.293 0.306 0.36
-26.38 17.291 0.306 0.35
-26.553 17.285 0.307 0.34
-26.701 17.322 0.307 0.35
-26.877 17.317 0.308 0.34
-27.06 17.315 0.308 0.34
-27.237 17.308 0.309 0.34
-27.408 17.296 0.309 0.37
-27.598 17.295 0.309 0.36
-27.781 17.289 0.31 0.36
-27.937 17.325 0.31 0.36
-28.131 17.323 0.311 0.36
-28.313 17.313 0.311 0.31
-28.506 17.308 0.312 0.46
-28.564 17.221 0.312 0.14
-28.897 17.299 0.313 0.33
-29.096 17.294 0.313 0.33
-29.274 17.338 0.314 0.32
-29.468 17.328 0.315 0.32
-29.674 17.324 0.315 0.32
-29.879 17.318 0.316 0.37
-30.089 17.314 0.316 0.32
-30.293 17.305 0.317 0.37
-30.496 17.295 0.317 0.31
-30.714 17.291 0.318 0.35
-30.898 17.331 0.318 0.3
-31.129 17.332 0.319 0.35
-31.343 17.323 0.32 0.29
-31.56 17.314 0.32 0.41
-31.739 17.282 0.321 0.27
-31.744 17.156 0.321 0.0
-31.953 17.139 0.321 0.03
-32.112 17.16 0.322 0.0
-32.562 17.139 0.323 0.15
-32.582 17.019 0.323 0.3
-32.508 16.85 0.322 0.37
-32.612 16.774 0.322 0.18
-28.669 14.629 0.308 0.12
-32.606 16.513 0.322 0.29
-32.516 16.403 0.322 0.37
