# .PCD v.7 - Point Cloud Data file format
VERSION .7
FIELDS x y z intensity
SIZE 4 4 4 4
TYPE F F F F
COUNT 1 1 1 1
WIDTH 1938
HEIGHT 1
VIEWPOINT 0 0 0 1 0 0 0
POINTS 1938
DATA ascii
9.82 -1.038 -1.627 0.25
9.809 -1.005 -1.625 0.18
9.824 -0.976 -1.627 0.28
9.821 -0.944 -1.626 0.24
9.821 -0.929 -1.625 0.2
9.841 -0.899 -1.629 0.27
9.838 -0.868 -1.628 0.23
9.835 -0.837 -1.626 0.18
9.845 -0.806 -1.628 0.26
9.848 -0.775 -1.628 0.2
9.85 -0.744 -1.628 0.25
9.857 -0.729 -1.629 0.18
9.85 -0.698 -1.627 0.25
9.852 -0.667 -1.627 0.18
9.858 -0.636 -1.628 0.24
9.848 -0.604 -1.626 0.22
9.864 -0.574 -1.628 0.17
9.869 -0.543 -1.629 0.27
9.852 -0.527 -1.626 0.22
9.844 -0.496 -1.624 0.17
9.856 -0.465 -1.626 0.26
9.843 -0.434 -1.623 0.23
9.839 -0.402 -1.622 0.2
9.859 -0.372 -1.626 0.27
9.847 -0.341 -1.623 0.25
9.866 -0.31 -1.626 0.16
9.86 -0.295 -1.625 0.29
9.837 -0.263 -1.621 0.25
9.848 -0.232 -1.623 0.28
9.845 -0.201 -1.622 0.27
9.843 -0.171 -1.622 0.29
9.846 -0.14 -1.622 0.26
9.852 -0.109 -1.623 0.3
9.842 -0.093 -1.622 0.31
9.86 -0.062 -1.625 0.26
9.835 -0.031 -1.62 0.19
9.839 -0.0 -1.621 0.3
9.489 0.016 -1.629 0.05
9.477 0.046 -1.627 0.17
9.489 0.076 -1.629 0.05
9.475 0.106 -1.626 0.16
9.494 0.136 -1.63 0.05
9.472 0.165 -1.626 0.17
9.483 0.18 -1.628 0.05
9.467 0.21 -1.625 0.16
9.48 0.24 -1.628 0.05
9.452 0.269 -1.623 0.17
9.471 0.299 -1.626 0.05
9.438 0.328 -1.621 0.16
9.47 0.359 -1.627 0.18
9.476 0.374 -1.628 0.17
9.473 0.404 -1.627 0.18
9.471 0.433 -1.627 0.17
9.476 0.463 -1.629 0.16
9.484 0.494 -1.63 0.17
9.473 0.523 -1.629 0.04
9.487 0.554 -1.631 0.08
9.493 0.584 -1.633 0.08
9.494 0.599 -1.633 0.08
9.49 0.629 -1.633 0.04
9.492 0.659 -1.634 0.07
9.503 0.689 -1.636 0.04
9.499 0.719 -1.636 0.04
9.493 0.749 -1.635 0.07
9.487 0.778 -1.634 0.04
9.493 0.794 -1.636 0.07
9.487 0.823 -1.635 0.04
9.49 0.853 -1.636 0.04
9.481 0.883 -1.635 0.07
9.498 0.914 -1.639 0.04
9.495 0.944 -1.639 0.07
9.477 0.972 -1.636 0.04
9.483 0.988 -1.637 0.08
9.476 1.017 -1.637 0.08
9.461 1.046 -1.634 0.08
9.454 1.075 -1.634 0.04
9.458 1.106 -1.635 0.07
9.456 1.136 -1.635 0.08
9.445 1.165 -1.634 0.08
9.439 1.179 -1.633 0.08
9.43 1.208 -1.632 0.08
9.418 1.236 -1.631 0.08
9.416 1.266 -1.631 0.08
9.402 1.295 -1.629 0.09
9.4 1.324 -1.63 0.09
9.39 1.353 -1.629 0.09
9.392 1.368 -1.629 0.09
9.372 1.396 -1.626 0.16
9.369 1.425 -1.627 0.05
9.342 1.451 -1.622 0.17
9.366 1.485 -1.628 0.05
9.328 1.509 -1.622 0.16
9.357 1.544 -1.628 0.2
9.352 1.558 -1.627 0.1
9.336 1.586 -1.625 0.15
9.344 1.617 -1.628 0.05
9.326 1.644 -1.625 0.17
9.32 1.674 -1.625 0.05
9.296 1.699 -1.622 0.18
9.321 1.734 -1.627 0.05
9.297 1.745 -1.623 0.17
9.309 1.777 -1.627 0.05
9.296 1.805 -1.625 0.18
9.303 1.837 -1.628 0.05
9.275 1.862 -1.623 0.17
9.28 1.893 -1.626 0.05
9.259 1.919 -1.623 0.16
9.291 1.956 -1.63 0.2
9.282 1.97 -1.629 0.09
9.255 1.994 -1.625 0.18
9.264 2.027 -1.628 0.05
9.242 2.052 -1.625 0.16
9.247 2.084 -1.627 0.2
9.245 2.114 -1.628 0.09
9.217 2.138 -1.624 0.18
9.234 2.157 -1.628 0.2
9.226 2.186 -1.627 0.1
9.207 2.212 -1.625 0.17
9.204 2.242 -1.626 0.05
9.17 2.264 -1.621 0.17
9.184 2.298 -1.625 0.05
9.169 2.325 -1.623 0.16
9.177 2.343 -1.626 0.1
9.153 2.367 -1.622 0.19
9.162 2.4 -1.626 0.11
9.132 2.423 -1.621 0.19
9.149 2.458 -1.626 0.11
9.12 2.481 -1.622 0.19
9.12 2.512 -1.623 0.11
9.103 2.523 -1.621 0.18
9.112 2.556 -1.624 0.1
9.083 2.579 -1.62 0.18
9.107 2.616 -1.626 0.11
9.074 2.638 -1.622 0.19
9.085 2.672 -1.625 0.11
9.057 2.695 -1.622 0.19
9.079 2.717 -1.627 0.11
9.056 2.741 -1.624 0.18
9.057 2.772 -1.626 0.22
9.048 2.801 -1.626 0.1
9.009 2.82 -1.62 0.18
9.026 2.856 -1.625 0.1
8.997 2.878 -1.621 0.18
9.016 2.9 -1.626 0.11
8.983 2.921 -1.621 0.19
8.989 2.954 -1.624 0.11
8.959 2.975 -1.62 0.18
8.974 3.011 -1.625 0.11
8.951 3.035 -1.622 0.16
8.962 3.07 -1.626 0.21
8.957 3.084 -1.626 0.1
8.927 3.105 -1.622 0.19
8.943 3.142 -1.627 0.1
8.915 3.164 -1.623 0.18
8.923 3.198 -1.627 0.05
8.884 3.216 -1.621 0.17
8.892 3.25 -1.625 0.05
8.876 3.26 -1.623 0.17
8.889 3.297 -1.627 0.05
8.851 3.315 -1.622 0.18
8.874 3.355 -1.629 0.2
8.858 3.381 -1.627 0.1
8.851 3.41 -1.628 0.16
8.835 3.436 -1.627 0.05
8.824 3.447 -1.626 0.17
8.824 3.479 -1.628 0.05
8.796 3.501 -1.625 0.17
8.804 3.535 -1.629 0.05
8.785 3.56 -1.627 0.16
8.792 3.595 -1.631 0.18
8.774 3.62 -1.629 0.1
8.768 3.633 -1.629 0.16
8.755 3.66 -1.629 0.05
8.721 3.679 -1.625 0.17
8.73 3.714 -1.629 0.05
8.696 3.733 -1.624 0.17
8.713 3.772 -1.63 0.05
8.683 3.792 -1.626 0.17
8.694 3.813 -1.63 0.2
8.673 3.836 -1.628 0.1
8.655 3.861 -1.627 0.17
8.652 3.892 -1.629 0.21
8.642 3.92 -1.629 0.1
8.622 3.944 -1.627 0.16
8.608 3.97 -1.627 0.05
8.577 3.989 -1.623 0.18
8.598 4.015 -1.629 0.11
8.571 4.035 -1.626 0.18
8.564 4.064 -1.627 0.21
8.558 4.095 -1.629 0.1
8.527 4.113 -1.625 0.18
8.52 4.142 -1.626 0.22
8.503 4.167 -1.625 0.24
8.489 4.177 -1.624 0.26
8.49 4.211 -1.627 0.24
8.465 4.231 -1.624 0.3
8.451 4.258 -1.624 0.32
8.42 4.276 -1.621 0.18
8.433 4.315 -1.626 0.07
8.418 4.341 -1.626 0.16
8.394 4.345 -1.622 0.12
8.392 4.378 -1.625 0.29
8.363 4.396 -1.621 0.23
8.396 4.447 -1.631 0.05
8.363 4.463 -1.627 0.16
8.383 4.508 -1.634 0.19
8.362 4.531 -1.633 0.18
8.362 4.548 -1.634 0.17
8.349 4.575 -1.635 0.17
8.35 4.609 -1.638 0.17
8.339 4.638 -1.639 0.04
8.337 4.67 -1.641 0.08
8.324 4.698 -1.642 0.04
8.324 4.732 -1.645 0.07
8.327 4.751 -1.647 0.04
8.319 4.781 -1.649 0.0
8.306 4.808 -1.649 0.0
8.306 4.843 -1.652 0.0
8.304 4.877 -1.655 0.0
8.299 4.909 -1.657 0.0
8.292 4.94 -1.659 0.0
8.283 4.952 -1.659 0.0
8.275 4.984 -1.661 0.0
8.295 5.031 -1.668 0.0
8.286 5.061 -1.67 0.0
8.253 5.077 -1.666 0.0
8.267 5.121 -1.673 0.0
8.256 5.15 -1.674 0.0
8.235 5.155 -1.671 0.0
8.214 5.178 -1.67 0.0
8.237 5.229 -1.678 0.0
8.201 5.242 -1.674 0.0
8.176 5.262 -1.672 0.03
8.166 5.292 -1.674 0.03
8.164 5.327 -1.677 0.03
8.138 5.347 -1.675 0.03
8.137 5.365 -1.677 0.03
8.14 5.403 -1.681 0.04
8.12 5.427 -1.68 0.07
8.103 5.452 -1.68 0.04
8.1 5.487 -1.683 0.07
8.075 5.507 -1.682 0.04
8.067 5.539 -1.684 0.07
8.065 5.556 -1.685 0.04
8.054 5.586 -1.687 0.07
8.043 5.616 -1.688 0.08
8.038 5.65 -1.691 0.04
8.024 5.678 -1.692 0.08
8.019 5.712 -1.695 0.08
8.001 5.737 -1.695 0.08
7.985 5.745 -1.693 0.08
7.989 5.786 -1.698 0.09
7.971 5.811 -1.698 0.08
7.962 5.843 -1.701 0.09
7.957 5.878 -1.703 0.09
7.943 5.906 -1.705 0.08
7.915 5.924 -1.702 0.08
7.928 5.953 -1.707 0.08
7.921 5.987 -1.71 0.08
7.903 6.012 -1.71 0.08
7.899 6.049 -1.714 0.08
7.876 6.07 -1.713 0.08
7.857 6.095 -1.713 0.08
7.85 6.129 -1.716 0.09
7.851 6.15 -1.718 0.08
7.841 6.182 -1.721 0.08
7.826 6.21 -1.722 0.04
7.811 6.238 -1.723 0.07
7.805 6.274 -1.726 0.04
7.79 6.302 -1.727 0.0
7.776 6.331 -1.729 0.0
7.765 6.342 -1.728 0.0
7.757 6.377 -1.731 0.0
7.769 6.427 -1.739 0.0
7.759 6.46 -1.741 0.0
7.741 6.486 -1.742 0.0
7.734 6.522 -1.745 0.0
7.718 6.55 -1.746 0.0
7.703 6.579 -1.747 0.0
7.694 6.592 -1.748 0.0
7.676 6.619 -1.749 0.0
7.654 6.642 -1.748 0.0
7.647 6.677 -1.751 0.0
7.634 6.709 -1.754 0.0
7.613 6.733 -1.754 0.0
7.598 6.762 -1.755 0.0
7.593 6.779 -1.757 0.0
7.55 6.784 -1.751 0.0
7.542 6.819 -1.754 0.03
7.519 6.841 -1.754 0.03
7.512 6.878 -1.758 0.03
7.5 6.911 -1.76 0.03
7.482 6.937 -1.761 0.03
7.478 6.956 -1.763 0.03
7.463 6.986 -1.765 0.03
7.444 7.012 -1.765 0.04
7.421 7.034 -1.765 0.04
7.401 7.06 -1.766 0.04
7.403 7.106 -1.772 0.07
7.372 7.121 -1.77 0.04
7.361 7.155 -1.772 0.07
7.351 7.168 -1.773 0.04
7.337 7.2 -1.775 0.07
7.326 7.234 -1.778 0.15
7.316 7.269 -1.781 0.16
7.303 7.302 -1.784 0.18
7.271 7.316 -1.782 0.17
7.247 7.338 -1.781 0.23
7.215 7.328 -1.776 0.21
7.209 7.369 -1.78 0.11
7.17 7.375 -1.776 0.2
7.181 7.432 -1.785 0.19
7.174 7.472 -1.79 0.17
7.167 7.512 -1.794 0.17
7.159 7.527 -1.795 0.16
7.137 7.551 -1.795 0.17
7.129 7.59 -1.8 0.16
7.115 7.623 -1.802 0.16
7.085 7.639 -1.801 0.17
7.061 7.662 -1.801 0.17
7.053 7.701 -1.805 0.17
7.033 7.728 -1.806 0.17
7.026 7.744 -1.808 0.17
7.015 7.781 -1.811 0.17
6.99 7.803 -1.811 0.16
6.971 7.831 -1.813 0.04
6.932 7.837 -1.809 0.15
6.935 7.889 -1.816 0.18
6.91 7.911 -1.816 0.18
6.904 7.929 -1.818 0.17
6.885 7.958 -1.82 0.17
6.86 7.98 -1.82 0.04
6.835 8.001 -1.82 0.16
6.824 8.039 -1.824 0.18
6.796 8.058 -1.823 0.17
6.782 8.093 -1.827 0.18
6.761 8.118 -1.828 0.17
6.754 8.137 -1.83 0.17
6.731 8.161 -1.83 0.17
6.712 8.189 -1.832 0.17
6.682 8.206 -1.831 0.17
6.665 8.238 -1.834 0.17
6.643 8.263 -1.835 0.17
6.622 8.29 -1.836 0.17
6.614 8.307 -1.838 0.18
6.596 8.338 -1.84 0.04
6.563 8.349 -1.838 0.16
6.557 8.396 -1.844 0.18
6.531 8.417 -1.844 0.17
6.503 8.436 -1.844 0.17
6.494 8.48 -1.849 0.18
6.475 8.482 -1.847 0.04
6.444 8.496 -1.846 0.16
6.434 8.538 -1.851 0.18
6.41 8.563 -1.852 0.17
6.39 8.593 -1.854 0.17
6.374 8.627 -1.858 0.04
6.34 8.637 -1.855 0.16
6.337 8.662 -1.859 0.18
6.314 8.688 -1.86 0.17
6.291 8.714 -1.862 0.18
6.27 8.742 -1.863 0.18
6.249 8.771 -1.866 0.04
6.212 8.778 -1.863 0.16
6.2 8.818 -1.867 0.18
6.175 8.842 -1.868 0.18
6.168 8.862 -1.871 0.04
6.133 8.871 -1.868 0.16
6.123 8.916 -1.874 0.18
6.096 8.937 -1.875 0.04
6.058 8.942 -1.871 0.16
6.052 8.993 -1.879 0.18
6.038 9.033 -1.883 0.09
6.019 9.035 -1.882 0.09
5.995 9.06 -1.883 0.09
5.976 9.094 -1.886 0.09
5.952 9.119 -1.888 0.09
5.918 9.129 -1.886 0.18
5.908 9.178 -1.892 0.2
5.871 9.183 -1.89 0.09
5.851 9.184 -1.888 0.19
5.832 9.217 -1.891 0.05
5.798 9.229 -1.89 0.16
5.788 9.277 -1.896 0.05
5.752 9.283 -1.894 0.16
5.735 9.321 -1.898 0.2
5.712 9.35 -1.9 0.04
5.691 9.348 -1.898 0.16
5.673 9.385 -1.902 0.05
5.644 9.404 -1.902 0.17
5.626 9.44 -1.906 0.05
5.6 9.465 -1.908 0.16
5.579 9.498 -1.911 0.19
5.55 9.515 -1.911 0.04
5.53 9.549 -1.915 0.17
5.506 9.543 -1.911 0.05
5.442 9.502 -1.899 0.0
5.355 9.418 -1.878 0.0
4.889 8.667 -1.714 0.03
4.787 8.549 -1.686 0.04
4.727 8.506 -1.674 0.0
4.727 8.569 -1.684 0.0
4.756 8.652 -1.7 0.0
4.606 8.444 -1.653 0.07
4.538 8.445 -1.647 0.38
4.447 8.34 -1.622 0.0
4.498 8.498 -1.652 0.0
4.468 8.505 -1.651 0.12
4.406 8.42 -1.631 0.18
4.378 8.432 -1.631 0.27
4.356 8.454 -1.633 0.3
4.308 8.426 -1.624 0.1
4.287 8.45 -1.626 0.0
4.218 8.445 -1.62 0.23
4.186 8.448 -1.618 0.19
4.175 8.458 -1.618 0.0
4.118 8.409 -1.606 0.0
4.088 8.417 -1.605 0.0
4.051 8.407 -1.6 0.0
4.039 8.449 -1.606 0.0
4.03 8.499 -1.614 0.02
3.963 8.461 -1.602 0.23
3.943 8.488 -1.605 0.27
3.924 8.516 -1.608 0.41
3.896 8.525 -1.607 0.44
3.867 8.534 -1.607 0.78
3.838 8.54 -1.606 0.52
3.808 8.545 -1.604 0.48
3.787 8.535 -1.601 0.49
3.756 8.538 -1.599 0.34
3.737 8.568 -1.603 0.3
3.704 8.565 -1.6 0.23
3.693 8.613 -1.607 0.04
3.674 8.642 -1.611 0.0
3.66 8.686 -1.617 0.0
3.641 8.679 -1.615 0.0
3.621 8.707 -1.618 0.0
3.602 8.739 -1.622 0.0
3.579 8.761 -1.624 0.0
3.563 8.801 -1.63 0.0
3.556 8.863 -1.64 0.0
3.522 8.86 -1.637 0.0
3.517 8.927 -1.649 0.0
3.502 8.929 -1.648 0.0
3.501 9.01 -1.662 0.0
3.424 8.98 -1.651 0.0
3.495 9.25 -1.703 0.0
3.75 10.014 -1.851 0.04
3.565 9.616 -1.771 0.04
3.791 10.269 -1.898 0.07
3.786 10.355 -1.913 0.09
3.75 10.357 -1.911 0.18
3.707 10.339 -1.905 0.05
3.683 10.377 -1.91 0.17
3.667 10.435 -1.919 0.19
3.632 10.439 -1.918 0.18
3.6 10.402 -1.91 0.23
3.581 10.45 -1.917 0.14
3.541 10.443 -1.913 0.06
3.52 10.487 -1.92 0.18
3.478 10.472 -1.915 0.2
3.461 10.53 -1.924 0.18
3.428 10.541 -1.924 0.18
3.414 10.555 -1.926 0.18
3.381 10.566 -1.926 0.17
3.346 10.573 -1.925 0.18
3.314 10.585 -1.925 0.04
3.276 10.583 -1.923 0.16
3.249 10.612 -1.926 0.18
3.217 10.627 -1.927 0.17
3.182 10.63 -1.926 0.04
3.162 10.624 -1.924 0.15
3.132 10.647 -1.926 0.2
3.103 10.67 -1.929 0.1
3.07 10.681 -1.929 0.09
3.037 10.693 -1.93 0.0
3.017 10.751 -1.939 0.0
2.162 8.49 -1.494 0.0
2.162 8.6 -1.514 0.0
2.158 8.642 -1.521 0.0
2.11 8.564 -1.505 0.0
2.055 8.458 -1.484 0.0
2.023 8.444 -1.48 0.1
1.991 8.427 -1.476 0.16
1.968 8.447 -1.478 0.48
1.943 8.458 -1.479 0.2
1.897 8.443 -1.474 0.38
1.875 8.466 -1.478 0.37
1.842 8.447 -1.473 0.57
1.787 8.318 -1.448 0.0
1.789 8.456 -1.473 0.0
1.768 8.487 -1.477 0.12
1.718 8.449 -1.469 0.27
1.661 8.304 -1.44 0.82
1.685 8.562 -1.488 0.0
1.636 8.453 -1.466 0.03
1.608 8.452 -1.465 0.13
1.58 8.446 -1.463 0.04
1.56 8.487 -1.47 0.0
1.554 8.529 -1.477 0.0
1.557 8.7 -1.509 0.0
1.514 8.616 -1.492 0.0
1.456 8.446 -1.459 0.0
1.429 8.447 -1.458 0.0
1.399 8.43 -1.454 0.0
1.372 8.432 -1.454 0.0
1.36 8.442 -1.456 0.0
1.333 8.444 -1.455 0.0
1.309 8.46 -1.457 0.0
1.28 8.453 -1.455 0.0
1.249 8.427 -1.45 0.0
1.222 8.427 -1.449 0.0
1.195 8.427 -1.448 0.0
1.182 8.427 -1.448 0.0
1.156 8.433 -1.448 0.0
1.127 8.423 -1.446 0.0
1.101 8.428 -1.446 0.0
1.074 8.428 -1.445 0.03
1.047 8.427 -1.445 0.04
1.021 8.436 -1.446 0.07
1.007 8.43 -1.444 0.15
0.981 8.433 -1.444 0.16
0.954 8.434 -1.444 0.16
0.927 8.431 -1.443 0.17
0.899 8.428 -1.442 0.18
0.873 8.427 -1.441 0.04
0.846 8.428 -1.441 0.17
0.82 8.438 -1.442 0.2
0.806 8.432 -1.441 0.1
0.781 8.444 -1.442 0.16
0.753 8.431 -1.44 0.13
0.711 8.269 -1.409 0.07
0.699 8.431 -1.439 0.16
0.673 8.436 -1.439 0.05
0.646 8.434 -1.438 0.17
0.632 8.427 -1.437 0.18
0.606 8.431 -1.437 0.17
0.58 8.444 -1.44 0.17
0.553 8.433 -1.437 0.17
0.526 8.432 -1.437 0.16
0.499 8.426 -1.435 0.04
0.473 8.439 -1.437 0.08
0.459 8.424 -1.434 0.04
0.433 8.422 -1.434 0.0
0.406 8.429 -1.435 0.0
0.38 8.434 -1.436 0.0
0.353 8.422 -1.433 0.0
0.328 8.45 -1.438 0.0
0.301 8.433 -1.435 0.0
0.274 8.423 -1.433 0.0
0.261 8.433 -1.434 0.0
0.234 8.43 -1.434 0.0
0.208 8.432 -1.434 0.0
0.181 8.429 -1.433 0.0
0.155 8.428 -1.433 0.0
0.128 8.422 -1.432 0.0
0.101 8.419 -1.431 0.0
0.088 8.427 -1.433 0.0
0.062 8.433 -1.434 0.0
0.035 8.425 -1.432 0.0
0.009 8.421 -1.432 0.0
-0.018 8.421 -1.432 0.0
-0.044 8.427 -1.433 0.0
-0.07 8.425 -1.432 0.0
-0.084 8.427 -1.433 0.0
-0.11 8.418 -1.431 0.0
-0.136 8.408 -1.429 0.0
-0.163 8.42 -1.432 0.0
-0.19 8.423 -1.432 0.0
-0.216 8.414 -1.431 0.0
-0.242 8.418 -1.432 0.0
-0.255 8.407 -1.43 0.0
-0.282 8.426 -1.433 0.0
-0.308 8.4 -1.429 0.0
-0.336 8.45 -1.438 0.0
-0.361 8.413 -1.432 0.0
-0.387 8.398 -1.429 0.0
-0.413 8.389 -1.428 0.0
-0.44 8.402 -1.43 0.0
-0.455 8.438 -1.437 0.0
-0.495 8.688 -1.484 0.0
-0.528 8.777 -1.5 0.0
-0.545 8.608 -1.469 0.0
-0.564 8.477 -1.445 0.03
-0.589 8.444 -1.44 0.0
-0.616 8.458 -1.442 0.0
-0.627 8.423 -1.436 0.02
-0.682 8.439 -1.44 0.14
-0.708 8.429 -1.438 0.36
-0.736 8.444 -1.442 0.4
-0.762 8.44 -1.441 0.43
-0.786 8.408 -1.436 0.63
-0.799 8.409 -1.436 0.48
-0.824 8.394 -1.434 0.0
-0.851 8.396 -1.435 0.0
-0.878 8.397 -1.436 0.0
-0.902 8.377 -1.432 0.0
-0.93 8.385 -1.434 0.03
-0.96 8.416 -1.441 0.0
-0.985 8.395 -1.437 0.0
-1.013 8.526 -1.462 0.03
-1.064 8.722 -1.499 0.0
-1.09 8.715 -1.498 0.0
-1.109 8.641 -1.485 0.0
-1.107 8.413 -1.444 0.0
-1.13 8.379 -1.438 0.0
-1.158 8.391 -1.441 0.0
-1.174 8.41 -1.445 0.0
-1.658 8.983 -1.564 0.01
-2.089 11.158 -1.973 0.07
-2.125 11.157 -1.974 0.04
-2.162 11.16 -1.976 0.07
-2.2 11.166 -1.979 0.08
-2.233 11.154 -1.977 0.04
-2.27 11.156 -1.979 0.07
-2.286 11.141 -1.977 0.04
-2.322 11.14 -1.978 0.07
-2.358 11.136 -1.979 0.04
-2.395 11.142 -1.981 0.08
-2.43 11.131 -1.981 0.04
-2.465 11.125 -1.981 0.07
-2.5 11.119 -1.981 0.04
-2.537 11.121 -1.983 0.07
-2.556 11.121 -1.984 0.04
-2.594 11.128 -1.987 0.08
-2.624 11.099 -1.983 0.04
-2.661 11.098 -1.984 0.07
-2.693 11.078 -1.982 0.04
-2.734 11.094 -1.987 0.07
-2.77 11.091 -1.988 0.08
-2.783 11.07 -1.985 0.04
-2.819 11.065 -1.985 0.07
-2.855 11.062 -1.987 0.04
-2.888 11.045 -1.985 0.07
-2.922 11.034 -1.985 0.04
-2.959 11.032 -1.986 0.07
-2.992 11.019 -1.985 0.04
-3.029 11.017 -1.987 0.07
-3.05 11.024 -1.989 0.08
-3.08 10.999 -1.986 0.04
-3.116 10.995 -1.987 0.07
-3.15 10.982 -1.987 0.04
-3.186 10.977 -1.988 0.07
-3.22 10.967 -1.988 0.04
-3.255 10.959 -1.988 0.07
-3.275 10.961 -1.989 0.04
-3.308 10.947 -1.989 0.07
-3.347 10.952 -1.992 0.08
-3.378 10.93 -1.989 0.04
-3.42 10.946 -1.995 0.07
-3.45 10.922 -1.992 0.04
-3.49 10.928 -1.995 0.07
-3.52 10.904 -1.993 0.04
-3.542 10.911 -1.995 0.07
-3.576 10.9 -1.995 0.04
-3.612 10.896 -1.997 0.07
-3.649 10.892 -1.998 0.08
-3.682 10.877 -1.997 0.04
-3.72 10.876 -2.0 0.07
-3.737 10.814 -1.99 0.2
-3.752 10.803 -1.989 0.27
-3.801 10.836 -1.997 0.05
-3.844 10.848 -2.002 0.07
-3.877 10.834 -2.002 0.15
-3.912 10.824 -2.002 0.21
-3.943 10.802 -2.0 0.18
-3.977 10.789 -2.0 0.05
-4.002 10.807 -2.005 0.07
-4.04 10.804 -2.007 0.04
-4.076 10.797 -2.008 0.07
-4.11 10.784 -2.008 0.15
-4.146 10.776 -2.009 0.18
-4.181 10.767 -2.01 0.04
-4.222 10.774 -2.014 0.07
-4.234 10.753 -2.011 0.04
-4.275 10.759 -2.015 0.07
-4.306 10.739 -2.013 0.04
-4.343 10.732 -2.015 0.07
-4.383 10.733 -2.018 0.08
-4.415 10.717 -2.017 0.08
-4.447 10.698 -2.016 0.04
-4.483 10.691 -2.018 0.13
-4.507 10.701 -2.021 0.21
-4.534 10.67 -2.018 0.04
-4.563 10.647 -2.016 0.15
-4.584 10.603 -2.01 0.2
-4.624 10.603 -2.013 0.15
-4.66 10.596 -2.015 0.2
-4.711 10.621 -2.023 0.19
-4.729 10.615 -2.023 0.04
-4.76 10.597 -2.022 0.15
-4.801 10.598 -2.025 0.18
-4.836 10.586 -2.026 0.17
-4.876 10.585 -2.029 0.17
-4.91 10.572 -2.029 0.16
-4.947 10.565 -2.031 0.16
-4.964 10.559 -2.032 0.16
-5.005 10.56 -2.035 0.18
-5.037 10.542 -2.035 0.04
-5.066 10.517 -2.033 0.15
-5.107 10.517 -2.036 0.2
-5.141 10.503 -2.036 0.18
-5.175 10.489 -2.037 0.18
-5.208 10.474 -2.037 0.17
-5.227 10.469 -2.038 0.17
-5.257 10.448 -2.037 0.17
-5.286 10.424 -2.035 0.17
-5.322 10.414 -2.037 0.17
-5.311 10.312 -2.019 0.09
-5.383 10.372 -2.035 0.09
-5.405 10.334 -2.031 0.18
-5.432 10.347 -2.035 0.05
-5.457 10.316 -2.032 0.17
-5.501 10.319 -2.036 0.05
-5.527 10.291 -2.034 0.17
-5.568 10.29 -2.037 0.05
-5.597 10.265 -2.036 0.16
-5.64 10.268 -2.04 0.05
-5.669 10.244 -2.039 0.16
-5.7 10.262 -2.045 0.04
-5.729 10.239 -2.044 0.16
-5.768 10.233 -2.046 0.05
-5.798 10.211 -2.045 0.16
-5.83 10.193 -2.045 0.19
-5.863 10.177 -2.046 0.1
-5.894 10.156 -2.045 0.2
-5.912 10.15 -2.046 0.24
-5.939 10.123 -2.044 0.22
-5.994 10.144 -2.053 0.27
-6.022 10.118 -2.051 0.22
-6.077 10.138 -2.06 0.11
-6.115 10.129 -2.062 0.19
-6.154 10.123 -2.065 0.11
-6.17 10.113 -2.065 0.19
-6.225 10.131 -2.073 0.2
-6.262 10.12 -2.075 0.1
-6.301 10.112 -2.077 0.18
-6.351 10.122 -2.084 0.11
-6.389 10.112 -2.086 0.18
-6.431 10.108 -2.089 0.21
-6.475 10.106 -2.093 0.25
-6.501 10.113 -2.097 0.26
-6.542 10.105 -2.1 0.3
-6.582 10.098 -2.103 0.28
-6.62 10.087 -2.105 0.29
-6.645 10.056 -2.103 0.27
-6.698 10.068 -2.11 0.3
-6.719 10.031 -2.107 0.35
-6.729 10.012 -2.105 0.32
-6.796 10.043 -2.116 0.31
-6.863 10.074 -2.128 0.33
-6.902 10.064 -2.131 0.28
-6.937 10.047 -2.132 0.37
-6.973 10.031 -2.133 0.34
-7.027 10.042 -2.14 0.31
-7.065 10.029 -2.143 0.35
-7.058 9.986 -2.135 0.25
-7.105 9.985 -2.14 0.41
-7.143 9.972 -2.142 0.3
-7.179 9.956 -2.144 0.3
-7.214 9.939 -2.145 0.21
-7.248 9.92 -2.146 0.14
-7.258 9.869 -2.139 0.18
-7.276 9.86 -2.14 0.22
-7.298 9.825 -2.137 0.1
-7.319 9.789 -2.134 0.09
-7.34 9.753 -2.131 0.09
-7.35 9.702 -2.125 0.08
-7.373 9.67 -2.123 0.08
-7.383 9.62 -2.116 0.08
-7.392 9.6 -2.115 0.08
-7.416 9.569 -2.113 0.09
-7.439 9.537 -2.111 0.09
-7.46 9.502 -2.108 0.08
-7.479 9.465 -2.105 0.09
-7.504 9.435 -2.103 0.08
-7.536 9.415 -2.104 0.08
-7.552 9.404 -2.104 0.08
-7.578 9.376 -2.103 0.08
-7.601 9.345 -2.101 0.16
-7.633 9.324 -2.102 0.16
-7.649 9.283 -2.098 0.16
-7.681 9.263 -2.099 0.18
-7.704 9.232 -2.097 0.18
-7.715 9.215 -2.096 0.17
-7.736 9.182 -2.094 0.17
-7.765 9.157 -2.094 0.16
-7.79 9.128 -2.093 0.17
-7.821 9.107 -2.094 0.17
-7.839 9.07 -2.091 0.09
-7.864 9.041 -2.09 0.09
-7.894 9.018 -2.09 0.08
-7.907 9.004 -2.09 0.04
-7.922 8.964 -2.086 0.0
-7.807 8.778 -2.046 0.0
-7.544 8.427 -1.965 0.0
-7.545 8.375 -1.959 0.0
-7.565 8.344 -1.957 0.0
-7.599 8.329 -1.959 0.0
-7.625 8.332 -1.963 0.0
-7.663 8.321 -1.966 0.0
-7.712 8.321 -1.972 0.0
-7.752 8.312 -1.976 0.0
-7.805 8.316 -1.983 0.0
-7.866 8.329 -1.992 0.0
-7.963 8.38 -2.012 0.04
-8.155 8.528 -2.056 0.14
-8.208 8.557 -2.067 0.04
-8.248 8.545 -2.07 0.08
-8.278 8.522 -2.071 0.09
-8.305 8.496 -2.071 0.08
-8.318 8.456 -2.067 0.09
-8.333 8.418 -2.064 0.08
-8.357 8.389 -2.064 0.08
-8.37 8.376 -2.064 0.08
-8.389 8.343 -2.062 0.08
-8.414 8.315 -2.061 0.09
-8.43 8.279 -2.059 0.09
-8.456 8.252 -2.059 0.08
-8.474 8.218 -2.057 0.08
-8.497 8.188 -2.056 0.09
-8.508 8.173 -2.056 0.08
-8.539 8.152 -2.057 0.09
-8.558 8.118 -2.055 0.09
-8.592 8.1 -2.057 0.09
-8.611 8.067 -2.056 0.08
-8.631 8.035 -2.055 0.08
-8.661 8.012 -2.056 0.08
-8.671 7.971 -2.052 0.09
-8.679 7.953 -2.051 0.08
-8.697 7.919 -2.049 0.08
-8.709 7.88 -2.046 0.08
-8.734 7.853 -2.046 0.09
-8.749 7.817 -2.044 0.09
-8.778 7.794 -2.045 0.08
-8.794 7.758 -2.043 0.08
-8.806 7.745 -2.043 0.08
-8.824 7.712 -2.041 0.08
-8.843 7.679 -2.04 0.08
-8.859 7.645 -2.038 0.08
-8.874 7.609 -2.036 0.08
-8.898 7.581 -2.036 0.08
-8.906 7.539 -2.032 0.08
-8.916 7.524 -2.031 0.04
-8.938 7.494 -2.031 0.08
-8.945 7.452 -2.027 0.04
-8.971 7.427 -2.028 0.07
-8.982 7.389 -2.025 0.04
-8.998 7.354 -2.023 0.07
-9.013 7.32 -2.021 0.04
-9.023 7.304 -2.021 0.07
-9.037 7.268 -2.019 0.08
-9.054 7.235 -2.017 0.04
-9.07 7.202 -2.016 0.07
-9.085 7.167 -2.014 0.04
-9.103 7.135 -2.013 0.07
-9.127 7.107 -2.013 0.08
-9.157 7.085 -2.015 0.08
-9.156 7.061 -2.012 0.08
-9.161 7.019 -2.008 0.04
-9.181 6.989 -2.008 0.0
-9.186 6.947 -2.004 0.0
-9.198 6.911 -2.001 0.0
-9.218 6.881 -2.001 0.0
-9.238 6.85 -2.001 0.0
-9.244 6.832 -2.0 0.0
-9.285 6.817 -2.004 0.0
-9.27 6.761 -1.996 0.0
-9.315 6.75 -2.001 0.0
-9.328 6.714 -1.999 0.0
-9.32 6.664 -1.993 0.0
-9.333 6.629 -1.991 0.0
-9.335 6.609 -1.989 0.0
-9.354 6.579 -1.989 0.0
-9.362 6.54 -1.986 0.0
-9.394 6.519 -1.988 0.0
-9.403 6.481 -1.986 0.0
-9.42 6.449 -1.985 0.0
-9.429 6.412 -1.983 0.0
-9.434 6.394 -1.981 0.0
-9.443 6.356 -1.979 0.0
-9.469 6.331 -1.98 0.0
-9.481 6.296 -1.979 0.0
-9.492 6.261 -1.977 0.0
-9.502 6.224 -1.975 0.0
-9.512 6.188 -1.972 0.0
-9.538 6.162 -1.974 0.0
-9.544 6.145 -1.973 0.0
-9.554 6.109 -1.971 0.0
-9.568 6.076 -1.97 0.0
-9.575 6.038 -1.967 0.0
-9.587 6.004 -1.966 0.0
-9.57 5.951 -1.958 0.0
-9.581 5.917 -1.956 0.03
-9.572 5.89 -1.952 0.03
-9.591 5.86 -1.952 0.03
-9.601 5.825 -1.951 0.03
-9.606 5.786 -1.948 0.03
-9.619 5.753 -1.947 0.04
-9.628 5.718 -1.945 0.03
-9.633 5.68 -1.942 0.03
-9.647 5.647 -1.941 0.03
-9.651 5.629 -1.94 0.03
-9.663 5.596 -1.939 0.03
-9.667 5.558 -1.936 0.04
-9.666 5.516 -1.932 0.03
-9.685 5.487 -1.932 0.07
-9.695 5.453 -1.931 0.04
-9.7 5.415 -1.928 0.0
-9.7 5.395 -1.927 0.0
-9.71 5.361 -1.925 0.0
-9.727 5.331 -1.925 0.0
-9.723 5.289 -1.921 0.0
-9.741 5.259 -1.921 0.0
-9.753 5.226 -1.92 0.0
-9.733 5.195 -1.914 0.0
-9.755 5.168 -1.915 0.0
-9.788 5.146 -1.919 0.0
-9.769 5.097 -1.912 0.0
-9.784 5.065 -1.911 0.0
-9.787 5.028 -1.909 0.0
-9.798 4.995 -1.908 0.0
-9.813 4.964 -1.908 0.0
-9.819 4.948 -1.907 0.0
-9.812 4.905 -1.903 0.0
-9.827 4.874 -1.903 0.0
-9.839 4.842 -1.902 0.0
-9.851 4.809 -1.901 0.0
-9.862 4.776 -1.9 0.0
-9.867 4.74 -1.898 0.0
-9.865 4.721 -1.896 0.0
-9.871 4.685 -1.895 0.0
-9.872 4.648 -1.892 0.0
-9.899 4.622 -1.894 0.0
-9.902 4.586 -1.892 0.0
-9.902 4.549 -1.889 0.0
-9.877 4.499 -1.881 0.0
-9.872 4.478 -1.879 0.03
-9.864 4.437 -1.874 0.03
-9.868 4.402 -1.872 0.03
-9.867 4.364 -1.869 0.04
-9.877 4.331 -1.868 0.07
-9.88 4.296 -1.866 0.14
-9.89 4.263 -1.866 0.16
-9.894 4.228 -1.864 0.16
-9.892 4.209 -1.862 0.17
-9.892 4.172 -1.859 0.04
-9.88 4.13 -1.854 0.16
-9.9 4.102 -1.856 0.05
-9.896 4.065 -1.852 0.16
-9.929 4.042 -1.856 0.05
-9.909 3.997 -1.85 0.16
-9.944 3.993 -1.856 0.19
-9.964 3.965 -1.857 0.09
-9.969 3.931 -1.856 0.16
-9.989 3.902 -1.857 0.05
-9.994 3.868 -1.856 0.16
-10.01 3.838 -1.856 0.05
-10.023 3.807 -1.857 0.17
-10.046 3.798 -1.86 0.05
-10.043 3.761 -1.857 0.17
-10.068 3.734 -1.86 0.05
-10.079 3.702 -1.86 0.16
-10.095 3.672 -1.86 0.05
-10.088 3.634 -1.857 0.17
-10.129 3.612 -1.863 0.05
-10.12 3.573 -1.859 0.16
-10.155 3.568 -1.864 0.05
-10.157 3.533 -1.863 0.16
-10.181 3.505 -1.865 0.05
-10.177 3.468 -1.862 0.16
-10.206 3.443 -1.866 0.05
-10.193 3.402 -1.861 0.16
-10.232 3.38 -1.867 0.05
-10.226 3.36 -1.864 0.16
-10.247 3.331 -1.867 0.05
-10.25 3.297 -1.865 0.16
-10.285 3.272 -1.87 0.05
-10.271 3.232 -1.865 0.16
-10.298 3.205 -1.868 0.05
-10.298 3.17 -1.867 0.16
-10.311 3.156 -1.868 0.19
-10.33 3.127 -1.87 0.18
-10.338 3.094 -1.87 0.18
-10.344 3.06 -1.869 0.04
-10.344 3.025 -1.867 0.16
-10.369 2.997 -1.87 0.05
-10.35 2.956 -1.864 0.17
-10.373 2.945 -1.868 0.05
-10.382 2.912 -1.868 0.16
-10.401 2.882 -1.87 0.05
-10.402 2.848 -1.868 0.16
-10.43 2.82 -1.872 0.05
-10.395 2.776 -1.864 0.17
-10.444 2.753 -1.871 0.05
-10.439 2.717 -1.869 0.16
-10.457 2.704 -1.871 0.05
-10.452 2.668 -1.869 0.17
-10.479 2.64 -1.872 0.05
-10.47 2.603 -1.869 0.18
-10.5 2.575 -1.873 0.05
-10.492 2.538 -1.87 0.17
-10.504 2.506 -1.871 0.19
-10.516 2.492 -1.872 0.1
-10.52 2.458 -1.872 0.16
-10.535 2.426 -1.873 0.05
-10.535 2.391 -1.872 0.17
-10.558 2.362 -1.875 0.05
-10.54 2.323 -1.87 0.17
-10.572 2.295 -1.875 0.05
-10.564 2.259 -1.872 0.17
-10.589 2.247 -1.876 0.05
-10.592 2.213 -1.875 0.17
-10.61 2.182 -1.877 0.05
-10.609 2.147 -1.876 0.16
-10.631 2.117 -1.879 0.04
-10.63 2.082 -1.877 0.16
-10.66 2.053 -1.882 0.19
-10.665 2.036 -1.882 0.18
-10.666 2.002 -1.881 0.17
-10.68 1.97 -1.882 0.18
-10.676 1.934 -1.88 0.18
-10.692 1.903 -1.882 0.18
-10.692 1.868 -1.881 0.18
-10.709 1.836 -1.883 0.18
-10.718 1.821 -1.884 0.17
-10.733 1.789 -1.886 0.17
-10.733 1.754 -1.885 0.18
-10.737 1.72 -1.885 0.18
-10.754 1.688 -1.887 0.18
-10.755 1.654 -1.886 0.17
-10.762 1.62 -1.887 0.16
-10.769 1.604 -1.887 0.17
-10.772 1.57 -1.887 0.18
-10.778 1.536 -1.887 0.18
-10.787 1.503 -1.888 0.17
-10.79 1.469 -1.888 0.17
-10.787 1.434 -1.886 0.17
-10.785 1.399 -1.885 0.17
-10.791 1.365 -1.886 0.16
-10.79 1.348 -1.885 0.17
-10.796 1.314 -1.885 0.17
-10.806 1.281 -1.886 0.17
-10.808 1.247 -1.886 0.18
-10.808 1.212 -1.885 0.17
-10.815 1.179 -1.886 0.16
-10.827 1.146 -1.887 0.16
-10.809 1.109 -1.883 0.21
-10.832 1.095 -1.887 0.29
-10.839 1.061 -1.888 0.29
-10.849 1.028 -1.889 0.27
-10.893 0.997 -1.897 0.05
-10.906 0.964 -1.899 0.08
-10.895 0.929 -1.896 0.04
-10.914 0.896 -1.899 0.0
-10.917 0.879 -1.899 0.0
-10.924 0.845 -1.9 0.0
-10.926 0.81 -1.9 0.0
-10.938 0.777 -1.902 0.0
-10.959 0.744 -1.905 0.0
-10.949 0.708 -1.903 0.0
-10.977 0.676 -1.908 0.0
-10.96 0.657 -1.904 0.0
-10.988 0.624 -1.909 0.0
-10.999 0.59 -1.911 0.0
-11.001 0.556 -1.911 0.0
-10.964 0.519 -1.904 0.0
-10.995 0.486 -1.909 0.0
-10.965 0.45 -1.903 0.0
-10.967 0.433 -1.904 0.0
-10.961 0.398 -1.902 0.03
-10.954 0.364 -1.901 0.03
-10.951 0.329 -1.9 0.03
-10.944 0.295 -1.899 0.03
-10.935 0.26 -1.897 0.03
-10.942 0.226 -1.898 0.07
-10.939 0.191 -1.897 0.04
-10.925 0.174 -1.895 0.07
-10.916 0.139 -1.893 0.04
-10.914 0.105 -1.892 0.07
-10.913 0.071 -1.892 0.08
-10.919 0.036 -1.893 0.08
-10.917 0.002 -1.893 0.09
-10.927 -0.032 -1.895 0.08
-10.932 -0.049 -1.896 0.09
-10.948 -0.084 -1.899 0.09
-10.961 -0.118 -1.901 0.08
-10.967 -0.153 -1.902 0.08
-10.978 -0.187 -1.904 0.09
-10.972 -0.222 -1.903 0.08
-10.987 -0.257 -1.906 0.09
-10.99 -0.274 -1.907 0.08
-10.973 -0.308 -1.904 0.08
-10.99 -0.343 -1.907 0.09
-10.991 -0.378 -1.908 0.08
-11.002 -0.413 -1.91 0.09
-10.99 -0.447 -1.908 0.08
-10.993 -0.481 -1.909 0.08
-10.992 -0.499 -1.909 0.08
-10.977 -0.533 -1.906 0.08
-10.981 -0.567 -1.907 0.04
-10.989 -0.602 -1.909 0.07
-10.977 -0.636 -1.907 0.04
-10.983 -0.671 -1.909 0.0
-10.996 -0.707 -1.912 0.0
-10.992 -0.741 -1.911 0.0
-11.001 -0.759 -1.913 0.0
-11.0 -0.794 -1.914 0.0
-10.994 -0.828 -1.913 0.0
-10.997 -0.863 -1.914 0.0
-11.01 -0.899 -1.917 0.0
-10.999 -0.933 -1.915 0.0
-11.002 -0.968 -1.916 0.0
-10.995 -0.985 -1.915 0.0
-11.001 -1.02 -1.917 0.03
-11.018 -1.056 -1.921 0.03
-11.012 -1.091 -1.92 0.03
-11.013 -1.126 -1.921 0.03
-11.029 -1.162 -1.925 0.03
-11.043 -1.199 -1.928 0.03
-11.051 -1.235 -1.93 0.04
-11.06 -1.254 -1.932 0.04
-11.113 -1.295 -1.943 0.0
-11.109 -1.33 -1.943 0.0
-11.163 -1.372 -1.954 0.0
-11.171 -1.408 -1.956 0.0
-11.192 -1.446 -1.961 0.0
-11.201 -1.483 -1.963 0.0
-11.188 -1.5 -1.962 0.0
-11.178 -1.534 -1.96 0.0
-11.146 -1.565 -1.955 0.0
-11.121 -1.598 -1.952 0.03
-11.106 -1.631 -1.95 0.03
-11.062 -1.66 -1.943 0.03
-11.043 -1.693 -1.94 0.03
-10.994 -1.703 -1.931 0.04
-11.0 -1.74 -1.934 0.04
-10.999 -1.775 -1.934 0.03
-10.995 -1.81 -1.935 0.03
-10.993 -1.845 -1.935 0.03
-10.993 -1.88 -1.936 0.07
-10.89 -1.898 -1.918 0.04
-10.721 -1.886 -1.887 0.08
-10.548 -1.891 -1.856 0.08
-10.382 -1.895 -1.826 0.08
-10.225 -1.9 -1.797 0.14
-10.079 -1.906 -1.771 0.05
-9.983 -1.92 -1.754 0.16
-9.996 -1.955 -1.758 0.05
-9.975 -1.968 -1.754 0.16
-9.975 -2.0 -1.755 0.05
-9.965 -2.031 -1.755 0.16
-10.062 -2.083 -1.774 0.18
-10.035 -2.111 -1.77 0.26
-10.022 -2.141 -1.769 0.24
-10.002 -2.169 -1.767 0.14
-10.053 -2.213 -1.778 0.28
-10.089 -2.238 -1.785 0.24
-10.161 -2.287 -1.8 0.16
-10.217 -2.333 -1.812 0.29
-10.183 -2.359 -1.807 0.22
-10.208 -2.399 -1.813 0.24
-10.176 -2.425 -1.808 0.21
-10.252 -2.477 -1.824 0.28
-10.223 -2.487 -1.82 0.25
-10.303 -2.541 -1.836 0.19
-10.309 -2.576 -1.839 0.14
-10.316 -2.613 -1.842 0.18
-10.203 -2.618 -1.822 0.22
-10.221 -2.657 -1.827 0.25
-10.287 -2.709 -1.841 0.18
-10.311 -2.732 -1.847 0.06
-10.284 -2.76 -1.843 0.18
-10.216 -2.776 -1.832 0.26
-10.203 -2.807 -1.831 0.27
-10.185 -2.837 -1.829 0.05
-10.174 -2.868 -1.829 0.07
-10.061 -2.871 -1.809 0.08
-9.968 -2.861 -1.792 0.08
-9.94 -2.887 -1.788 0.08
-9.936 -2.92 -1.789 0.15
-9.94 -2.955 -1.792 0.16
-9.855 -2.964 -1.777 0.04
-9.746 -2.965 -1.758 0.16
-9.649 -2.968 -1.741 0.05
-9.533 -2.949 -1.719 0.17
-9.37 -2.932 -1.69 0.04
-9.263 -2.93 -1.671 0.0
-9.186 -2.938 -1.658 0.0
-9.175 -2.966 -1.657 0.0
-10.256 -3.348 -1.869 0.05
-10.214 -3.37 -1.863 0.04
-10.186 -3.397 -1.86 0.07
-10.179 -3.412 -1.859 0.04
-10.129 -3.431 -1.852 0.13
-10.21 -3.494 -1.87 0.21
-10.176 -3.518 -1.865 0.09
-10.121 -3.535 -1.856 0.08
-10.106 -3.565 -1.856 0.16
-10.069 -3.588 -1.851 0.17
-10.052 -3.599 -1.848 0.17
-10.029 -3.627 -1.846 0.16
-10.025 -3.661 -1.848 0.18
-9.993 -3.685 -1.844 0.18
-9.96 -3.708 -1.839 0.09
-9.948 -3.74 -1.839 0.15
-9.887 -3.752 -1.83 0.21
-9.88 -3.785 -1.831 0.1
-9.896 -3.809 -1.835 0.16
-9.87 -3.835 -1.832 0.22
-9.843 -3.86 -1.829 0.22
-9.785 -3.873 -1.82 0.23
-9.771 -3.903 -1.82 0.36
-9.746 -3.929 -1.817 0.29
-9.759 -3.969 -1.822 0.11
-9.738 -3.979 -1.819 0.15
-9.713 -4.004 -1.817 0.05
-9.775 -4.065 -1.832 0.17
-9.795 -4.11 -1.838 0.19
-9.767 -4.134 -1.835 0.16
-9.716 -4.149 -1.828 0.17
-9.73 -4.191 -1.833 0.21
-9.673 -4.185 -1.823 0.05
-9.631 -4.202 -1.817 0.17
-9.623 -4.235 -1.818 0.05
-9.608 -4.264 -1.818 0.07
-9.65 -4.319 -1.829 0.16
-9.615 -4.34 -1.825 0.19
-9.553 -4.348 -1.815 0.22
-9.501 -4.343 -1.806 0.1
-9.475 -4.367 -1.803 0.08
-9.445 -4.389 -1.8 0.0
-9.365 -4.388 -1.787 0.0
-9.275 -4.382 -1.771 0.0
-9.272 -4.416 -1.773 0.0
-9.265 -4.449 -1.775 0.0
-9.233 -4.451 -1.77 0.0
-9.168 -4.455 -1.759 0.0
-9.095 -4.456 -1.747 0.0
-9.027 -4.457 -1.736 0.0
-8.942 -4.451 -1.721 0.0
-8.872 -4.451 -1.71 0.0
-8.782 -4.441 -1.694 0.0
-8.7 -4.416 -1.678 0.0
-8.623 -4.412 -1.665 0.0
-8.595 -4.432 -1.662 0.0
-9.324 -4.917 -1.823 0.07
-9.204 -4.891 -1.802 0.19
-9.133 -4.89 -1.79 0.28
-9.167 -4.927 -1.799 0.2
-9.147 -4.953 -1.798 0.16
-9.114 -4.972 -1.794 0.13
-9.098 -5.001 -1.794 0.18
-9.07 -5.023 -1.791 0.2
-9.032 -5.039 -1.787 0.25
-8.994 -5.055 -1.782 0.28
-9.0 -5.077 -1.785 0.11
-8.999 -5.114 -1.788 0.15
-8.969 -5.134 -1.785 0.12
-8.939 -5.154 -1.782 0.21
-8.968 -5.208 -1.792 0.11
-8.936 -5.227 -1.788 0.08
-8.924 -5.258 -1.79 0.17
-8.916 -5.272 -1.79 0.12
-8.871 -5.283 -1.783 0.09
-8.836 -5.3 -1.779 0.04
-8.819 -5.328 -1.779 0.07
-8.773 -5.338 -1.773 0.04
-8.752 -5.363 -1.772 0.0
-8.741 -5.394 -1.774 0.0
-8.731 -5.407 -1.773 0.0
-8.718 -5.436 -1.774 0.0
-8.667 -5.443 -1.767 0.0
-8.545 -5.441 -1.747 0.24
-8.542 -5.478 -1.751 0.19
-8.552 -5.522 -1.757 0.24
-8.553 -5.541 -1.759 0.04
-8.582 -5.598 -1.769 0.07
-8.531 -5.604 -1.762 0.19
-8.509 -5.627 -1.761 0.21
-8.496 -5.657 -1.762 0.2
-8.501 -5.699 -1.767 0.21
-8.478 -5.722 -1.766 0.18
-8.423 -5.724 -1.757 0.06
-8.417 -5.739 -1.758 0.18
-8.402 -5.768 -1.759 0.05
-8.379 -5.791 -1.758 0.08
-8.299 -5.775 -1.744 0.04
-8.236 -5.769 -1.734 0.07
-8.213 -5.792 -1.733 0.04
-8.212 -5.83 -1.737 0.07
-8.192 -5.835 -1.734 0.04
-8.183 -5.867 -1.736 0.07
-8.153 -5.885 -1.734 0.04
-8.116 -5.897 -1.729 0.04
-8.075 -5.906 -1.724 0.04
-8.048 -5.926 -1.722 0.07
-8.006 -5.933 -1.717 0.04
-7.97 -5.926 -1.711 0.08
-7.924 -5.931 -1.705 0.08
-7.868 -5.928 -1.696 0.04
-7.829 -5.937 -1.691 0.07
-7.774 -5.934 -1.683 0.04
-7.734 -5.942 -1.678 0.07
-7.681 -5.94 -1.67 0.04
-7.648 -5.934 -1.664 0.07
-7.6 -5.935 -1.657 0.08
-7.55 -5.934 -1.65 0.08
-7.494 -5.929 -1.641 0.04
-7.449 -5.932 -1.635 0.07
-7.388 -5.921 -1.625 0.04
-7.337 -5.918 -1.617 0.07
-7.285 -5.895 -1.607 0.04
-7.269 -5.92 -1.608 0.0
-7.206 -5.907 -1.597 0.0
-7.159 -5.906 -1.59 0.0
-7.117 -5.91 -1.585 0.0
-7.09 -5.925 -1.583 0.0
-7.776 -6.536 -1.753 0.0
-7.875 -6.662 -1.782 0.0
-7.79 -6.611 -1.763 0.13
-7.792 -6.654 -1.769 0.12
-7.756 -6.666 -1.765 0.29
-7.708 -6.667 -1.759 0.2
-7.699 -6.701 -1.762 0.28
-7.71 -6.754 -1.77 0.28
-7.677 -6.768 -1.767 0.23
-7.656 -6.771 -1.764 0.27
-7.657 -6.814 -1.77 0.2
-7.66 -6.861 -1.776 0.25
-7.624 -6.872 -1.772 0.22
-7.595 -6.889 -1.77 0.11
-7.545 -6.886 -1.763 0.21
-7.527 -6.914 -1.764 0.11
-7.486 -6.898 -1.757 0.16
-7.467 -6.924 -1.757 0.22
-7.435 -6.938 -1.755 0.18
-7.422 -6.969 -1.757 0.23
-7.404 -6.997 -1.758 0.2
-7.327 -6.967 -1.744 0.17
-7.319 -7.004 -1.747 0.28
-7.338 -7.044 -1.755 0.22
-7.333 -7.083 -1.759 0.11
-7.3 -7.097 -1.757 0.21
-7.301 -7.141 -1.763 0.2
-7.266 -7.152 -1.759 0.19
-7.258 -7.19 -1.763 0.12
-7.209 -7.186 -1.757 0.15
-7.196 -7.219 -1.759 0.22
-7.195 -7.24 -1.762 0.1
-7.148 -7.239 -1.755 0.18
-7.135 -7.271 -1.758 0.12
-7.092 -7.272 -1.753 0.15
-7.039 -7.263 -1.745 0.05
-7.01 -7.28 -1.743 0.17
-6.994 -7.309 -1.745 0.05
-6.986 -7.323 -1.746 0.16
-6.933 -7.313 -1.738 0.19
-6.891 -7.315 -1.733 0.1
-6.854 -7.322 -1.729 0.18
-6.811 -7.322 -1.723 0.05
-6.745 -7.298 -1.712 0.14
-6.732 -7.329 -1.714 0.21
-6.697 -7.315 -1.708 0.17
-6.668 -7.329 -1.706 0.16
-6.651 -7.357 -1.708 0.17
-6.626 -7.375 -1.707 0.04
-6.601 -7.394 -1.707 0.08
-6.569 -7.404 -1.705 0.15
-6.538 -7.416 -1.702 0.16
-6.51 -7.409 -1.698 0.16
-6.471 -7.411 -1.694 0.17
-6.434 -7.415 -1.69 0.04
-6.394 -7.416 -1.685 0.16
-6.356 -7.42 -1.681 0.05
-6.318 -7.422 -1.677 0.17
-6.278 -7.422 -1.672 0.05
-6.253 -7.417 -1.668 0.17
-6.215 -7.419 -1.664 0.05
-6.175 -7.419 -1.659 0.17
-6.142 -7.426 -1.656 0.2
-6.103 -7.427 -1.652 0.1
-6.06 -7.422 -1.646 0.16
-6.028 -7.43 -1.643 0.05
-5.993 -7.411 -1.637 0.17
-5.967 -7.426 -1.636 0.05
-5.919 -7.414 -1.629 0.17
-5.891 -7.427 -1.627 0.05
-5.839 -7.41 -1.619 0.17
-5.815 -7.426 -1.618 0.05
-5.763 -7.409 -1.61 0.16
-5.74 -7.403 -1.606 0.05
-5.702 -7.402 -1.602 0.16
-5.664 -7.401 -1.598 0.05
-5.63 -7.405 -1.594 0.16
-5.595 -7.407 -1.591 0.05
-5.552 -7.398 -1.585 0.17
-5.52 -7.404 -1.582 0.19
-5.485 -7.406 -1.578 0.18
-5.45 -7.383 -1.571 0.18
-5.409 -7.376 -1.566 0.04
-5.4 -7.412 -1.57 0.0
-5.348 -7.389 -1.561 0.0
-5.32 -7.4 -1.56 0.0
-5.301 -7.423 -1.561 0.0
-5.27 -7.428 -1.558 0.0
-5.279 -7.465 -1.565 0.0
-5.353 -7.62 -1.596 0.0
-5.428 -7.778 -1.628 0.01
-5.573 -8.037 -1.683 0.03
-5.573 -8.092 -1.691 0.07
-5.514 -8.061 -1.68 0.11
-5.483 -8.07 -1.678 0.23
-5.484 -8.098 -1.683 0.18
-5.462 -8.12 -1.684 0.13
-5.401 -8.085 -1.672 0.21
-5.348 -8.061 -1.663 0.24
-5.328 -8.086 -1.665 0.28
-5.29 -8.083 -1.661 0.23
-5.274 -8.114 -1.664 0.27
-5.259 -8.119 -1.663 0.21
-5.223 -8.119 -1.659 0.18
-5.208 -8.152 -1.663 0.3
-5.163 -8.137 -1.656 0.25
-5.105 -8.103 -1.645 0.25
-5.076 -8.113 -1.644 0.25
-5.072 -8.164 -1.651 0.24
-5.051 -8.158 -1.649 0.18
-5.034 -8.187 -1.651 0.41
-4.996 -8.185 -1.647 0.29
-4.964 -8.189 -1.645 0.27
-4.929 -8.189 -1.642 0.28
-4.899 -8.198 -1.64 0.28
-4.857 -8.186 -1.634 0.27
-4.848 -8.201 -1.636 0.26
-4.814 -8.202 -1.633 0.28
-4.783 -8.207 -1.631 0.29
-4.741 -8.195 -1.625 0.31
-4.707 -8.196 -1.622 0.28
-4.675 -8.199 -1.619 0.27
-4.647 -8.21 -1.619 0.27
-4.617 -8.188 -1.613 0.3
-4.592 -8.203 -1.613 0.26
-4.56 -8.207 -1.61 0.29
-4.525 -8.204 -1.607 0.3
-4.49 -8.201 -1.603 0.3
-4.458 -8.205 -1.601 0.28
-4.424 -8.203 -1.598 0.28
-4.391 -8.203 -1.595 0.29
-4.379 -8.212 -1.595 0.27
-4.344 -8.21 -1.592 0.28
-4.313 -8.213 -1.59 0.3
-4.277 -8.207 -1.586 0.31
-4.246 -8.21 -1.583 0.3
-4.215 -8.213 -1.581 0.29
-4.183 -8.214 -1.579 0.28
-4.159 -8.2 -1.574 0.3
-4.131 -8.207 -1.573 0.26
-4.1 -8.211 -1.572 0.28
-4.068 -8.212 -1.569 0.28
-4.036 -8.211 -1.566 0.28
-4.004 -8.211 -1.564 0.29
-3.965 -8.197 -1.558 0.3
-3.949 -8.196 -1.557 0.29
-3.916 -8.194 -1.554 0.28
-3.887 -8.199 -1.552 0.29
-3.851 -8.19 -1.548 0.27
-3.828 -8.208 -1.549 0.27
-3.796 -8.207 -1.546 0.3
-3.758 -8.192 -1.541 0.28
-3.745 -8.198 -1.541 0.27
-3.713 -8.196 -1.538 0.27
-3.681 -8.193 -1.535 0.27
-3.657 -8.21 -1.536 0.26
-3.625 -8.207 -1.533 0.28
-3.594 -8.206 -1.531 0.3
-3.559 -8.197 -1.527 0.27
-3.543 -8.195 -1.525 0.28
-3.512 -8.194 -1.523 0.29
-3.482 -8.194 -1.521 0.27
-3.456 -8.205 -1.521 0.25
-3.425 -8.205 -1.518 0.27
-3.394 -8.201 -1.516 0.3
-3.364 -8.203 -1.514 0.27
-3.35 -8.204 -1.513 0.26
-3.316 -8.195 -1.509 0.26
-3.291 -8.207 -1.509 0.26
-3.263 -8.213 -1.509 0.17
-3.24 -8.231 -1.51 0.3
-3.205 -8.216 -1.505 0.25
-3.176 -8.218 -1.504 0.16
-3.16 -8.254 -1.509 0.29
-3.136 -8.229 -1.503 0.25
-3.107 -8.232 -1.501 0.27
-3.085 -8.251 -1.503 0.23
-3.057 -8.255 -1.502 0.32
-3.033 -8.27 -1.503 0.29
-3.008 -8.283 -1.504 0.27
-2.981 -8.289 -1.503 0.31
-2.966 -8.29 -1.502 0.19
-2.951 -8.329 -1.508 0.27
-2.92 -8.325 -1.506 0.25
-2.889 -8.319 -1.503 0.26
-2.861 -8.325 -1.502 0.3
-2.829 -8.317 -1.499 0.27
-2.796 -8.305 -1.495 0.29
-2.787 -8.321 -1.497 0.27
-2.763 -8.335 -1.498 0.34
-2.73 -8.325 -1.494 0.32
-2.694 -8.304 -1.489 0.31
-2.668 -8.312 -1.489 0.32
-2.645 -8.33 -1.49 0.3
-2.62 -8.342 -1.491 0.35
-2.598 -8.316 -1.485 0.29
-2.578 -8.347 -1.49 0.3
-2.55 -8.347 -1.488 0.32
-2.525 -8.361 -1.489 0.3
-2.503 -8.382 -1.492 0.32
-2.477 -8.39 -1.492 0.33
-2.443 -8.373 -1.487 0.3
-2.423 -8.401 -1.491 0.38
-2.414 -8.42 -1.494 0.34
-2.388 -8.428 -1.494 0.29
-2.361 -8.433 -1.494 0.26
-2.332 -8.433 -1.492 0.3
-2.302 -8.427 -1.49 0.3
-2.272 -8.421 -1.487 0.32
-2.258 -8.423 -1.487 0.3
-2.227 -8.415 -1.484 0.31
-2.192 -8.387 -1.477 0.32
-2.174 -8.428 -1.484 0.33
-2.145 -8.422 -1.481 0.28
-2.114 -8.411 -1.478 0.31
-2.085 -8.408 -1.476 0.29
-2.056 -8.405 -1.474 0.32
-2.034 -8.372 -1.468 0.32
-2.011 -8.392 -1.47 0.36
-1.986 -8.406 -1.472 0.35
-1.957 -8.401 -1.469 0.34
-1.934 -8.42 -1.472 0.34
-1.909 -8.432 -1.473 0.29
-1.877 -8.417 -1.469 0.32
-1.865 -8.424 -1.47 0.27
-1.836 -8.416 -1.467 0.36
-1.812 -8.433 -1.469 0.31
-1.78 -8.416 -1.465 0.34
-1.76 -8.45 -1.47 0.33
-1.736 -8.467 -1.473 0.32
-1.708 -8.465 -1.471 0.31
-1.693 -8.46 -1.47 0.3
-1.66 -8.434 -1.464 0.3
-1.635 -8.447 -1.465 0.33
-1.606 -8.441 -1.463 0.37
-1.582 -8.457 -1.465 0.35
-1.558 -8.476 -1.468 0.34
-1.534 -8.496 -1.471 0.32
-1.518 -8.481 -1.468 0.32
-1.491 -8.484 -1.467 0.3
-1.461 -8.475 -1.465 0.28
-1.433 -8.47 -1.463 0.38
-1.408 -8.484 -1.465 0.32
-1.382 -8.49 -1.465 0.28
-1.355 -8.495 -1.465 0.3
-1.341 -8.491 -1.464 0.27
-1.313 -8.487 -1.462 0.36
-1.287 -8.497 -1.464 0.33
-1.26 -8.495 -1.462 0.29
-1.227 -8.462 -1.456 0.32
-1.194 -8.419 -1.447 0.34
-1.173 -8.458 -1.453 0.34
-1.162 -8.48 -1.457 0.31
-1.137 -8.495 -1.459 0.36
-1.107 -8.475 -1.455 0.32
-1.086 -8.519 -1.462 0.29
-1.058 -8.513 -1.461 0.32
-1.031 -8.516 -1.461 0.27
-1.004 -8.516 -1.46 0.3
-0.977 -8.515 -1.459 0.32
-0.962 -8.507 -1.457 0.34
-0.934 -8.5 -1.456 0.29
-0.907 -8.497 -1.454 0.33
-0.881 -8.503 -1.455 0.36
-0.851 -8.479 -1.45 0.3
-0.825 -8.481 -1.45 0.29
-0.811 -8.481 -1.45 0.37
-0.783 -8.468 -1.447 0.33
-0.752 -8.427 -1.439 0.32
-0.727 -8.445 -1.442 0.35
-0.7 -8.443 -1.441 0.38
-0.677 -8.489 -1.449 0.34
-0.648 -8.459 -1.443 0.29
-0.623 -8.477 -1.446 0.35
-0.612 -8.507 -1.452 0.31
-0.587 -8.541 -1.457 0.3
-0.561 -8.556 -1.46 0.3
-0.534 -8.546 -1.458 0.28
-0.503 -8.491 -1.447 0.34
-0.478 -8.508 -1.45 0.34
-0.453 -8.553 -1.458 0.3
-0.438 -8.526 -1.453 0.34
-0.411 -8.51 -1.45 0.32
-0.385 -8.532 -1.454 0.36
-0.358 -8.52 -1.451 0.29
-0.33 -8.499 -1.447 0.34
-0.303 -8.5 -1.447 0.33
-0.277 -8.513 -1.449 0.34
-0.264 -8.527 -1.452 0.33
-0.237 -8.514 -1.449 0.37
-0.209 -8.489 -1.445 0.29
-0.183 -8.516 -1.449 0.32
-0.157 -8.524 -1.451 0.36
-0.129 -8.501 -1.446 0.28
-0.103 -8.487 -1.444 0.35
-0.089 -8.497 -1.446 0.34
-0.062 -8.478 -1.442 0.28
-0.036 -8.464 -1.44 0.36
-0.009 -8.476 -1.442 0.29
0.018 -8.451 -1.437 0.39
0.044 -8.427 -1.433 0.32
0.071 -8.456 -1.438 0.36
0.084 -8.456 -1.438 0.29
0.111 -8.472 -1.441 0.33
0.137 -8.465 -1.44 0.33
0.164 -8.48 -1.443 0.36
0.191 -8.496 -1.446 0.28
0.217 -8.481 -1.443 0.32
0.245 -8.504 -1.448 0.35
0.258 -8.516 -1.45 0.32
0.285 -8.515 -1.45 0.33
0.311 -8.496 -1.446 0.34
0.338 -8.509 -1.449 0.34
0.365 -8.496 -1.447 0.33
0.392 -8.51 -1.45 0.32
0.418 -8.493 -1.447 0.32
0.445 -8.506 -1.449 0.3
0.459 -8.503 -1.449 0.34
0.484 -8.476 -1.444 0.36
0.51 -8.457 -1.441 0.3
0.538 -8.479 -1.445 0.38
0.563 -8.454 -1.441 0.34
0.59 -8.464 -1.443 0.33
0.609 -8.541 -1.458 0.35
0.633 -8.498 -1.45 0.24
0.656 -8.451 -1.442 0.5
0.692 -8.572 -1.465 0.32
0.718 -8.552 -1.461 0.29
0.743 -8.536 -1.459 0.32
0.768 -8.512 -1.455 0.3
0.79 -8.457 -1.445 0.32
0.807 -8.497 -1.453 0.31
0.834 -8.492 -1.452 0.37
0.859 -8.472 -1.449 0.34
0.884 -8.46 -1.447 0.32
0.905 -8.404 -1.437 0.3
0.927 -8.36 -1.43 0.39
0.957 -8.388 -1.436 0.29
0.972 -8.399 -1.438 0.36
1.001 -8.421 -1.442 0.35
1.035 -8.482 -1.454 0.3
1.061 -8.473 -1.453 0.28
1.088 -8.473 -1.454 0.33
1.117 -8.486 -1.457 0.34
1.143 -8.476 -1.456 0.32
1.151 -8.441 -1.45 0.32
1.18 -8.455 -1.453 0.32
1.208 -8.459 -1.454 0.29
1.233 -8.444 -1.452 0.34
1.261 -8.448 -1.454 0.27
1.289 -8.453 -1.456 0.34
1.312 -8.428 -1.452 0.3
1.322 -8.408 -1.448 0.31
1.346 -8.387 -1.445 0.27
1.371 -8.376 -1.444 0.33
1.398 -8.376 -1.445 0.34
1.425 -8.372 -1.445 0.36
1.449 -8.357 -1.443 0.31
1.481 -8.382 -1.448 0.41
1.494 -8.383 -1.449 0.29
1.521 -8.379 -1.449 0.34
1.547 -8.374 -1.449 0.34
1.569 -8.346 -1.445 0.32
1.595 -8.339 -1.444 0.34
1.619 -8.324 -1.442 0.34
1.646 -8.321 -1.443 0.37
1.66 -8.326 -1.444 0.32
1.693 -8.355 -1.451 0.36
1.722 -8.36 -1.453 0.32
1.748 -8.354 -1.453 0.29
1.773 -8.341 -1.451 0.34
1.799 -8.335 -1.451 0.31
1.824 -8.328 -1.451 0.29
1.853 -8.334 -1.453 0.25
1.86 -8.304 -1.448 0.18
1.894 -8.332 -1.454 0.3
1.915 -8.302 -1.45 0.25
1.94 -8.294 -1.449 0.19
1.972 -8.312 -1.454 0.27
1.988 -8.264 -1.446 0.23
2.002 -8.263 -1.446 0.19
2.03 -8.268 -1.449 0.28
2.05 -8.237 -1.444 0.25
2.079 -8.244 -1.446 0.25
2.104 -8.231 -1.445 0.18
2.136 -8.249 -1.45 0.28
2.158 -8.227 -1.447 0.25
2.182 -8.215 -1.446 0.26
2.199 -8.225 -1.449 0.27
2.226 -8.222 -1.449 0.28
2.252 -8.218 -1.45 0.28
2.28 -8.219 -1.452 0.29
2.306 -8.212 -1.452 0.27
2.337 -8.223 -1.455 0.26
2.362 -8.212 -1.454 0.28
2.38 -8.225 -1.458 0.27
2.407 -8.222 -1.458 0.29
2.434 -8.22 -1.46 0.29
2.462 -8.22 -1.461 0.29
2.49 -8.219 -1.462 0.29
2.521 -8.226 -1.465 0.3
2.547 -8.219 -1.465 0.29
2.562 -8.224 -1.467 0.3
2.589 -8.22 -1.468 0.3
2.618 -8.221 -1.47 0.28
2.646 -8.218 -1.471 0.29
2.672 -8.212 -1.471 0.3
2.705 -8.226 -1.476 0.3
2.73 -8.213 -1.475 0.27
2.746 -8.218 -1.477 0.32
2.775 -8.221 -1.479 0.31
2.801 -8.212 -1.479 0.29
2.833 -8.22 -1.482 0.28
2.861 -8.219 -1.484 0.29
2.888 -8.213 -1.484 0.29
2.918 -8.215 -1.486 0.29
2.939 -8.233 -1.491 0.28
2.962 -8.218 -1.49 0.28
2.993 -8.222 -1.492 0.3
3.025 -8.229 -1.496 0.29
3.049 -8.214 -1.494 0.29
3.076 -8.208 -1.495 0.29
3.108 -8.217 -1.499 0.3
3.124 -8.219 -1.5 0.3
3.154 -8.22 -1.502 0.28
3.185 -8.223 -1.505 0.28
3.212 -8.217 -1.506 0.32
3.244 -8.221 -1.509 0.3
3.273 -8.22 -1.51 0.3
3.3 -8.214 -1.511 0.3
3.318 -8.219 -1.513 0.31
3.35 -8.225 -1.517 0.31
3.379 -8.222 -1.518 0.3
3.408 -8.219 -1.52 0.29
3.439 -8.221 -1.522 0.3
3.459 -8.197 -1.52 0.27
3.491 -8.201 -1.522 0.29
3.515 -8.222 -1.528 0.3
3.539 -8.206 -1.527 0.3
3.579 -8.227 -1.533 0.34
3.606 -8.219 -1.534 0.21
3.622 -8.185 -1.529 0.27
3.641 -8.159 -1.526 0.23
3.677 -8.171 -1.531 0.26
3.679 -8.14 -1.526 0.27
3.728 -8.18 -1.537 0.16
3.766 -8.197 -1.542 0.29
3.77 -8.137 -1.533 0.22
3.795 -8.125 -1.533 0.19
3.844 -8.163 -1.543 0.26
3.854 -8.117 -1.536 0.23
3.886 -8.119 -1.539 0.31
3.905 -8.125 -1.541 0.19
3.915 -8.081 -1.535 0.27
3.948 -8.085 -1.538 0.23
3.986 -8.097 -1.543 0.22
4.029 -8.122 -1.551 0.13
4.046 -8.091 -1.547 0.21
4.078 -8.091 -1.55 0.19
4.097 -8.099 -1.553 0.28
4.112 -8.065 -1.548 0.25
4.158 -8.092 -1.557 0.21
4.182 -8.075 -1.556 0.25
4.206 -8.06 -1.556 0.21
4.232 -8.049 -1.556 0.05
4.265 -8.049 -1.559 0.0
4.266 -8.02 -1.554 0.0
4.278 -7.982 -1.549 0.0
4.274 -7.915 -1.538 0.0
4.273 -7.853 -1.528 0.0
4.262 -7.774 -1.514 0.0
4.214 -7.63 -1.486 0.0
4.2 -7.548 -1.472 0.0
4.179 -7.481 -1.459 0.0
4.195 -7.456 -1.456 0.0
4.225 -7.454 -1.459 0.0
4.251 -7.444 -1.46 0.0
4.263 -7.412 -1.456 0.0
4.293 -7.409 -1.458 0.03
4.322 -7.406 -1.46 0.03
4.346 -7.421 -1.465 0.03
4.375 -7.418 -1.467 0.04
4.41 -7.422 -1.471 0.04
4.441 -7.422 -1.474 0.07
4.472 -7.422 -1.477 0.04
4.513 -7.436 -1.483 0.04
4.542 -7.432 -1.485 0.07
4.558 -7.432 -1.486 0.04
4.595 -7.439 -1.491 0.07
4.621 -7.43 -1.492 0.04
4.659 -7.438 -1.497 0.07
4.689 -7.434 -1.5 0.04
4.726 -7.441 -1.504 0.07
4.76 -7.442 -1.508 0.08
4.778 -7.445 -1.51 0.08
4.813 -7.448 -1.514 0.08
4.847 -7.449 -1.518 0.08
4.872 -7.437 -1.518 0.08
4.908 -7.44 -1.522 0.09
4.946 -7.448 -1.528 0.08
4.964 -7.424 -1.526 0.08
4.999 -7.426 -1.53 0.08
5.025 -7.439 -1.534 0.08
5.065 -7.448 -1.54 0.08
5.092 -7.437 -1.541 0.08
5.125 -7.436 -1.544 0.08
5.155 -7.429 -1.546 0.08
5.187 -7.426 -1.549 0.08
5.2 -7.419 -1.55 0.04
5.242 -7.429 -1.556 0.07
5.266 -7.414 -1.556 0.04
5.305 -7.42 -1.561 0.07
5.337 -7.414 -1.564 0.15
5.377 -7.421 -1.569 0.17
5.396 -7.398 -1.568 0.04
5.435 -7.403 -1.573 0.16
5.463 -7.417 -1.578 0.11
5.504 -7.423 -1.583 0.17
5.538 -7.42 -1.586 0.23
5.555 -7.395 -1.585 0.24
5.572 -7.37 -1.583 0.11
5.592 -7.347 -1.582 0.08
5.592 -7.3 -1.575 0.04
5.584 -7.265 -1.569 0.15
5.62 -7.264 -1.573 0.18
5.654 -7.262 -1.576 0.18
5.681 -7.249 -1.577 0.17
5.718 -7.25 -1.582 0.12
5.808 -7.317 -1.602 0.15
5.831 -7.298 -1.602 0.18
5.848 -7.297 -1.603 0.21
5.859 -7.263 -1.6 0.18
5.879 -7.242 -1.599 0.09
5.892 -7.211 -1.596 0.09
5.897 -7.171 -1.591 0.09
5.906 -7.136 -1.587 0.09
5.926 -7.114 -1.586 0.18
5.909 -7.072 -1.578 0.21
5.973 -7.103 -1.59 0.18
6.006 -7.096 -1.593 0.23
6.014 -7.061 -1.589 0.16
6.032 -7.037 -1.588 0.26
6.033 -6.993 -1.582 0.2
6.088 -7.013 -1.591 0.23
6.067 -6.966 -1.582 0.18
6.111 -6.972 -1.589 0.25
6.096 -6.911 -1.578 0.22
6.143 -6.92 -1.585 0.23
6.18 -6.918 -1.59 0.13
6.174 -6.868 -1.582 0.21
6.24 -6.898 -1.594 0.19
6.26 -6.899 -1.597 0.17
6.245 -6.838 -1.587 0.2
6.293 -6.848 -1.594 0.12
6.292 -6.803 -1.588 0.19
6.324 -6.795 -1.591 0.11
6.351 -6.781 -1.592 0.18
6.376 -6.765 -1.593 0.05
6.373 -6.741 -1.59 0.18
6.433 -6.762 -1.6 0.11
6.444 -6.731 -1.597 0.18
6.466 -6.712 -1.598 0.22
6.501 -6.706 -1.601 0.22
6.537 -6.701 -1.605 0.11
6.509 -6.629 -1.592 0.21
6.535 -6.636 -1.597 0.11
6.566 -6.625 -1.599 0.0
6.551 -6.568 -1.59 0.0
6.538 -6.514 -1.581 0.0
6.404 -6.34 -1.541 0.0
6.091 -5.99 -1.454 0.0
6.063 -5.926 -1.442 0.03
6.096 -5.92 -1.446 0.07
6.125 -5.93 -1.451 0.15
6.159 -5.926 -1.455 0.16
6.205 -5.932 -1.462 0.18
6.242 -5.93 -1.466 0.18
6.283 -5.932 -1.472 0.18
6.328 -5.937 -1.479 0.18
6.363 -5.933 -1.483 0.18
6.393 -5.942 -1.488 0.18
6.435 -5.943 -1.494 0.18
6.476 -5.944 -1.5 0.17
6.52 -5.947 -1.506 0.18
6.557 -5.943 -1.511 0.18
6.599 -5.944 -1.517 0.18
6.643 -5.945 -1.523 0.18
6.665 -5.947 -1.526 0.18
6.707 -5.947 -1.532 0.17
6.748 -5.945 -1.537 0.17
6.786 -5.941 -1.542 0.18
6.828 -5.94 -1.548 0.18
6.863 -5.933 -1.552 0.16
6.895 -5.923 -1.555 0.16
6.916 -5.922 -1.558 0.04
6.924 -5.892 -1.556 0.17
6.97 -5.893 -1.562 0.2
7.006 -5.886 -1.566 0.18
7.037 -5.874 -1.569 0.09
7.07 -5.865 -1.573 0.08
7.084 -5.839 -1.572 0.08
7.071 -5.809 -1.566 0.14
7.043 -5.749 -1.556 0.11
7.073 -5.737 -1.558 0.21
7.142 -5.756 -1.57 0.2
7.178 -5.748 -1.575 0.1
7.209 -5.735 -1.578 0.15
7.248 -5.73 -1.583 0.23
7.249 -5.712 -1.581 0.24
7.269 -5.691 -1.581 0.25
7.237 -5.629 -1.57 0.28
7.228 -5.586 -1.564 0.29
7.246 -5.563 -1.564 0.27
7.265 -5.541 -1.564 0.32
7.234 -5.481 -1.553 0.28
7.153 -5.402 -1.532 0.29
7.172 -5.381 -1.532 0.29
7.211 -5.375 -1.537 0.33
7.24 -5.362 -1.54 0.29
7.227 -5.317 -1.533 0.33
