# .PCD v.7 - Point Cloud Data file format
VERSION .7
FIELDS x y z intensity
SIZE 4 4 4 4
TYPE F F F F
COUNT 1 1 1 1
WIDTH 1975
HEIGHT 1
VIEWPOINT 0 0 0 1 0 0 0
POINTS 1975
DATA ascii
3.568 -2.284 -1.632 0.26
3.557 -2.262 -1.623 0.43
3.624 -2.288 -1.652 0.28
3.601 -2.266 -1.639 0.3
3.622 -2.263 -1.646 0.32
3.65 -2.264 -1.656 0.31
3.624 -2.232 -1.64 0.32
3.64 -2.227 -1.645 0.21
3.633 -2.207 -1.638 0.31
3.661 -2.208 -1.648 0.34
3.621 -2.176 -1.627 0.3
3.65 -2.178 -1.638 0.41
3.648 -2.161 -1.633 0.25
3.691 -2.171 -1.651 0.27
3.575 -2.088 -1.592 0.35
3.586 -2.08 -1.594 0.31
3.597 -2.071 -1.597 0.29
3.654 -2.096 -1.622 0.33
3.671 -2.091 -1.627 0.35
3.71 -2.097 -1.643 0.36
3.709 -2.081 -1.639 0.18
3.688 -2.054 -1.626 0.31
3.714 -2.053 -1.635 0.23
3.722 -2.042 -1.636 0.21
3.71 -2.029 -1.629 0.14
3.677 -1.996 -1.61 0.21
3.671 -1.977 -1.604 0.25
3.7 -1.978 -1.615 0.26
3.681 -1.954 -1.604 0.32
3.665 -1.93 -1.593 0.3
3.664 -1.915 -1.59 0.22
3.67 -1.911 -1.591 0.31
3.685 -1.904 -1.595 0.22
3.681 -1.887 -1.591 0.17
3.675 -1.87 -1.585 0.29
3.671 -1.853 -1.581 0.36
3.677 -1.842 -1.581 0.4
3.704 -1.841 -1.591 0.21
3.714 -1.838 -1.594 0.26
3.706 -1.82 -1.588 0.3
3.712 -1.808 -1.588 0.14
3.727 -1.801 -1.592 0.2
3.74 -1.793 -1.595 0.11
3.754 -1.785 -1.599 0.2
3.766 -1.776 -1.602 0.17
3.797 -1.784 -1.615 0.27
3.808 -1.774 -1.617 0.22
3.845 -1.777 -1.632 0.2
3.873 -1.774 -1.642 0.23
3.9 -1.772 -1.652 0.21
3.919 -1.766 -1.658 0.22
3.952 -1.765 -1.67 0.17
3.973 -1.76 -1.677 0.23
3.999 -1.764 -1.688 0.1
4.039 -1.766 -1.703 0.18
4.053 -1.757 -1.707 0.21
4.067 -1.747 -1.71 0.17
4.112 -1.751 -1.728 0.24
4.105 -1.733 -1.723 0.18
4.122 -1.725 -1.728 0.23
4.118 -1.716 -1.725 0.19
4.132 -1.706 -1.729 0.24
4.148 -1.698 -1.733 0.19
4.138 -1.678 -1.726 0.23
4.143 -1.665 -1.726 0.19
4.143 -1.65 -1.724 0.11
4.155 -1.64 -1.727 0.21
4.147 -1.629 -1.723 0.11
4.173 -1.624 -1.732 0.18
4.164 -1.606 -1.726 0.22
4.169 -1.593 -1.726 0.2
4.178 -1.581 -1.727 0.21
4.171 -1.563 -1.722 0.1
4.176 -1.55 -1.722 0.2
4.173 -1.542 -1.72 0.19
4.186 -1.532 -1.723 0.1
4.175 -1.513 -1.717 0.19
4.189 -1.503 -1.72 0.2
4.185 -1.487 -1.717 0.19
4.197 -1.476 -1.72 0.05
4.191 -1.459 -1.715 0.18
4.209 -1.451 -1.721 0.2
4.199 -1.44 -1.716 0.1
4.198 -1.425 -1.714 0.2
4.199 -1.411 -1.712 0.2
4.214 -1.401 -1.717 0.1
4.222 -1.389 -1.718 0.16
4.216 -1.372 -1.714 0.05
4.213 -1.357 -1.71 0.16
4.222 -1.353 -1.714 0.11
4.221 -1.338 -1.711 0.17
4.229 -1.325 -1.713 0.21
4.233 -1.312 -1.713 0.09
4.223 -1.295 -1.707 0.2
4.24 -1.285 -1.712 0.11
4.231 -1.268 -1.707 0.19
4.235 -1.262 -1.707 0.19
4.251 -1.252 -1.713 0.1
4.261 -1.24 -1.715 0.16
4.248 -1.222 -1.708 0.21
4.258 -1.211 -1.71 0.1
4.251 -1.194 -1.706 0.09
4.242 -1.177 -1.701 0.18
4.258 -1.175 -1.707 0.05
4.256 -1.16 -1.704 0.17
4.274 -1.15 -1.71 0.21
4.282 -1.138 -1.712 0.09
4.278 -1.122 -1.709 0.18
4.281 -1.109 -1.709 0.19
4.287 -1.096 -1.71 0.09
4.283 -1.088 -1.707 0.0
4.292 -1.076 -1.71 0.0
4.293 -1.062 -1.709 0.0
4.307 -1.051 -1.714 0.0
4.104 1.164 -1.681 0.0
4.103 1.178 -1.682 0.06
4.093 1.189 -1.679 0.04
4.092 1.203 -1.681 0.16
4.087 1.208 -1.679 0.1
4.108 1.228 -1.69 0.16
4.079 1.234 -1.679 0.21
4.082 1.249 -1.682 0.1
4.087 1.264 -1.686 0.16
4.069 1.273 -1.68 0.22
4.062 1.284 -1.679 0.1
4.072 1.295 -1.684 0.18
4.064 1.306 -1.682 0.21
4.052 1.316 -1.679 0.09
4.046 1.328 -1.678 0.18
4.052 1.344 -1.682 0.1
4.039 1.354 -1.679 0.19
4.042 1.369 -1.682 0.11
4.032 1.38 -1.679 0.19
4.032 1.387 -1.68 0.11
4.024 1.399 -1.679 0.18
4.019 1.411 -1.679 0.11
4.031 1.429 -1.685 0.17
4.005 1.435 -1.676 0.05
4.011 1.451 -1.681 0.18
4.015 1.467 -1.685 0.2
4.002 1.469 -1.68 0.17
4.003 1.484 -1.682 0.1
3.988 1.492 -1.678 0.19
3.994 1.509 -1.682 0.11
3.987 1.521 -1.682 0.2
3.991 1.536 -1.685 0.1
3.99 1.543 -1.686 0.18
3.979 1.553 -1.683 0.21
3.977 1.567 -1.685 0.16
3.965 1.577 -1.682 0.25
3.971 1.593 -1.686 0.19
3.96 1.604 -1.684 0.22
3.96 1.618 -1.686 0.19
3.953 1.622 -1.684 0.22
3.953 1.637 -1.686 0.19
3.943 1.647 -1.684 0.12
3.936 1.659 -1.683 0.19
3.937 1.674 -1.686 0.11
3.923 1.683 -1.682 0.21
3.925 1.698 -1.685 0.11
3.909 1.706 -1.681 0.2
3.917 1.717 -1.685 0.11
3.913 1.73 -1.686 0.18
3.911 1.743 -1.688 0.12
3.899 1.753 -1.685 0.17
3.898 1.767 -1.687 0.22
3.891 1.779 -1.686 0.1
3.887 1.792 -1.687 0.17
3.879 1.795 -1.685 0.21
3.88 1.811 -1.688 0.19
3.873 1.822 -1.687 0.12
3.869 1.835 -1.688 0.18
3.866 1.849 -1.689 0.12
3.871 1.866 -1.694 0.18
3.85 1.871 -1.687 0.12
3.858 1.882 -1.692 0.18
3.824 1.881 -1.679 0.05
3.83 1.898 -1.685 0.18
3.817 1.907 -1.682 0.05
3.825 1.926 -1.688 0.14
3.812 1.934 -1.685 0.19
3.803 1.945 -1.683 0.17
3.809 1.956 -1.688 0.18
3.8 1.966 -1.686 0.16
3.79 1.976 -1.685 0.18
3.784 1.988 -1.685 0.1
3.783 2.003 -1.687 0.09
3.772 2.012 -1.685 0.08
3.765 2.024 -1.685 0.18
3.762 2.03 -1.685 0.2
3.761 2.044 -1.687 0.18
3.749 2.053 -1.685 0.17
3.74 2.063 -1.683 0.18
3.743 2.08 -1.688 0.1
3.738 2.093 -1.689 0.16
3.726 2.102 -1.686 0.21
3.726 2.11 -1.688 0.09
3.712 2.117 -1.684 0.2
3.703 2.127 -1.683 0.11
3.706 2.145 -1.688 0.18
3.698 2.155 -1.687 0.11
3.694 2.169 -1.689 0.17
3.683 2.178 -1.686 0.22
3.684 2.194 -1.69 0.18
3.674 2.196 -1.687 0.23
3.67 2.209 -1.689 0.19
3.654 2.215 -1.684 0.22
3.659 2.234 -1.69 0.21
3.641 2.239 -1.685 0.23
3.636 2.251 -1.685 0.13
3.634 2.266 -1.688 0.27
3.636 2.275 -1.691 0.19
3.617 2.279 -1.685 0.25
3.617 2.295 -1.689 0.19
3.602 2.302 -1.685 0.12
3.593 2.312 -1.684 0.21
3.585 2.322 -1.683 0.16
3.58 2.335 -1.685 0.26
3.577 2.341 -1.685 0.09
3.575 2.356 -1.688 0.18
3.57 2.368 -1.689 0.12
3.562 2.38 -1.689 0.18
3.548 2.387 -1.685 0.22
3.529 2.39 -1.679 0.2
3.53 2.407 -1.684 0.23
3.528 2.414 -1.685 0.19
3.527 2.429 -1.688 0.13
3.516 2.438 -1.686 0.19
3.508 2.449 -1.686 0.11
3.51 2.466 -1.691 0.18
3.488 2.468 -1.684 0.12
3.48 2.479 -1.684 0.19
3.474 2.482 -1.682 0.11
3.467 2.494 -1.683 0.2
3.461 2.506 -1.684 0.05
3.444 2.51 -1.679 0.17
3.444 2.526 -1.683 0.2
3.443 2.543 -1.687 0.2
3.428 2.548 -1.683 0.11
3.428 2.557 -1.685 0.21
3.417 2.565 -1.684 0.11
3.412 2.578 -1.685 0.17
3.407 2.591 -1.687 0.21
3.396 2.6 -1.685 0.19
3.386 2.609 -1.685 0.21
3.384 2.624 -1.688 0.2
3.371 2.631 -1.685 0.22
3.358 2.63 -1.681 0.18
3.359 2.647 -1.685 0.25
3.353 2.66 -1.687 0.21
3.339 2.666 -1.684 0.21
3.336 2.681 -1.687 0.18
3.328 2.692 -1.687 0.24
3.325 2.707 -1.69 0.19
3.311 2.704 -1.685 0.23
3.305 2.716 -1.686 0.18
3.291 2.722 -1.683 0.23
3.28 2.73 -1.682 0.18
3.277 2.745 -1.685 0.23
3.274 2.76 -1.688 0.23
3.262 2.768 -1.686 0.21
3.264 2.778 -1.689 0.13
3.249 2.783 -1.686 0.19
3.243 2.796 -1.688 0.11
3.229 2.801 -1.685 0.2
3.223 2.814 -1.686 0.2
3.214 2.824 -1.686 0.24
3.194 2.824 -1.68 0.14
3.203 2.842 -1.688 0.26
3.192 2.849 -1.686 0.16
3.192 2.868 -1.692 0.24
3.179 2.874 -1.689 0.19
3.161 2.875 -1.684 0.21
3.162 2.895 -1.69 0.18
3.142 2.895 -1.684 0.24
3.139 2.91 -1.687 0.19
3.134 2.915 -1.687 0.24
3.125 2.925 -1.687 0.18
3.117 2.936 -1.688 0.23
3.109 2.947 -1.689 0.1
3.103 2.959 -1.69 0.18
3.092 2.968 -1.689 0.12
3.087 2.981 -1.692 0.17
3.077 2.981 -1.689 0.22
3.063 2.987 -1.686 0.17
3.057 2.999 -1.688 0.25
3.048 3.01 -1.689 0.2
3.042 3.022 -1.69 0.23
3.029 3.029 -1.689 0.1
3.023 3.041 -1.69 0.15
3.019 3.047 -1.691 0.21
3.007 3.054 -1.689 0.16
2.999 3.065 -1.69 0.26
2.988 3.073 -1.689 0.18
2.975 3.079 -1.688 0.24
2.98 3.103 -1.696 0.2
2.959 3.101 -1.689 0.22
2.963 3.115 -1.695 0.19
2.941 3.112 -1.688 0.21
2.939 3.129 -1.692 0.16
2.924 3.133 -1.689 0.23
2.912 3.14 -1.688 0.16
2.911 3.158 -1.693 0.25
2.905 3.171 -1.696 0.2
2.897 3.173 -1.694 0.12
2.885 3.18 -1.692 0.2
2.873 3.187 -1.692 0.2
2.868 3.202 -1.695 0.21
2.852 3.204 -1.691 0.22
2.84 3.21 -1.689 0.21
2.837 3.227 -1.694 0.11
2.824 3.233 -1.692 0.21
2.819 3.238 -1.692 0.17
2.814 3.252 -1.696 0.26
2.802 3.26 -1.695 0.19
2.787 3.263 -1.692 0.12
2.782 3.277 -1.695 0.18
2.766 3.279 -1.691 0.2
2.761 3.295 -1.695 0.18
2.739 3.279 -1.684 0.06
2.742 3.303 -1.692 0.17
2.733 3.313 -1.693 0.11
2.728 3.329 -1.697 0.18
2.715 3.335 -1.696 0.12
2.704 3.342 -1.695 0.09
2.691 3.347 -1.693 0.18
2.689 3.356 -1.696 0.2
2.678 3.363 -1.695 0.1
2.659 3.361 -1.689 0.15
2.654 3.377 -1.693 0.17
2.646 3.388 -1.695 0.23
2.644 3.408 -1.701 0.19
2.627 3.407 -1.696 0.22
2.62 3.422 -1.699 0.19
2.614 3.424 -1.699 0.12
2.601 3.429 -1.697 0.17
2.588 3.435 -1.696 0.23
2.582 3.449 -1.699 0.2
2.563 3.446 -1.693 0.21
2.555 3.459 -1.696 0.2
2.55 3.474 -1.699 0.11
2.54 3.472 -1.696 0.2
2.531 3.483 -1.698 0.11
2.525 3.497 -1.701 0.18
2.508 3.498 -1.697 0.22
2.5 3.509 -1.699 0.19
2.483 3.509 -1.695 0.22
2.482 3.53 -1.702 0.17
2.473 3.53 -1.699 0.24
2.458 3.531 -1.696 0.16
2.451 3.545 -1.699 0.24
2.439 3.551 -1.699 0.09
2.431 3.563 -1.701 0.18
2.414 3.563 -1.697 0.12
2.401 3.568 -1.696 0.15
2.393 3.58 -1.698 0.24
2.389 3.587 -1.699 0.18
2.376 3.591 -1.698 0.23
2.362 3.596 -1.696 0.17
2.352 3.605 -1.697 0.25
2.35 3.626 -1.704 0.21
2.334 3.625 -1.7 0.22
2.317 3.625 -1.696 0.18
2.314 3.633 -1.699 0.25
2.299 3.634 -1.696 0.17
2.291 3.646 -1.698 0.24
2.278 3.652 -1.697 0.18
2.269 3.662 -1.699 0.23
2.262 3.677 -1.703 0.19
2.251 3.686 -1.703 0.25
2.242 3.683 -1.7 0.15
2.232 3.693 -1.702 0.26
2.218 3.695 -1.699 0.2
2.205 3.701 -1.699 0.24
2.195 3.711 -1.7 0.19
2.183 3.716 -1.699 0.23
2.175 3.729 -1.703 0.23
2.157 3.727 -1.698 0.12
2.153 3.733 -1.699 0.21
2.144 3.745 -1.702 0.11
2.125 3.739 -1.696 0.21
2.117 3.752 -1.699 0.11
2.106 3.76 -1.699 0.2
2.094 3.767 -1.699 0.11
2.088 3.783 -1.704 0.18
2.076 3.775 -1.699 0.12
2.076 3.804 -1.71 0.18
2.056 3.796 -1.703 0.21
2.036 3.786 -1.695 0.17
2.027 3.799 -1.698 0.24
2.025 3.823 -1.706 0.18
2.003 3.812 -1.698 0.23
2.001 3.821 -1.701 0.22
1.991 3.831 -1.703 0.2
1.974 3.829 -1.699 0.24
1.972 3.855 -1.708 0.2
1.954 3.848 -1.702 0.23
1.937 3.846 -1.698 0.1
1.928 3.858 -1.701 0.18
1.922 3.86 -1.7 0.11
1.906 3.859 -1.697 0.21
1.901 3.878 -1.703 0.2
1.888 3.883 -1.703 0.14
1.874 3.885 -1.701 0.21
1.859 3.886 -1.699 0.17
1.849 3.895 -1.7 0.27
1.84 3.909 -1.704 0.21
1.829 3.902 -1.699 0.22
1.822 3.918 -1.704 0.17
1.809 3.922 -1.703 0.25
1.797 3.929 -1.704 0.19
1.783 3.932 -1.703 0.12
1.771 3.937 -1.703 0.21
1.759 3.944 -1.703 0.11
1.748 3.935 -1.698 0.18
1.742 3.956 -1.705 0.2
1.728 3.958 -1.703 0.24
1.714 3.958 -1.701 0.21
1.704 3.971 -1.704 0.21
1.695 3.984 -1.708 0.19
1.679 3.981 -1.704 0.25
1.671 3.979 -1.702 0.18
1.657 3.982 -1.701 0.23
1.646 3.989 -1.702 0.18
1.633 3.994 -1.702 0.25
1.618 3.994 -1.699 0.16
1.612 4.015 -1.706 0.26
1.602 4.025 -1.709 0.21
1.59 4.014 -1.703 0.23
1.583 4.032 -1.709 0.18
1.567 4.029 -1.705 0.25
1.553 4.03 -1.703 0.18
1.542 4.04 -1.706 0.25
1.531 4.05 -1.708 0.18
1.516 4.05 -1.706 0.23
1.5 4.044 -1.701 0.19
1.497 4.057 -1.706 0.13
1.482 4.055 -1.703 0.19
1.472 4.068 -1.706 0.2
1.458 4.069 -1.705 0.25
1.446 4.075 -1.706 0.2
1.434 4.082 -1.706 0.23
1.419 4.081 -1.704 0.2
1.414 4.087 -1.706 0.25
1.401 4.089 -1.705 0.22
1.387 4.09 -1.703 0.17
1.376 4.102 -1.706 0.27
1.363 4.106 -1.706 0.19
1.35 4.11 -1.706 0.24
1.34 4.121 -1.71 0.21
1.33 4.115 -1.706 0.12
1.318 4.121 -1.706 0.21
1.305 4.123 -1.706 0.11
1.295 4.138 -1.71 0.18
1.281 4.138 -1.709 0.22
1.267 4.139 -1.707 0.18
1.254 4.143 -1.707 0.24
1.241 4.148 -1.708 0.19
1.235 4.152 -1.709 0.23
1.221 4.152 -1.707 0.19
1.212 4.17 -1.713 0.25
1.197 4.167 -1.71 0.18
1.185 4.174 -1.712 0.23
1.173 4.181 -1.713 0.22
1.158 4.178 -1.71 0.12
1.151 4.178 -1.71 0.2
1.139 4.187 -1.712 0.11
1.125 4.187 -1.71 0.2
1.114 4.199 -1.714 0.23
1.101 4.203 -1.714 0.11
1.089 4.21 -1.716 0.18
1.073 4.204 -1.712 0.12
1.057 4.197 -1.707 0.18
1.052 4.204 -1.71 0.11
1.042 4.222 -1.716 0.17
1.026 4.214 -1.711 0.23
1.015 4.224 -1.714 0.18
1.002 4.228 -1.714 0.25
0.989 4.233 -1.715 0.18
0.974 4.23 -1.713 0.24
0.969 4.237 -1.715 0.21
0.955 4.238 -1.714 0.11
0.942 4.243 -1.715 0.19
0.929 4.248 -1.716 0.19
0.915 4.245 -1.713 0.16
0.904 4.261 -1.719 0.19
0.89 4.26 -1.717 0.12
0.888 4.281 -1.726 0.17
0.87 4.262 -1.717 0.12
0.858 4.272 -1.72 0.18
0.841 4.261 -1.713 0.05
0.828 4.263 -1.713 0.18
0.816 4.275 -1.717 0.2
0.801 4.268 -1.713 0.16
0.788 4.274 -1.715 0.05
0.782 4.279 -1.717 0.16
0.77 4.285 -1.718 0.11
0.758 4.299 -1.723 0.16
0.743 4.292 -1.719 0.12
0.729 4.292 -1.718 0.18
0.716 4.297 -1.719 0.22
0.704 4.308 -1.723 0.18
0.697 4.307 -1.722 0.25
0.685 4.318 -1.726 0.17
0.67 4.313 -1.723 0.24
0.655 4.308 -1.72 0.17
0.641 4.306 -1.718 0.23
0.629 4.316 -1.721 0.16
0.617 4.329 -1.726 0.23
0.612 4.339 -1.73 0.22
0.595 4.322 -1.722 0.12
0.583 4.337 -1.727 0.18
0.569 4.333 -1.725 0.22
0.554 4.322 -1.72 0.1
0.539 4.313 -1.715 0.2
0.528 4.333 -1.723 0.11
0.516 4.353 -1.731 0.17
0.507 4.335 -1.723 0.23
0.495 4.35 -1.728 0.19
0.479 4.335 -1.721 0.12
0.467 4.344 -1.724 0.17
0.453 4.345 -1.724 0.11
0.44 4.354 -1.727 0.17
0.426 4.355 -1.727 0.12
0.419 4.349 -1.724 0.18
0.405 4.35 -1.724 0.21
0.392 4.353 -1.725 0.16
0.378 4.358 -1.727 0.25
0.364 4.352 -1.724 0.1
0.351 4.355 -1.724 0.2
0.337 4.363 -1.727 0.11
0.33 4.353 -1.723 0.2
0.316 4.348 -1.72 0.11
0.303 4.367 -1.728 0.18
0.289 4.365 -1.727 0.23
0.275 4.354 -1.722 0.18
0.262 4.374 -1.73 0.19
0.248 4.362 -1.724 0.21
0.242 4.373 -1.729 0.16
0.227 4.366 -1.726 0.25
0.214 4.367 -1.726 0.22
0.2 4.368 -1.726 0.1
0.186 4.368 -1.726 0.19
0.172 4.367 -1.725 0.11
0.159 4.377 -1.729 0.18
0.145 4.37 -1.726 0.05
0.138 4.372 -1.727 0.18
0.125 4.378 -1.729 0.11
0.111 4.371 -1.726 0.2
0.097 4.38 -1.73 0.11
0.084 4.386 -1.732 0.18
0.07 4.381 -1.73 0.22
0.056 4.374 -1.727 0.09
0.049 4.376 -1.727 0.19
0.035 4.385 -1.731 0.11
0.022 4.394 -1.735 0.18
0.008 4.378 -1.728 0.12
-0.006 4.383 -1.731 0.18
-0.02 4.382 -1.73 0.12
-0.033 4.385 -1.731 0.18
-0.04 4.381 -1.73 0.22
-0.054 4.383 -1.731 0.1
-0.068 4.376 -1.727 0.15
-0.082 4.381 -1.73 0.22
-0.095 4.388 -1.733 0.09
-0.109 4.388 -1.733 0.18
-0.123 4.382 -1.731 0.19
-0.137 4.381 -1.731 0.1
-0.144 4.379 -1.73 0.19
-0.157 4.382 -1.731 0.11
-0.171 4.38 -1.731 0.18
-0.185 4.383 -1.732 0.11
-0.199 4.388 -1.734 0.18
-0.213 4.386 -1.734 0.21
-0.226 4.374 -1.729 0.16
-0.233 4.377 -1.731 0.23
-0.247 4.388 -1.735 0.1
-0.26 4.366 -1.727 0.09
-0.274 4.367 -1.727 0.18
-0.289 4.385 -1.735 0.11
-0.301 4.369 -1.729 0.18
-0.316 4.381 -1.734 0.11
-0.33 4.388 -1.738 0.16
-0.336 4.372 -1.731 0.22
-0.35 4.371 -1.731 0.1
-0.364 4.374 -1.733 0.18
-0.377 4.369 -1.731 0.11
-0.392 4.381 -1.737 0.18
-0.405 4.374 -1.734 0.21
-0.42 4.38 -1.738 0.19
-0.427 4.377 -1.737 0.12
-0.439 4.363 -1.731 0.2
-0.453 4.362 -1.731 0.11
-0.468 4.379 -1.739 0.18
-0.482 4.375 -1.738 0.22
-0.494 4.357 -1.731 0.1
-0.51 4.378 -1.741 0.17
-0.516 4.368 -1.737 0.22
-0.53 4.372 -1.739 0.18
-0.543 4.361 -1.735 0.1
-0.556 4.352 -1.732 0.19
-0.57 4.357 -1.735 0.11
-0.584 4.354 -1.734 0.2
-0.599 4.366 -1.741 0.11
-0.611 4.35 -1.734 0.2
-0.619 4.36 -1.739 0.11
-0.632 4.352 -1.737 0.19
-0.647 4.358 -1.74 0.11
-0.661 4.358 -1.741 0.16
-0.674 4.35 -1.738 0.21
-0.687 4.346 -1.738 0.1
-0.701 4.346 -1.738 0.19
-0.708 4.346 -1.739 0.11
-0.723 4.35 -1.741 0.21
-0.736 4.344 -1.74 0.11
-0.749 4.336 -1.738 0.18
-0.763 4.335 -1.738 0.11
-0.776 4.329 -1.737 0.18
-0.79 4.334 -1.74 0.2
-0.797 4.329 -1.738 0.1
-0.811 4.332 -1.741 0.18
-0.825 4.33 -1.741 0.12
-0.836 4.316 -1.736 0.2
-0.852 4.322 -1.74 0.11
-0.864 4.313 -1.737 0.21
-0.879 4.319 -1.741 0.11
-0.892 4.311 -1.738 0.19
-0.899 4.311 -1.739 0.11
-0.913 4.31 -1.74 0.18
-0.927 4.311 -1.741 0.21
-0.943 4.319 -1.746 0.19
-0.954 4.307 -1.742 0.22
-0.966 4.293 -1.738 0.18
-0.979 4.29 -1.738 0.24
-0.987 4.292 -1.739 0.18
-1.001 4.292 -1.741 0.25
-1.014 4.287 -1.74 0.18
-1.029 4.291 -1.743 0.24
-1.042 4.284 -1.741 0.15
-1.053 4.274 -1.738 0.06
-1.069 4.278 -1.741 0.17
-1.082 4.276 -1.742 0.11
-1.087 4.267 -1.739 0.18
-1.101 4.266 -1.74 0.11
-1.114 4.26 -1.739 0.18
-1.133 4.277 -1.748 0.11
-1.142 4.257 -1.741 0.2
-1.155 4.251 -1.74 0.11
-1.171 4.259 -1.745 0.18
-1.177 4.255 -1.744 0.12
-1.187 4.239 -1.738 0.2
-1.205 4.251 -1.745 0.11
-1.213 4.229 -1.738 0.2
-1.232 4.243 -1.745 0.25
-1.243 4.234 -1.743 0.11
-1.254 4.22 -1.738 0.19
-1.266 4.214 -1.738 0.11
-1.276 4.222 -1.742 0.21
-1.285 4.203 -1.735 0.18
-1.3 4.206 -1.738 0.26
-1.314 4.203 -1.739 0.23
-1.331 4.211 -1.745 0.24
-1.341 4.198 -1.741 0.26
-1.355 4.196 -1.741 0.34
-1.359 4.185 -1.738 0.23
-1.371 4.177 -1.736 0.31
-1.386 4.18 -1.739 0.34
-1.397 4.168 -1.736 0.3
-1.411 4.168 -1.738 0.37
-1.421 4.153 -1.733 0.27
-1.442 4.173 -1.744 0.45
-1.444 4.158 -1.738 0.26
-1.455 4.147 -1.735 0.26
-1.472 4.154 -1.741 0.36
-1.483 4.143 -1.738 0.3
-1.496 4.138 -1.738 0.38
-1.507 4.128 -1.735 0.3
-1.519 4.121 -1.734 0.32
-1.527 4.123 -1.736 0.36
-1.541 4.119 -1.737 0.33
-1.553 4.113 -1.736 0.33
-1.568 4.115 -1.739 0.32
-1.578 4.101 -1.735 0.32
-1.592 4.1 -1.737 0.32
-1.605 4.093 -1.736 0.33
-1.618 4.09 -1.737 0.29
-1.627 4.094 -1.74 0.4
-1.647 4.108 -1.748 0.37
-1.658 4.097 -1.746 0.29
-1.664 4.075 -1.738 0.31
-1.676 4.068 -1.738 0.19
-1.692 4.07 -1.741 0.27
-1.705 4.064 -1.741 0.18
-1.718 4.061 -1.741 0.25
-1.724 4.056 -1.741 0.18
-1.736 4.049 -1.74 0.24
-1.746 4.037 -1.737 0.18
-1.761 4.036 -1.739 0.13
-1.776 4.038 -1.742 0.2
-1.789 4.032 -1.742 0.21
-1.802 4.026 -1.742 0.25
-1.804 4.015 -1.738 0.23
-1.817 4.011 -1.739 0.17
-1.835 4.015 -1.744 0.26
-1.843 4.001 -1.74 0.25
-1.857 3.999 -1.741 0.17
-1.872 3.998 -1.744 0.26
-1.885 3.992 -1.744 0.19
-1.89 3.987 -1.743 0.13
-1.901 3.978 -1.741 0.21
-1.914 3.972 -1.741 0.2
-1.931 3.976 -1.746 0.25
-1.938 3.958 -1.741 0.21
-1.946 3.944 -1.737 0.14
-1.97 3.961 -1.748 0.29
-1.971 3.948 -1.743 0.16
-1.983 3.94 -1.742 0.23
-1.997 3.937 -1.744 0.17
-2.009 3.931 -1.744 0.13
-2.023 3.928 -1.745 0.21
-2.034 3.918 -1.744 0.17
-2.051 3.92 -1.748 0.26
-2.06 3.909 -1.745 0.19
-2.067 3.907 -1.746 0.23
-2.084 3.909 -1.75 0.21
-2.093 3.896 -1.747 0.12
-2.105 3.889 -1.747 0.2
-2.116 3.881 -1.746 0.2
-2.135 3.885 -1.752 0.25
-2.144 3.874 -1.749 0.22
-2.147 3.864 -1.746 0.18
-2.165 3.869 -1.752 0.26
-2.178 3.863 -1.752 0.2
-2.186 3.848 -1.748 0.23
-2.2 3.846 -1.751 0.23
-2.207 3.83 -1.746 0.17
-2.224 3.831 -1.75 0.27
-2.227 3.823 -1.748 0.25
-2.243 3.822 -1.751 0.18
-2.254 3.813 -1.75 0.26
-2.266 3.806 -1.75 0.24
-2.277 3.797 -1.749 0.17
-2.294 3.8 -1.754 0.27
-2.304 3.789 -1.752 0.25
-2.324 3.795 -1.759 0.2
-2.325 3.783 -1.755 0.25
-2.339 3.779 -1.756 0.22
-2.348 3.767 -1.754 0.17
-2.363 3.766 -1.757 0.27
-2.371 3.752 -1.754 0.25
-2.384 3.746 -1.755 0.16
-2.399 3.743 -1.757 0.27
-2.402 3.735 -1.755 0.16
-2.414 3.729 -1.755 0.25
-2.43 3.728 -1.759 0.22
-2.44 3.717 -1.757 0.22
-2.453 3.711 -1.758 0.23
-2.464 3.703 -1.758 0.05
-2.485 3.709 -1.765 0.0
-2.503 3.71 -1.769 0.0
-2.538 3.751 -1.792 0.0
-3.072 3.212 -1.756 0.0
-3.082 3.212 -1.759 0.0
-3.097 3.208 -1.762 0.0
-3.096 3.186 -1.755 0.03
-3.113 3.184 -1.76 0.03
-3.123 3.175 -1.76 0.07
-3.136 3.167 -1.762 0.08
-3.144 3.156 -1.761 0.14
-3.159 3.152 -1.764 0.1
-3.161 3.143 -1.762 0.18
-3.174 3.137 -1.764 0.2
-3.184 3.127 -1.764 0.09
-3.198 3.121 -1.766 0.18
-3.205 3.108 -1.765 0.23
-3.212 3.095 -1.763 0.18
-3.23 3.093 -1.768 0.25
-3.229 3.083 -1.765 0.19
-3.242 3.075 -1.766 0.22
-3.257 3.07 -1.769 0.1
-3.256 3.05 -1.763 0.21
-3.269 3.043 -1.766 0.11
-3.284 3.038 -1.769 0.15
-3.286 3.02 -1.764 0.22
-3.296 3.02 -1.767 0.1
-3.297 3.002 -1.762 0.18
-3.309 2.994 -1.764 0.05
-3.319 2.984 -1.764 0.16
-3.329 2.975 -1.765 0.19
-3.332 2.958 -1.761 0.09
-3.348 2.954 -1.765 0.19
-3.357 2.943 -1.765 0.05
-3.356 2.933 -1.762 0.17
-3.377 2.932 -1.768 0.1
-3.388 2.924 -1.769 0.18
-3.393 2.91 -1.767 0.23
-3.415 2.91 -1.774 0.21
-3.414 2.891 -1.769 0.21
-3.411 2.869 -1.762 0.17
-3.427 2.873 -1.768 0.23
-3.426 2.854 -1.762 0.16
-3.445 2.852 -1.768 0.25
-3.447 2.835 -1.764 0.19
-3.465 2.832 -1.769 0.24
-3.467 2.816 -1.766 0.1
-3.477 2.806 -1.766 0.2
-3.479 2.789 -1.762 0.15
-3.496 2.794 -1.769 0.29
-3.501 2.78 -1.767 0.18
-3.515 2.773 -1.77 0.25
-3.521 2.76 -1.769 0.21
-3.53 2.749 -1.769 0.12
-3.532 2.733 -1.766 0.2
-3.542 2.723 -1.766 0.18
-3.554 2.723 -1.77 0.27
-3.567 2.715 -1.773 0.2
-3.565 2.696 -1.767 0.12
-3.569 2.682 -1.765 0.21
-3.584 2.675 -1.768 0.18
-3.604 2.673 -1.774 0.26
-3.606 2.657 -1.771 0.22
-3.613 2.653 -1.773 0.2
-3.623 2.643 -1.773 0.24
-3.618 2.622 -1.766 0.23
-3.626 2.61 -1.766 0.15
-3.645 2.607 -1.772 0.3
-3.653 2.595 -1.772 0.21
-3.654 2.578 -1.768 0.19
-3.673 2.583 -1.776 0.26
-3.663 2.559 -1.766 0.16
-3.68 2.554 -1.771 0.27
-3.692 2.545 -1.773 0.23
-3.687 2.524 -1.766 0.26
-3.698 2.515 -1.768 0.15
-3.719 2.513 -1.775 0.28
-3.723 2.507 -1.775 0.2
-3.728 2.493 -1.773 0.25
-3.734 2.48 -1.773 0.23
-3.733 2.462 -1.768 0.17
-3.751 2.458 -1.773 0.27
-3.759 2.446 -1.773 0.22
-3.767 2.434 -1.773 0.21
-3.781 2.426 -1.776 0.23
-3.781 2.418 -1.775 0.25
-3.786 2.404 -1.773 0.17
-3.796 2.395 -1.775 0.27
-3.796 2.378 -1.771 0.22
-3.81 2.37 -1.774 0.2
-3.822 2.361 -1.776 0.14
-3.829 2.349 -1.776 0.21
-3.824 2.337 -1.772 0.18
-3.851 2.337 -1.782 0.27
-3.854 2.322 -1.779 0.2
-3.861 2.31 -1.779 0.12
-3.861 2.293 -1.776 0.21
-3.863 2.278 -1.773 0.2
-3.881 2.273 -1.779 0.13
-3.877 2.254 -1.773 0.21
-3.89 2.253 -1.778 0.23
-3.905 2.246 -1.782 0.23
-3.909 2.232 -1.78 0.18
-3.916 2.219 -1.78 0.25
-3.922 2.206 -1.779 0.18
-3.928 2.194 -1.779 0.24
-3.929 2.178 -1.776 0.09
-3.96 2.187 -1.79 0.0
-3.95 2.166 -1.782 0.0
-3.962 2.156 -1.784 0.0
-3.98 2.15 -1.79 0.0
-16.959 -1.095 -7.047 0.04
-16.949 -1.148 -7.043 0.04
-16.961 -1.202 -7.05 0.0
-16.943 -1.255 -7.044 0.0
-16.941 -1.308 -7.045 0.0
-16.944 -1.335 -7.047 0.0
-3.758 -1.841 -1.647 0.0
-3.743 -1.849 -1.643 0.0
-3.729 -1.857 -1.639 0.0
-3.743 -1.871 -1.647 0.03
-3.749 -1.888 -1.652 0.13
-3.736 -1.896 -1.649 0.16
-3.728 -1.907 -1.648 0.17
-3.726 -1.921 -1.65 0.09
-3.723 -1.934 -1.651 0.18
-3.72 -1.948 -1.653 0.21
-3.732 -1.969 -1.661 0.25
-3.757 -1.989 -1.675 0.29
-3.764 -2.008 -1.681 0.28
-3.785 -2.034 -1.694 0.25
-3.77 -2.042 -1.69 0.19
-3.748 -2.045 -1.682 0.29
-3.725 -2.048 -1.675 0.23
-3.691 -2.044 -1.661 0.18
-3.688 -2.05 -1.661 0.28
-3.688 -2.065 -1.665 0.25
-3.691 -2.082 -1.669 0.28
-3.688 -2.096 -1.671 0.23
-3.704 -2.12 -1.682 0.3
-3.726 -2.148 -1.696 0.36
-3.709 -2.154 -1.691 0.27
-3.695 -2.153 -1.685 0.19
-3.696 -2.17 -1.689 0.14
-3.683 -2.178 -1.686 0.21
-3.676 -2.189 -1.686 0.14
-3.694 -2.216 -1.699 0.29
-3.698 -2.234 -1.704 0.24
-3.682 -2.24 -1.699 0.27
-3.686 -2.25 -1.703 0.24
-3.69 -2.269 -1.709 0.29
-3.647 -2.258 -1.691 0.16
-3.656 -2.279 -1.699 0.3
-3.673 -2.306 -1.711 0.21
-3.657 -2.312 -1.706 0.3
-3.676 -2.34 -1.72 0.26
-3.682 -2.352 -1.724 0.32
-3.654 -2.35 -1.714 0.24
-3.592 -2.327 -1.687 0.29
-3.576 -2.332 -1.682 0.33
-3.565 -2.342 -1.681 0.3
-3.575 -2.364 -1.689 0.44
-3.6 -2.396 -1.706 0.33
-3.608 -2.418 -1.713 0.26
-3.595 -2.417 -1.709 0.24
-3.555 -2.407 -1.692 0.23
-3.536 -2.411 -1.687 0.19
-3.546 -2.434 -1.696 0.24
-3.544 -2.449 -1.699 0.21
-3.561 -2.477 -1.711 0.29
-3.562 -2.494 -1.716 0.29
-3.549 -2.493 -1.711 0.26
-3.567 -2.522 -1.724 0.34
-3.557 -2.533 -1.724 0.32
-3.564 -2.554 -1.731 0.35
-3.567 -2.573 -1.737 0.29
-3.553 -2.58 -1.734 0.29
-3.53 -2.58 -1.726 0.3
-3.533 -2.591 -1.73 0.24
-3.537 -2.611 -1.736 0.24
-3.536 -2.628 -1.74 0.41
-3.528 -2.639 -1.74 0.21
-3.518 -2.649 -1.739 0.26
-3.51 -2.66 -1.739 0.25
-3.503 -2.672 -1.74 0.26
-3.485 -2.667 -1.733 0.23
-3.459 -2.665 -1.724 0.27
-3.435 -2.663 -1.715 0.32
-3.421 -2.67 -1.712 0.39
-3.425 -2.691 -1.719 0.36
-3.426 -2.708 -1.724 0.28
-3.426 -2.726 -1.728 0.32
-3.406 -2.727 -1.722 0.28
-3.391 -2.725 -1.717 0.2
-3.387 -2.739 -1.719 0.32
-3.381 -2.752 -1.72 0.22
-3.35 -2.744 -1.708 0.25
-3.35 -2.761 -1.713 0.28
-3.367 -2.793 -1.727 0.46
-3.381 -2.813 -1.737 0.22
-3.362 -2.816 -1.731 0.3
-3.285 -2.77 -1.694 0.16
-3.317 -2.814 -1.717 0.32
-3.292 -2.81 -1.707 0.23
-3.232 -2.778 -1.679 0.04
-3.2 -2.768 -1.666 0.16
-3.198 -2.784 -1.67 0.19
-3.199 -2.793 -1.673 0.18
-3.207 -2.818 -1.682 0.18
-3.195 -2.826 -1.681 0.18
-3.167 -2.819 -1.67 0.16
-3.183 -2.851 -1.684 0.1
-3.185 -2.87 -1.69 0.18
-3.162 -2.868 -1.682 0.11
-3.15 -2.866 -1.678 0.2
-3.131 -2.867 -1.672 0.11
-3.11 -2.865 -1.665 0.19
-3.101 -2.875 -1.665 0.11
-3.073 -2.867 -1.654 0.19
-3.064 -2.877 -1.654 0.11
-3.038 -2.872 -1.645 0.19
-3.032 -2.884 -1.647 0.11
-3.022 -2.883 -1.644 0.17
-2.99 -2.871 -1.63 0.21
-2.979 -2.878 -1.629 0.0
-2.954 -2.872 -1.619 0.0
-2.954 -2.89 -1.625 0.0
-2.909 -2.865 -1.604 0.0
-2.581 -3.539 -1.729 0.0
-2.56 -3.533 -1.722 0.1
-2.573 -3.574 -1.739 0.2
-2.577 -3.592 -1.746 0.32
-2.585 -3.627 -1.76 0.29
-2.56 -3.617 -1.751 0.23
-2.528 -3.595 -1.735 0.27
-2.513 -3.598 -1.733 0.25
-2.496 -3.597 -1.728 0.19
-2.487 -3.609 -1.731 0.27
-2.483 -3.615 -1.731 0.23
-2.46 -3.606 -1.723 0.15
-2.456 -3.624 -1.728 0.28
-2.447 -3.635 -1.73 0.23
-2.431 -3.636 -1.727 0.26
-2.42 -3.644 -1.727 0.26
-2.408 -3.652 -1.727 0.27
-2.405 -3.66 -1.729 0.27
-2.403 -3.681 -1.736 0.28
-2.395 -3.695 -1.739 0.28
-2.387 -3.707 -1.741 0.3
-2.371 -3.709 -1.738 0.27
-2.356 -3.71 -1.735 0.31
-2.338 -3.708 -1.731 0.18
-2.335 -3.729 -1.738 0.29
-2.326 -3.728 -1.735 0.25
-2.315 -3.735 -1.735 0.26
-2.318 -3.766 -1.747 0.24
-2.297 -3.759 -1.74 0.21
-2.289 -3.773 -1.743 0.14
-2.284 -3.791 -1.748 0.18
-2.261 -3.781 -1.74 0.25
-2.253 -3.78 -1.738 0.33
-2.237 -3.78 -1.734 0.3
-2.241 -3.814 -1.748 0.32
-2.22 -3.805 -1.74 0.3
-2.208 -3.812 -1.74 0.37
-2.199 -3.824 -1.742 0.19
-2.198 -3.85 -1.752 0.45
-2.186 -3.844 -1.747 0.33
-2.172 -3.848 -1.745 0.34
-2.12 -3.784 -1.711 0.2
-2.099 -3.775 -1.703 0.32
-2.125 -3.849 -1.736 0.25
-2.133 -3.891 -1.753 0.27
-2.127 -3.909 -1.759 0.25
-2.101 -3.877 -1.741 0.25
-2.083 -3.873 -1.737 0.13
-2.078 -3.893 -1.743 0.2
-2.089 -3.942 -1.763 0.23
-2.06 -3.917 -1.748 0.28
-2.044 -3.917 -1.745 0.31
-2.036 -3.932 -1.749 0.34
-2.021 -3.919 -1.741 0.21
-2.004 -3.915 -1.737 0.35
-1.996 -3.93 -1.741 0.41
-1.996 -3.96 -1.752 0.29
-1.994 -3.986 -1.762 0.24
-1.985 -4.001 -1.766 0.3
-1.981 -4.024 -1.773 0.27
-1.971 -4.02 -1.77 0.26
-1.951 -4.011 -1.763 0.3
-1.939 -4.018 -1.763 0.3
-1.915 -4.002 -1.753 0.34
-1.896 -3.993 -1.746 0.28
-1.883 -3.999 -1.746 0.31
-1.873 -4.01 -1.748 0.3
-1.859 -3.996 -1.741 0.23
-1.85 -4.01 -1.745 0.25
-1.847 -4.036 -1.754 0.25
-1.834 -4.042 -1.754 0.32
-1.795 -3.989 -1.727 0.2
-1.768 -3.964 -1.713 0.22
-1.76 -3.98 -1.717 0.1
-1.756 -3.986 -1.719 0.18
-1.742 -3.99 -1.718 0.11
-1.732 -4.001 -1.72 0.18
-1.713 -3.991 -1.713 0.05
-1.703 -4.001 -1.716 0.18
-1.69 -4.007 -1.716 0.2
-1.676 -4.008 -1.714 0.1
-1.666 -4.02 -1.717 0.17
-1.654 -4.01 -1.711 0.05
-1.645 -4.023 -1.715 0.17
-1.637 -4.039 -1.72 0.2
-1.632 -4.064 -1.729 0.1
-1.622 -4.074 -1.731 0.18
-1.618 -4.102 -1.741 0.18
-1.612 -4.124 -1.749 0.09
-1.615 -4.152 -1.761 0.17
-1.6 -4.152 -1.759 0.28
-1.59 -4.164 -1.762 0.34
-1.577 -4.169 -1.762 0.28
-1.56 -4.165 -1.758 0.19
-1.554 -4.187 -1.766 0.33
-1.535 -4.177 -1.759 0.41
-1.536 -4.2 -1.768 0.36
-1.508 -4.165 -1.75 0.35
-1.487 -4.149 -1.741 0.26
-1.475 -4.155 -1.741 0.21
-1.458 -4.148 -1.736 0.28
-1.456 -4.185 -1.751 0.34
-1.447 -4.2 -1.755 0.32
-1.429 -4.171 -1.741 0.21
-1.42 -4.188 -1.747 0.45
-1.396 -4.159 -1.732 0.25
-1.38 -4.156 -1.729 0.27
-1.368 -4.163 -1.73 0.35
-1.35 -4.153 -1.724 0.28
-1.335 -4.152 -1.721 0.04
-1.332 -4.163 -1.725 0.08
-1.32 -4.172 -1.727 0.08
-1.308 -4.178 -1.728 0.09
-1.294 -4.18 -1.727 0.18
-1.278 -4.176 -1.724 0.22
-1.269 -4.192 -1.729 0.21
-1.229 -4.109 -1.691 0.36
-1.234 -4.17 -1.716 0.21
-1.228 -4.175 -1.717 0.19
-1.223 -4.207 -1.73 0.19
-1.219 -4.241 -1.743 0.33
-1.203 -4.234 -1.738 0.18
-1.188 -4.235 -1.737 0.36
-1.172 -4.229 -1.733 0.29
-1.154 -4.215 -1.725 0.25
-1.145 -4.207 -1.72 0.24
-1.125 -4.189 -1.711 0.23
-1.118 -4.214 -1.72 0.27
-1.116 -4.26 -1.739 0.46
-1.081 -4.181 -1.703 0.12
-1.064 -4.169 -1.696 0.2
-1.052 -4.177 -1.699 0.11
-1.042 -4.167 -1.693 0.2
-1.031 -4.177 -1.696 0.11
-1.015 -4.168 -1.691 0.19
-1.001 -4.167 -1.689 0.05
-0.99 -4.179 -1.693 0.17
-0.978 -4.188 -1.696 0.11
-0.965 -4.191 -1.696 0.17
-0.958 -4.192 -1.696 0.22
-0.943 -4.185 -1.691 0.17
-0.937 -4.218 -1.704 0.16
-0.93 -4.25 -1.717 0.09
-0.916 -4.253 -1.717 0.18
-0.903 -4.254 -1.716 0.11
-0.894 -4.278 -1.725 0.2
-0.886 -4.276 -1.724 0.22
-0.868 -4.255 -1.713 0.29
-0.854 -4.253 -1.711 0.34
-0.845 -4.279 -1.721 0.22
-0.833 -4.289 -1.724 0.14
-0.813 -4.26 -1.711 0.18
-0.799 -4.257 -1.709 0.21
-0.792 -4.257 -1.708 0.1
-0.78 -4.267 -1.711 0.18
-0.766 -4.265 -1.71 0.2
-0.753 -4.271 -1.711 0.24
-0.741 -4.281 -1.714 0.19
-0.724 -4.262 -1.705 0.31
-0.709 -4.255 -1.701 0.32
-0.701 -4.252 -1.699 0.31
-0.69 -4.263 -1.703 0.28
-0.681 -4.293 -1.715 0.29
-0.667 -4.291 -1.713 0.31
-0.654 -4.299 -1.716 0.25
-0.639 -4.288 -1.71 0.21
-0.624 -4.287 -1.709 0.14
-0.61 -4.279 -1.705 0.25
-0.605 -4.293 -1.71 0.32
-0.593 -4.31 -1.717 0.48
-0.579 -4.308 -1.715 0.32
-0.559 -4.262 -1.695 0.17
-0.546 -4.264 -1.695 0.33
-0.537 -4.302 -1.71 0.18
-0.517 -4.251 -1.688 0.29
-0.511 -4.257 -1.69 0.36
-0.498 -4.264 -1.692 0.31
-0.483 -4.253 -1.687 0.36
-0.471 -4.26 -1.689 0.29
-0.46 -4.289 -1.701 0.25
-0.453 -4.347 -1.725 0.28
-0.438 -4.337 -1.72 0.21
-0.433 -4.351 -1.726 0.3
-0.42 -4.36 -1.729 0.21
-0.399 -4.291 -1.699 0.19
-0.383 -4.263 -1.687 0.18
-0.368 -4.242 -1.678 0.16
-0.353 -4.232 -1.673 0.17
-0.34 -4.237 -1.675 0.16
-0.333 -4.23 -1.672 0.16
-0.32 -4.239 -1.675 0.17
-0.307 -4.238 -1.674 0.17
-0.294 -4.239 -1.674 0.16
-0.28 -4.232 -1.671 0.04
-0.266 -4.233 -1.671 0.07
-0.255 -4.256 -1.68 0.04
-0.249 -4.273 -1.687 0.08
-0.236 -4.288 -1.693 0.11
-0.225 -4.33 -1.71 0.06
-0.211 -4.316 -1.704 0.07
-0.198 -4.32 -1.706 0.08
-0.184 -4.322 -1.706 0.21
-0.171 -4.328 -1.709 0.11
-0.164 -4.329 -1.709 0.19
-0.149 -4.303 -1.698 0.19
-0.135 -4.287 -1.691 0.1
-0.122 -4.297 -1.695 0.21
-0.109 -4.303 -1.697 0.2
-0.095 -4.307 -1.699 0.13
-0.082 -4.303 -1.697 0.19
-0.075 -4.32 -1.704 0.2
-0.062 -4.346 -1.715 0.18
-0.049 -4.348 -1.716 0.23
-0.035 -4.369 -1.724 0.2
-0.021 -4.343 -1.713 0.22
-0.008 -4.347 -1.715 0.27
0.006 -4.337 -1.711 0.25
0.013 -4.339 -1.712 0.1
0.027 -4.339 -1.712 0.0
0.04 -4.343 -1.713 0.0
0.054 -4.348 -1.716 0.0
0.068 -4.357 -1.72 0.0
0.082 -4.383 -1.731 0.0
0.096 -4.406 -1.741 0.0
0.11 -4.4 -1.738 0.0
0.116 -4.395 -1.736 0.0
0.13 -4.4 -1.738 0.0
0.144 -4.401 -1.739 0.0
0.158 -4.406 -1.741 0.0
0.357 -4.289 -1.697 0.0
0.367 -4.244 -1.679 0.0
0.374 -4.242 -1.678 0.0
0.385 -4.213 -1.666 0.0
0.4 -4.236 -1.676 0.0
0.413 -4.229 -1.674 0.0
0.428 -4.246 -1.682 0.0
0.44 -4.233 -1.677 0.0
0.454 -4.234 -1.678 0.0
0.461 -4.237 -1.679 0.0
0.474 -4.233 -1.679 0.0
1.822 -3.971 -1.724 0.0
1.87 -3.928 -1.717 0.0
1.871 -3.897 -1.705 0.0
1.88 -3.886 -1.703 0.0
1.889 -3.872 -1.699 0.0
1.895 -3.854 -1.693 0.0
1.909 -3.852 -1.695 0.0
1.901 -3.82 -1.682 0.0
1.906 -3.8 -1.675 0.0
1.919 -3.795 -1.675 0.0
1.94 -3.807 -1.684 0.0
1.945 -3.788 -1.678 0.0
1.954 -3.777 -1.675 0.0
1.964 -3.767 -1.674 0.0
1.976 -3.761 -1.674 0.03
1.983 -3.76 -1.675 0.03
2.004 -3.772 -1.683 0.07
2.01 -3.754 -1.678 0.08
2.029 -3.761 -1.684 0.14
2.041 -3.754 -1.684 0.22
2.047 -3.738 -1.679 0.17
2.064 -3.756 -1.689 0.23
2.096 -3.787 -1.707 0.16
2.12 -3.801 -1.717 0.28
2.141 -3.81 -1.725 0.23
2.141 -3.783 -1.715 0.29
2.143 -3.758 -1.706 0.26
2.149 -3.742 -1.702 0.27
2.154 -3.737 -1.701 0.27
2.163 -3.725 -1.699 0.33
2.182 -3.731 -1.705 0.27
2.203 -3.74 -1.713 0.25
2.207 -3.719 -1.706 0.12
2.219 -3.714 -1.706 0.18
2.249 -3.737 -1.721 0.17
2.252 -3.729 -1.719 0.14
2.261 -3.717 -1.717 0.21
2.28 -3.722 -1.723 0.2
2.287 -3.707 -1.719 0.14
2.294 -3.692 -1.715 0.19
2.306 -3.686 -1.716 0.24
2.307 -3.662 -1.707 0.23
2.325 -3.666 -1.713 0.16
2.328 -3.657 -1.71 0.21
2.328 -3.631 -1.701 0.18
2.364 -3.663 -1.72 0.14
2.375 -3.654 -1.72 0.18
2.384 -3.643 -1.718 0.21
2.4 -3.643 -1.722 0.35
2.4 -3.617 -1.713 0.26
2.405 -3.614 -1.713 0.27
2.424 -3.617 -1.718 0.17
2.443 -3.621 -1.724 0.27
2.449 -3.605 -1.72 0.19
2.452 -3.585 -1.713 0.23
2.457 -3.568 -1.709 0.2
2.486 -3.586 -1.722 0.3
2.498 -3.591 -1.727 0.21
2.492 -3.559 -1.714 0.24
2.494 -3.538 -1.707 0.2
2.502 -3.525 -1.705 0.12
2.513 -3.517 -1.705 0.2
2.537 -3.527 -1.714 0.17
2.545 -3.516 -1.713 0.27
2.54 -3.497 -1.705 0.25
2.554 -3.494 -1.707 0.25
2.571 -3.493 -1.711 0.28
2.584 -3.488 -1.713 0.28
2.592 -3.476 -1.71 0.23
2.61 -3.478 -1.716 0.27
2.615 -3.461 -1.711 0.22
2.619 -3.455 -1.71 0.26
2.622 -3.437 -1.705 0.11
2.623 -3.415 -1.698 0.19
2.618 -3.386 -1.687 0.2
2.633 -3.384 -1.69 0.27
2.651 -3.386 -1.696 0.18
2.648 -3.36 -1.686 0.23
2.648 -3.349 -1.682 0.19
2.661 -3.343 -1.684 0.22
2.66 -3.32 -1.676 0.1
2.67 -3.312 -1.676 0.09
2.68 -3.302 -1.675 0.09
2.692 -3.297 -1.677 0.09
2.706 -3.292 -1.679 0.09
2.708 -3.284 -1.677 0.08
2.712 -3.268 -1.673 0.08
2.729 -3.268 -1.678 0.09
2.742 -3.262 -1.679 0.09
2.74 -3.24 -1.672 0.09
2.751 -3.231 -1.672 0.0
2.749 -3.208 -1.664 0.0
2.725 -3.17 -1.645 0.0
2.546 -2.884 -1.504 0.0
2.576 -2.9 -1.518 0.0
2.568 -2.872 -1.507 0.0
2.584 -2.873 -1.511 0.06
2.602 -2.884 -1.52 0.14
2.606 -2.87 -1.517 0.16
2.624 -2.871 -1.522 0.04
2.649 -2.881 -1.532 0.16
2.652 -2.866 -1.529 0.05
2.676 -2.874 -1.538 0.16
2.696 -2.877 -1.545 0.05
2.7 -2.873 -1.545 0.16
2.747 -2.905 -1.568 0.2
2.761 -2.902 -1.571 0.09
2.777 -2.9 -1.575 0.16
2.797 -2.903 -1.582 0.05
2.815 -2.904 -1.588 0.18
2.829 -2.9 -1.591 0.1
2.848 -2.91 -1.599 0.16
2.855 -2.899 -1.598 0.05
2.878 -2.904 -1.606 0.16
2.9 -2.908 -1.614 0.2
2.916 -2.906 -1.618 0.1
2.936 -2.908 -1.625 0.16
2.951 -2.904 -1.628 0.21
2.964 -2.909 -1.633 0.1
2.975 -2.9 -1.634 0.17
2.98 -2.887 -1.632 0.05
3.0 -2.888 -1.638 0.18
3.007 -2.877 -1.637 0.05
3.023 -2.874 -1.641 0.16
3.039 -2.871 -1.645 0.05
3.049 -2.872 -1.648 0.16
3.06 -2.865 -1.65 0.19
3.069 -2.855 -1.65 0.1
3.102 -2.868 -1.664 0.18
3.151 -2.895 -1.686 0.32
3.145 -2.871 -1.678 0.16
3.117 -2.827 -1.657 0.26
3.101 -2.804 -1.645 0.19
3.137 -2.819 -1.661 0.25
3.178 -2.837 -1.679 0.18
3.195 -2.835 -1.683 0.14
3.232 -2.85 -1.699 0.49
3.239 -2.838 -1.698 0.27
3.234 -2.815 -1.69 0.27
3.233 -2.806 -1.687 0.21
3.233 -2.788 -1.682 0.11
3.247 -2.783 -1.685 0.19
3.271 -2.786 -1.694 0.2
3.293 -2.786 -1.701 0.31
3.29 -2.766 -1.695 0.28
3.275 -2.736 -1.682 0.23
3.3 -2.748 -1.693 0.16
3.303 -2.733 -1.69 0.14
3.312 -2.723 -1.69 0.0
3.33 -2.721 -1.696 0.0
3.362 -2.729 -1.708 0.0
3.379 -2.725 -1.713 0.0
3.375 -2.704 -1.706 0.0
3.351 -2.668 -1.689 0.0
3.351 -2.66 -1.686 0.0
3.348 -2.64 -1.68 0.0
3.367 -2.637 -1.685 0.0
3.36 -2.615 -1.678 0.0
3.377 -2.612 -1.682 0.0
3.391 -2.605 -1.685 0.0
3.364 -2.568 -1.667 0.02
3.393 -2.582 -1.68 0.03
3.393 -2.564 -1.675 0.07
3.401 -2.553 -1.675 0.08
3.404 -2.539 -1.673 0.08
3.418 -2.533 -1.676 0.16
3.41 -2.51 -1.668 0.22
3.422 -2.503 -1.67 0.2
3.43 -2.501 -1.672 0.25
3.429 -2.483 -1.668 0.16
3.459 -2.489 -1.679 0.26
3.469 -2.479 -1.68 0.24
3.459 -2.455 -1.671 0.05
3.457 -2.438 -1.666 0.16
3.496 -2.45 -1.682 0.22
3.508 -2.449 -1.686 0.3
3.519 -2.44 -1.688 0.35
3.526 -2.429 -1.688 0.27
3.519 -2.408 -1.68 0.21
3.467 -2.356 -1.65 0.31
3.459 -2.335 -1.642 0.23
3.482 -2.334 -1.65 0.33
3.504 -2.341 -1.659 0.32
3.482 -2.31 -1.644 0.25
3.48 -2.293 -1.64 0.31
3.478 -2.276 -1.635 0.31
3.501 -2.276 -1.643 0.34
3.5 -2.259 -1.639 0.32
3.489 -2.236 -1.63 0.27
3.49 -2.23 -1.629 0.27
3.533 -2.242 -1.647 0.0
3.531 -2.225 -1.642 0.0
3.533 -2.211 -1.64 0.0
3.526 -2.191 -1.633 0.0
3.519 -2.171 -1.626 0.0
3.56 -2.181 -1.643 0.0
3.562 -2.175 -1.642 0.0
3.55 -2.152 -1.633 0.0
3.531 -2.125 -1.62 0.0
3.544 -2.118 -1.623 0.0
3.545 -2.103 -1.62 0.0
3.547 -2.089 -1.618 0.0
3.559 -2.082 -1.621 0.0
3.564 -2.077 -1.622 0.03
3.557 -2.058 -1.615 0.03
3.549 -2.038 -1.608 0.08
3.593 -2.049 -1.626 0.15
3.59 -2.032 -1.622 0.23
3.593 -2.019 -1.62 0.23
3.608 -2.012 -1.624 0.23
3.601 -2.001 -1.619 0.27
3.588 -1.979 -1.61 0.26
3.596 -1.969 -1.611 0.32
3.567 -1.938 -1.594 0.22
3.489 -1.881 -1.553 0.07
3.582 -1.917 -1.595 0.18
3.588 -1.906 -1.595 0.18
3.591 -1.9 -1.595 0.09
3.61 -1.896 -1.602 0.15
3.595 -1.873 -1.591 0.27
3.609 -1.866 -1.595 0.23
3.611 -1.853 -1.594 0.09
3.624 -1.845 -1.597 0.18
3.631 -1.835 -1.598 0.19
3.634 -1.822 -1.596 0.1
3.645 -1.82 -1.6 0.17
3.649 -1.808 -1.599 0.21
3.643 -1.791 -1.594 0.16
3.67 -1.79 -1.604 0.28
3.697 -1.789 -1.614 0.18
3.717 -1.784 -1.621 0.24
3.741 -1.782 -1.63 0.19
3.766 -1.786 -1.64 0.25
3.785 -1.781 -1.646 0.19
3.81 -1.778 -1.655 0.12
3.832 -1.774 -1.663 0.18
3.855 -1.77 -1.671 0.11
3.882 -1.768 -1.681 0.2
3.909 -1.766 -1.691 0.11
3.925 -1.766 -1.697 0.19
3.956 -1.765 -1.709 0.21
3.98 -1.76 -1.717 0.18
3.994 -1.752 -1.721 0.25
4.008 -1.743 -1.725 0.22
3.983 -1.717 -1.711 0.19
3.978 -1.7 -1.706 0.41
4.0 -1.702 -1.715 0.34
4.02 -1.696 -1.722 0.25
4.002 -1.673 -1.711 0.24
4.024 -1.668 -1.719 0.36
4.014 -1.649 -1.712 0.26
4.024 -1.638 -1.714 0.35
4.029 -1.625 -1.714 0.34
4.017 -1.606 -1.706 0.31
4.011 -1.596 -1.703 0.33
4.033 -1.59 -1.71 0.36
4.057 -1.585 -1.719 0.39
4.05 -1.568 -1.713 0.22
4.057 -1.556 -1.714 0.14
4.065 -1.544 -1.716 0.2
4.073 -1.533 -1.717 0.11
4.067 -1.523 -1.713 0.21
4.075 -1.512 -1.715 0.11
4.083 -1.5 -1.717 0.19
4.086 -1.487 -1.716 0.11
4.089 -1.473 -1.715 0.18
4.087 -1.458 -1.712 0.12
4.098 -1.447 -1.715 0.19
4.097 -1.44 -1.713 0.11
4.102 -1.427 -1.713 0.15
4.099 -1.411 -1.71 0.22
4.111 -1.401 -1.713 0.17
4.103 -1.384 -1.708 0.23
4.123 -1.376 -1.715 0.19
4.12 -1.361 -1.712 0.12
4.124 -1.355 -1.713 0.18
4.121 -1.34 -1.71 0.12
4.126 -1.327 -1.71 0.21
4.121 -1.311 -1.706 0.11
4.136 -1.301 -1.71 0.18
4.131 -1.286 -1.706 0.12
4.135 -1.273 -1.706 0.18
4.142 -1.268 -1.709 0.11
4.153 -1.257 -1.712 0.15
4.143 -1.24 -1.706 0.05
4.145 -1.226 -1.705 0.18
4.138 -1.21 -1.7 0.05
4.146 -1.198 -1.702 0.0
4.148 -1.184 -1.701 0.0
4.149 -1.178 -1.701 0.0
4.002 1.317 -1.699 0.0
3.984 1.325 -1.693 0.0
3.948 1.327 -1.679 0.03
3.964 1.339 -1.687 0.16
3.94 1.345 -1.678 0.05
3.952 1.363 -1.685 0.17
3.935 1.371 -1.68 0.11
3.929 1.383 -1.679 0.2
3.921 1.394 -1.677 0.11
3.941 1.415 -1.688 0.18
3.914 1.419 -1.678 0.05
3.924 1.43 -1.684 0.18
3.923 1.443 -1.685 0.19
3.901 1.449 -1.677 0.1
3.909 1.466 -1.683 0.19
3.906 1.479 -1.684 0.11
3.918 1.498 -1.692 0.16
3.896 1.503 -1.684 0.21
3.913 1.517 -1.692 0.2
3.891 1.522 -1.684 0.12
3.89 1.536 -1.686 0.2
3.874 1.544 -1.681 0.21
3.87 1.556 -1.681 0.1
3.875 1.573 -1.686 0.18
3.853 1.578 -1.678 0.11
3.871 1.592 -1.688 0.2
3.859 1.602 -1.684 0.11
3.851 1.612 -1.683 0.19
3.852 1.627 -1.686 0.19
3.84 1.636 -1.683 0.1
3.832 1.647 -1.681 0.2
3.835 1.663 -1.685 0.11
3.829 1.667 -1.684 0.2
3.824 1.679 -1.684 0.11
3.815 1.69 -1.682 0.2
3.813 1.703 -1.684 0.11
3.808 1.715 -1.684 0.18
3.807 1.729 -1.686 0.1
3.8 1.741 -1.685 0.19
3.793 1.744 -1.683 0.11
3.792 1.759 -1.685 0.2
3.783 1.769 -1.684 0.11
3.783 1.783 -1.686 0.21
3.77 1.792 -1.683 0.11
3.783 1.812 -1.692 0.19
3.766 1.819 -1.686 0.11
3.786 1.836 -1.697 0.18
3.759 1.837 -1.687 0.22
3.75 1.847 -1.685 0.09
3.754 1.864 -1.69 0.21
3.736 1.87 -1.684 0.11
3.739 1.886 -1.688 0.19
3.734 1.899 -1.689 0.11
3.745 1.919 -1.697 0.16
3.719 1.913 -1.686 0.05
3.709 1.923 -1.684 0.17
3.712 1.939 -1.688 0.05
3.709 1.952 -1.69 0.16
3.69 1.957 -1.684 0.18
3.688 1.971 -1.686 0.17
3.697 1.99 -1.693 0.04
3.69 1.994 -1.692 0.0
3.671 1.999 -1.685 0.0
3.692 2.026 -1.699 0.0
3.649 2.017 -1.68 0.0
3.647 2.031 -1.683 0.0
3.657 2.051 -1.691 0.0
3.654 2.065 -1.692 0.0
3.658 2.075 -1.696 0.0
3.677 2.101 -1.709 0.0
3.686 2.122 -1.717 0.0
3.686 2.137 -1.72 0.0
3.616 2.251 -1.719 0.0
3.594 2.253 -1.712 0.0
3.6 2.273 -1.718 0.0
3.59 2.282 -1.717 0.0
3.595 2.301 -1.723 0.0
3.569 2.3 -1.714 0.0
3.543 2.299 -1.704 0.0
3.526 2.296 -1.697 0.0
3.5 2.295 -1.688 0.03
3.485 2.301 -1.684 0.03
3.486 2.317 -1.688 0.08
3.474 2.325 -1.685 0.08
3.474 2.341 -1.689 0.15
3.449 2.339 -1.68 0.05
3.453 2.358 -1.686 0.17
3.442 2.358 -1.682 0.11
3.448 2.379 -1.689 0.18
3.426 2.379 -1.681 0.05
3.433 2.4 -1.689 0.17
3.414 2.403 -1.683 0.2
3.405 2.412 -1.682 0.1
3.399 2.424 -1.683 0.18
3.398 2.432 -1.684 0.21
3.396 2.447 -1.688 0.19
3.378 2.45 -1.682 0.22
3.363 2.455 -1.678 0.09
3.374 2.479 -1.688 0.18
3.361 2.486 -1.685 0.05
3.352 2.488 -1.683 0.16
3.342 2.496 -1.681 0.05
3.353 2.521 -1.692 0.0
3.332 2.521 -1.684 0.0
3.327 2.534 -1.686 0.0
3.316 2.542 -1.684 0.0
3.318 2.561 -1.69 0.0
3.318 2.569 -1.692 0.0
3.336 2.6 -1.707 0.0
3.349 2.628 -1.718 0.0
3.338 2.636 -1.717 0.0
3.331 2.648 -1.718 0.0
3.324 2.659 -1.718 0.0
3.309 2.664 -1.714 0.0
3.299 2.673 -1.714 0.0
3.275 2.662 -1.703 0.0
3.296 2.697 -1.719 0.0
3.274 2.695 -1.711 0.0
3.265 2.706 -1.711 0.0
3.246 2.706 -1.705 0.0
3.224 2.706 -1.698 0.0
3.219 2.718 -1.699 0.0
3.214 2.723 -1.699 0.0
3.2 2.729 -1.696 0.0
3.175 2.724 -1.687 0.06
3.164 2.732 -1.685 0.14
3.15 2.737 -1.682 0.04
3.152 2.756 -1.688 0.18
3.137 2.76 -1.684 0.21
3.146 2.777 -1.692 0.19
3.125 2.776 -1.685 0.22
3.126 2.795 -1.691 0.19
3.102 2.791 -1.682 0.23
3.107 2.813 -1.69 0.18
3.088 2.814 -1.684 0.23
3.093 2.836 -1.692 0.2
3.074 2.827 -1.684 0.12
3.07 2.842 -1.687 0.2
3.061 2.852 -1.687 0.11
3.071 2.879 -1.698 0.18
3.039 2.867 -1.684 0.22
3.04 2.885 -1.69 0.19
3.024 2.889 -1.686 0.22
3.025 2.898 -1.689 0.22
3.008 2.9 -1.684 0.11
3.005 2.916 -1.688 0.18
2.995 2.924 -1.688 0.23
2.997 2.945 -1.695 0.2
2.971 2.938 -1.684 0.23
2.973 2.959 -1.692 0.19
2.958 2.953 -1.685 0.24
2.958 2.971 -1.691 0.23
2.941 2.973 -1.686 0.11
2.938 2.989 -1.69 0.2
2.929 2.998 -1.69 0.11
2.914 3.002 -1.687 0.2
2.9 3.006 -1.684 0.11
2.894 3.019 -1.686 0.21
2.888 3.022 -1.685 0.11
2.875 3.027 -1.683 0.18
2.876 3.048 -1.69 0.21
2.876 3.067 -1.695 0.16
2.852 3.061 -1.687 0.23
2.854 3.082 -1.694 0.21
2.838 3.084 -1.69 0.23
2.838 3.094 -1.693 0.19
2.82 3.093 -1.688 0.22
2.829 3.124 -1.7 0.21
2.803 3.114 -1.689 0.1
2.792 3.121 -1.688 0.18
2.788 3.137 -1.692 0.21
2.783 3.151 -1.695 0.19
2.761 3.136 -1.684 0.21
2.771 3.168 -1.698 0.19
2.742 3.155 -1.685 0.21
2.746 3.179 -1.694 0.19
2.731 3.182 -1.691 0.05
2.72 3.189 -1.69 0.18
2.714 3.203 -1.693 0.1
2.712 3.21 -1.695 0.09
2.691 3.206 -1.688 0.2
2.686 3.22 -1.691 0.11
2.679 3.233 -1.693 0.19
2.664 3.235 -1.69 0.2
2.654 3.244 -1.69 0.1
2.64 3.248 -1.688 0.18
2.641 3.259 -1.692 0.11
2.63 3.266 -1.691 0.18
2.624 3.28 -1.694 0.11
2.601 3.272 -1.685 0.19
2.601 3.293 -1.692 0.19
2.591 3.301 -1.692 0.09
2.575 3.302 -1.688 0.2
2.578 3.318 -1.695 0.11
2.579 3.341 -1.703 0.18
2.549 3.322 -1.688 0.21
2.545 3.339 -1.693 0.1
2.53 3.341 -1.69 0.2
2.518 3.348 -1.689 0.11
2.521 3.373 -1.699 0.18
2.504 3.372 -1.694 0.21
2.497 3.375 -1.693 0.1
2.489 3.386 -1.695 0.2
2.476 3.39 -1.693 0.11
2.466 3.4 -1.694 0.18
2.455 3.406 -1.693 0.11
2.449 3.421 -1.697 0.2
2.431 3.418 -1.692 0.11
2.432 3.431 -1.696 0.19
2.42 3.437 -1.695 0.21
2.408 3.443 -1.695 0.1
2.404 3.46 -1.699 0.09
2.39 3.463 -1.697 0.19
2.373 3.461 -1.692 0.11
2.368 3.478 -1.697 0.19
2.361 3.48 -1.696 0.11
2.353 3.491 -1.698 0.2
2.334 3.487 -1.692 0.11
2.332 3.507 -1.699 0.2
2.312 3.5 -1.692 0.11
2.302 3.509 -1.692 0.18
2.298 3.529 -1.699 0.11
2.291 3.529 -1.697 0.19
2.28 3.536 -1.697 0.11
2.275 3.553 -1.702 0.19
2.253 3.543 -1.693 0.11
2.258 3.576 -1.707 0.18
2.235 3.565 -1.697 0.22
2.227 3.576 -1.699 0.1
2.217 3.585 -1.7 0.19
2.206 3.581 -1.696 0.11
2.193 3.584 -1.695 0.2
2.187 3.601 -1.699 0.11
2.182 3.617 -1.704 0.18
2.162 3.61 -1.697 0.12
2.154 3.623 -1.7 0.2
2.139 3.623 -1.697 0.2
2.135 3.63 -1.699 0.18
2.118 3.627 -1.694 0.23
2.117 3.651 -1.703 0.17
2.097 3.642 -1.695 0.23
2.096 3.667 -1.704 0.19
2.074 3.655 -1.695 0.12
2.068 3.672 -1.7 0.21
2.058 3.668 -1.696 0.2
2.052 3.684 -1.701 0.18
2.039 3.687 -1.699 0.23
2.031 3.701 -1.703 0.19
2.01 3.69 -1.695 0.21
2.003 3.704 -1.699 0.22
1.994 3.716 -1.701 0.2
1.985 3.714 -1.699 0.23
1.98 3.731 -1.704 0.2
1.96 3.723 -1.697 0.23
1.955 3.742 -1.703 0.2
1.936 3.734 -1.696 0.22
1.929 3.749 -1.701 0.21
1.916 3.752 -1.699 0.21
1.916 3.767 -1.705 0.2
1.897 3.76 -1.699 0.11
1.883 3.761 -1.696 0.18
1.874 3.771 -1.699 0.11
1.862 3.777 -1.699 0.21
1.85 3.783 -1.699 0.11
1.832 3.777 -1.693 0.2
1.826 3.795 -1.699 0.11
1.826 3.809 -1.704 0.18
1.807 3.8 -1.697 0.21
1.801 3.819 -1.703 0.18
1.783 3.811 -1.697 0.24
1.777 3.83 -1.703 0.18
1.761 3.827 -1.699 0.23
1.755 3.846 -1.706 0.17
1.739 3.827 -1.695 0.25
1.734 3.848 -1.703 0.18
1.72 3.848 -1.7 0.23
1.71 3.859 -1.703 0.19
1.695 3.857 -1.699 0.23
1.689 3.878 -1.707 0.21
1.672 3.871 -1.701 0.23
1.674 3.892 -1.71 0.2
1.654 3.881 -1.702 0.22
1.648 3.899 -1.708 0.19
1.627 3.884 -1.699 0.25
1.618 3.898 -1.703 0.2
1.605 3.899 -1.701 0.24
1.595 3.911 -1.704 0.21
1.577 3.901 -1.697 0.23
1.576 3.917 -1.703 0.2
1.56 3.912 -1.699 0.22
1.553 3.93 -1.705 0.2
1.536 3.925 -1.7 0.23
1.529 3.942 -1.706 0.19
1.511 3.933 -1.699 0.23
1.499 3.939 -1.7 0.18
1.493 3.94 -1.699 0.24
1.486 3.962 -1.707 0.19
1.466 3.944 -1.697 0.24
1.463 3.974 -1.709 0.19
1.442 3.957 -1.699 0.23
1.436 3.978 -1.707 0.2
1.419 3.969 -1.7 0.22
1.412 3.971 -1.7 0.19
1.4 3.977 -1.701 0.23
1.39 3.989 -1.704 0.18
1.375 3.986 -1.701 0.24
1.366 4.001 -1.706 0.21
1.351 3.996 -1.702 0.12
1.339 4.002 -1.703 0.2
1.327 4.008 -1.703 0.2
1.319 4.005 -1.701 0.24
1.311 4.023 -1.707 0.2
1.294 4.013 -1.701 0.23
1.287 4.035 -1.709 0.21
1.269 4.021 -1.701 0.22
1.257 4.029 -1.703 0.22
1.25 4.05 -1.711 0.21
1.237 4.033 -1.702 0.24
1.229 4.053 -1.709 0.18
1.214 4.046 -1.704 0.25
1.207 4.069 -1.713 0.2
1.188 4.053 -1.704 0.22
1.178 4.068 -1.709 0.18
1.162 4.057 -1.703 0.24
1.16 4.077 -1.711 0.19
1.143 4.065 -1.703 0.22
1.133 4.077 -1.707 0.18
1.119 4.079 -1.707 0.23
1.109 4.091 -1.711 0.19
1.095 4.089 -1.708 0.24
1.083 4.098 -1.711 0.19
1.066 4.084 -1.703 0.23
1.062 4.096 -1.707 0.19
1.047 4.089 -1.703 0.22
1.035 4.099 -1.706 0.18
1.02 4.093 -1.702 0.24
1.013 4.12 -1.712 0.2
0.993 4.094 -1.699 0.23
0.986 4.121 -1.71 0.2
0.977 4.113 -1.706 0.22
0.965 4.118 -1.707 0.1
0.956 4.141 -1.715 0.18
0.938 4.12 -1.705 0.23
0.926 4.129 -1.707 0.22
0.918 4.155 -1.718 0.2
0.899 4.129 -1.705 0.23
0.897 4.152 -1.714 0.2
0.881 4.14 -1.708 0.23
0.869 4.149 -1.711 0.19
0.855 4.144 -1.707 0.22
0.845 4.165 -1.715 0.2
0.829 4.148 -1.707 0.22
0.82 4.174 -1.717 0.2
0.81 4.155 -1.708 0.23
0.799 4.172 -1.714 0.2
0.783 4.156 -1.707 0.23
0.772 4.172 -1.712 0.18
0.756 4.158 -1.705 0.24
0.746 4.18 -1.714 0.19
0.731 4.168 -1.707 0.23
0.721 4.192 -1.717 0.21
0.712 4.178 -1.711 0.12
0.702 4.195 -1.717 0.18
0.684 4.172 -1.706 0.22
0.675 4.198 -1.716 0.19
0.659 4.178 -1.707 0.23
0.65 4.209 -1.719 0.21
0.634 4.191 -1.711 0.22
0.63 4.21 -1.718 0.19
0.613 4.19 -1.709 0.23
0.604 4.22 -1.721 0.21
0.587 4.198 -1.711 0.12
0.574 4.2 -1.711 0.21
0.561 4.198 -1.709 0.21
0.55 4.221 -1.718 0.2
0.541 4.206 -1.711 0.21
0.53 4.224 -1.718 0.18
0.516 4.216 -1.714 0.23
0.503 4.222 -1.716 0.18
0.488 4.205 -1.708 0.05
0.476 4.218 -1.713 0.17
0.462 4.215 -1.711 0.21
0.457 4.227 -1.716 0.16
0.442 4.212 -1.709 0.23
0.429 4.222 -1.713 0.21
0.416 4.22 -1.711 0.11
0.404 4.234 -1.717 0.21
0.39 4.234 -1.716 0.11
0.376 4.226 -1.712 0.19
0.363 4.229 -1.713 0.11
0.357 4.233 -1.714 0.2
0.343 4.23 -1.713 0.2
0.331 4.253 -1.722 0.19
0.316 4.232 -1.713 0.22
0.304 4.246 -1.718 0.1
0.29 4.236 -1.714 0.19
0.277 4.235 -1.713 0.11
0.27 4.236 -1.713 0.2
0.256 4.235 -1.712 0.11
0.245 4.267 -1.726 0.17
0.23 4.236 -1.712 0.22
0.218 4.264 -1.724 0.19
0.204 4.252 -1.718 0.23
0.191 4.26 -1.722 0.19
0.183 4.242 -1.714 0.22
0.17 4.243 -1.714 0.1
0.157 4.263 -1.722 0.17
0.143 4.244 -1.714 0.23
0.131 4.272 -1.726 0.19
0.117 4.252 -1.717 0.21
0.104 4.254 -1.718 0.1
0.09 4.267 -1.723 0.2
0.084 4.258 -1.719 0.11
0.07 4.273 -1.726 0.18
0.057 4.246 -1.714 0.12
0.043 4.255 -1.718 0.19
0.03 4.259 -1.719 0.1
0.017 4.268 -1.723 0.2
0.003 4.27 -1.724 0.11
-0.003 4.259 -1.719 0.19
-0.017 4.253 -1.717 0.11
-0.03 4.251 -1.716 0.2
-0.043 4.248 -1.714 0.11
-0.057 4.259 -1.719 0.2
-0.07 4.253 -1.717 0.11
-0.084 4.276 -1.727 0.18
-0.097 4.26 -1.72 0.11
-0.104 4.274 -1.726 0.18
-0.117 4.257 -1.719 0.2
-0.131 4.268 -1.724 0.19
-0.144 4.253 -1.718 0.23
-0.158 4.274 -1.727 0.2
-0.171 4.256 -1.719 0.23
-0.185 4.271 -1.726 0.21
-0.19 4.249 -1.717 0.11
-0.204 4.258 -1.721 0.18
-0.217 4.253 -1.719 0.21
-0.23 4.245 -1.716 0.1
-0.245 4.263 -1.724 0.18
-0.257 4.247 -1.718 0.23
-0.271 4.252 -1.72 0.1
-0.278 4.255 -1.722 0.2
-0.291 4.258 -1.723 0.11
-0.304 4.25 -1.72 0.2
-0.318 4.251 -1.721 0.11
-0.331 4.244 -1.718 0.2
-0.344 4.245 -1.719 0.11
-0.36 4.266 -1.729 0.18
-0.371 4.246 -1.721 0.12
-0.378 4.249 -1.722 0.19
-0.391 4.246 -1.722 0.11
-0.406 4.258 -1.727 0.18
-0.418 4.242 -1.721 0.12
-0.434 4.264 -1.731 0.18
-0.443 4.23 -1.717 0.21
-0.459 4.249 -1.726 0.2
-0.464 4.23 -1.718 0.22
-0.479 4.243 -1.724 0.16
-0.491 4.231 -1.719 0.24
