# .PCD v.7 - Point Cloud Data file format
VERSION .7
FIELDS x y z intensity
SIZE 4 4 4 4
TYPE F F F F
COUNT 1 1 1 1
WIDTH 1950
HEIGHT 1
VIEWPOINT 0 0 0 1 0 0 0
POINTS 1950
DATA ascii
6.923 -1.087 -1.631 0.08
6.927 -1.065 -1.631 0.08
6.923 -1.042 -1.629 0.08
6.922 -1.031 -1.629 0.04
6.956 -1.014 -1.637 0.07
6.921 -0.986 -1.627 0.04
6.959 -0.969 -1.636 0.08
6.956 -0.947 -1.634 0.04
6.943 -0.923 -1.63 0.07
6.954 -0.902 -1.632 0.04
6.984 -0.895 -1.64 0.07
6.956 -0.869 -1.632 0.04
6.976 -0.849 -1.636 0.04
6.987 -0.828 -1.638 0.03
6.978 -0.805 -1.635 0.07
6.982 -0.783 -1.636 0.04
6.988 -0.762 -1.637 0.03
6.986 -0.75 -1.636 0.04
6.99 -0.728 -1.636 0.0
7.006 -0.708 -1.64 0.0
6.998 -0.685 -1.637 0.0
7.006 -0.663 -1.639 0.0
7.0 -0.641 -1.637 0.0
7.018 -0.62 -1.641 0.06
7.025 -0.61 -1.642 0.04
7.005 -0.586 -1.637 0.03
7.003 -0.563 -1.636 0.04
7.001 -0.541 -1.635 0.03
7.007 -0.519 -1.636 0.03
7.008 -0.497 -1.636 0.03
7.013 -0.476 -1.637 0.04
7.011 -0.453 -1.636 0.04
7.008 -0.442 -1.635 0.04
7.011 -0.42 -1.635 0.04
7.012 -0.398 -1.635 0.04
7.027 -0.377 -1.639 0.07
7.013 -0.354 -1.635 0.04
7.035 -0.333 -1.64 0.07
7.021 -0.31 -1.636 0.04
7.017 -0.299 -1.635 0.04
7.024 -0.277 -1.637 0.07
7.025 -0.255 -1.637 0.15
7.014 -0.233 -1.634 0.04
7.023 -0.211 -1.636 0.08
7.019 -0.189 -1.635 0.08
7.026 -0.167 -1.636 0.04
7.022 -0.156 -1.635 0.08
7.023 -0.134 -1.635 0.15
7.029 -0.112 -1.637 0.16
7.025 -0.089 -1.636 0.16
7.029 -0.067 -1.637 0.16
7.024 -0.045 -1.635 0.18
7.02 -0.023 -1.634 0.04
7.018 -0.012 -1.634 0.07
6.741 0.0 -1.634 0.13
6.747 0.021 -1.635 0.19
6.739 0.043 -1.633 0.18
6.725 0.053 -1.63 0.28
6.741 0.074 -1.634 0.25
6.729 0.095 -1.631 0.26
6.734 0.117 -1.632 0.26
6.732 0.138 -1.632 0.25
6.741 0.159 -1.634 0.23
6.744 0.18 -1.635 0.27
6.742 0.191 -1.635 0.29
6.732 0.212 -1.632 0.19
6.724 0.233 -1.63 0.3
6.729 0.254 -1.632 0.25
6.734 0.275 -1.633 0.26
6.715 0.296 -1.629 0.27
6.724 0.317 -1.631 0.25
6.723 0.328 -1.631 0.25
6.724 0.349 -1.632 0.26
6.729 0.371 -1.633 0.19
6.724 0.391 -1.632 0.26
6.727 0.413 -1.633 0.24
6.733 0.434 -1.635 0.16
6.728 0.455 -1.634 0.29
6.748 0.467 -1.64 0.19
6.739 0.488 -1.638 0.23
6.747 0.51 -1.64 0.2
6.738 0.53 -1.638 0.25
6.749 0.553 -1.642 0.22
6.742 0.573 -1.64 0.12
6.736 0.594 -1.639 0.21
6.738 0.616 -1.64 0.11
6.739 0.626 -1.641 0.2
6.733 0.647 -1.64 0.11
6.749 0.67 -1.644 0.2
6.739 0.691 -1.642 0.1
6.754 0.713 -1.647 0.18
6.74 0.733 -1.644 0.11
6.742 0.755 -1.645 0.2
6.742 0.766 -1.645 0.11
6.755 0.789 -1.649 0.17
6.737 0.808 -1.645 0.22
6.737 0.83 -1.646 0.2
6.728 0.85 -1.644 0.22
6.739 0.873 -1.648 0.19
6.721 0.892 -1.644 0.22
6.729 0.904 -1.646 0.1
6.728 0.925 -1.647 0.2
6.729 0.947 -1.648 0.11
6.714 0.966 -1.645 0.2
6.721 0.989 -1.647 0.11
6.716 1.01 -1.647 0.2
6.718 1.032 -1.648 0.11
6.709 1.041 -1.646 0.19
6.696 1.061 -1.644 0.11
6.71 1.084 -1.648 0.18
6.686 1.102 -1.643 0.22
6.709 1.127 -1.65 0.18
6.692 1.146 -1.646 0.25
6.681 1.166 -1.644 0.23
6.694 1.179 -1.648 0.18
6.677 1.198 -1.645 0.26
6.679 1.22 -1.646 0.22
6.677 1.241 -1.647 0.2
6.652 1.258 -1.641 0.27
6.654 1.28 -1.643 0.25
6.654 1.302 -1.644 0.19
6.65 1.312 -1.643 0.27
6.647 1.333 -1.644 0.23
6.632 1.352 -1.641 0.2
6.635 1.374 -1.643 0.27
6.629 1.395 -1.642 0.25
6.619 1.414 -1.641 0.27
6.622 1.437 -1.643 0.26
6.602 1.454 -1.639 0.27
6.602 1.465 -1.639 0.27
6.605 1.487 -1.641 0.28
6.6 1.508 -1.641 0.27
6.597 1.529 -1.642 0.27
6.592 1.55 -1.642 0.25
6.589 1.571 -1.642 0.26
6.586 1.592 -1.643 0.26
6.582 1.602 -1.642 0.28
6.579 1.623 -1.643 0.28
6.568 1.643 -1.641 0.27
6.565 1.664 -1.642 0.27
6.565 1.686 -1.643 0.28
6.56 1.706 -1.643 0.29
6.554 1.727 -1.643 0.28
6.548 1.736 -1.642 0.29
6.537 1.755 -1.641 0.26
6.535 1.777 -1.642 0.29
6.537 1.799 -1.644 0.28
6.524 1.818 -1.642 0.29
6.522 1.839 -1.643 0.29
6.532 1.865 -1.647 0.26
6.535 1.876 -1.649 0.27
6.516 1.893 -1.645 0.29
6.508 1.913 -1.645 0.27
6.491 1.93 -1.642 0.29
6.498 1.955 -1.645 0.28
6.501 1.978 -1.648 0.29
6.495 1.998 -1.648 0.26
6.486 2.007 -1.646 0.18
6.476 2.026 -1.645 0.3
6.473 2.047 -1.646 0.25
6.48 2.072 -1.65 0.26
6.462 2.089 -1.647 0.29
6.456 2.109 -1.647 0.26
6.449 2.129 -1.647 0.26
6.446 2.139 -1.647 0.29
6.439 2.159 -1.647 0.27
6.438 2.182 -1.648 0.29
6.431 2.202 -1.648 0.29
6.415 2.219 -1.646 0.27
6.426 2.245 -1.651 0.26
6.404 2.26 -1.647 0.3
6.393 2.279 -1.646 0.28
6.406 2.295 -1.65 0.26
6.403 2.316 -1.651 0.27
6.397 2.337 -1.652 0.28
6.364 2.348 -1.645 0.3
6.366 2.371 -1.647 0.29
6.357 2.391 -1.647 0.27
6.347 2.41 -1.646 0.27
6.342 2.419 -1.646 0.28
6.343 2.443 -1.648 0.26
6.341 2.465 -1.65 0.3
6.328 2.482 -1.648 0.3
6.329 2.506 -1.651 0.27
6.314 2.523 -1.649 0.28
6.311 2.545 -1.65 0.27
6.307 2.555 -1.65 0.28
6.299 2.574 -1.65 0.27
6.3 2.598 -1.653 0.29
6.281 2.613 -1.65 0.27
6.28 2.636 -1.652 0.31
6.266 2.653 -1.65 0.29
6.265 2.676 -1.652 0.28
6.261 2.686 -1.652 0.29
6.252 2.706 -1.652 0.29
6.249 2.728 -1.654 0.29
6.239 2.746 -1.653 0.27
6.225 2.764 -1.652 0.29
6.22 2.785 -1.653 0.28
6.211 2.804 -1.653 0.29
6.212 2.816 -1.654 0.29
6.199 2.834 -1.653 0.3
6.196 2.856 -1.655 0.3
6.167 2.867 -1.649 0.3
6.16 2.887 -1.65 0.26
6.167 2.914 -1.654 0.27
6.159 2.934 -1.655 0.32
6.146 2.939 -1.652 0.29
6.133 2.957 -1.651 0.34
6.124 2.976 -1.651 0.28
6.118 2.997 -1.652 0.26
6.122 3.023 -1.656 0.28
6.099 3.036 -1.652 0.32
6.088 3.054 -1.652 0.28
6.083 3.063 -1.652 0.29
6.08 3.086 -1.654 0.29
6.064 3.102 -1.652 0.29
6.054 3.121 -1.652 0.28
6.051 3.143 -1.654 0.27
6.051 3.167 -1.657 0.27
6.043 3.187 -1.657 0.31
6.035 3.195 -1.656 0.28
6.03 3.217 -1.658 0.29
6.013 3.232 -1.656 0.27
5.992 3.245 -1.653 0.3
5.985 3.266 -1.654 0.29
5.975 3.285 -1.654 0.29
5.965 3.304 -1.654 0.29
5.961 3.314 -1.654 0.26
5.966 3.341 -1.659 0.27
5.959 3.362 -1.66 0.28
5.935 3.373 -1.656 0.28
5.921 3.389 -1.655 0.3
5.905 3.405 -1.653 0.26
5.903 3.429 -1.656 0.28
5.905 3.455 -1.66 0.27
5.9 3.464 -1.66 0.27
5.894 3.486 -1.662 0.28
5.865 3.493 -1.656 0.3
5.859 3.515 -1.657 0.28
5.854 3.537 -1.659 0.28
5.842 3.554 -1.659 0.27
5.842 3.58 -1.663 0.24
5.815 3.576 -1.656 0.3
5.818 3.603 -1.66 0.27
5.8 3.617 -1.658 0.28
5.786 3.633 -1.657 0.29
5.776 3.653 -1.658 0.27
5.773 3.676 -1.66 0.26
5.771 3.7 -1.664 0.23
5.752 3.701 -1.659 0.25
5.747 3.723 -1.662 0.32
5.737 3.742 -1.662 0.27
5.725 3.76 -1.662 0.29
5.713 3.778 -1.662 0.28
5.695 3.792 -1.66 0.29
5.681 3.809 -1.659 0.27
5.664 3.81 -1.656 0.29
5.666 3.838 -1.66 0.27
5.65 3.852 -1.659 0.3
5.629 3.864 -1.656 0.29
5.627 3.889 -1.659 0.29
5.605 3.9 -1.656 0.29
5.613 3.932 -1.663 0.26
5.601 3.936 -1.661 0.25
5.584 3.95 -1.659 0.34
5.581 3.975 -1.663 0.27
5.568 3.992 -1.663 0.3
5.559 4.012 -1.664 0.29
5.545 4.028 -1.663 0.28
5.524 4.04 -1.66 0.29
5.504 4.038 -1.656 0.31
5.489 4.054 -1.655 0.29
5.492 4.083 -1.66 0.27
5.473 4.096 -1.658 0.29
5.468 4.119 -1.661 0.29
5.455 4.136 -1.661 0.29
5.439 4.151 -1.66 0.29
5.431 4.158 -1.659 0.27
5.418 4.175 -1.659 0.3
5.398 4.187 -1.657 0.3
5.388 4.207 -1.658 0.28
5.374 4.222 -1.658 0.29
5.362 4.24 -1.658 0.29
5.352 4.26 -1.659 0.26
5.349 4.285 -1.663 0.28
5.337 4.29 -1.662 0.29
5.306 4.292 -1.655 0.3
5.316 4.328 -1.664 0.25
5.292 4.336 -1.66 0.3
5.288 4.36 -1.663 0.28
5.274 4.377 -1.663 0.28
5.268 4.399 -1.666 0.27
5.265 4.411 -1.667 0.27
5.248 4.425 -1.666 0.28
5.22 4.429 -1.661 0.3
5.209 4.448 -1.662 0.26
5.203 4.472 -1.665 0.24
5.175 4.476 -1.66 0.18
5.162 4.493 -1.66 0.29
5.158 4.504 -1.662 0.25
5.154 4.529 -1.665 0.2
5.132 4.539 -1.663 0.25
5.125 4.561 -1.665 0.24
5.111 4.577 -1.665 0.2
5.102 4.599 -1.667 0.27
5.092 4.619 -1.669 0.24
5.078 4.62 -1.666 0.19
5.077 4.649 -1.671 0.27
5.056 4.658 -1.669 0.22
5.037 4.67 -1.667 0.17
5.042 4.705 -1.674 0.27
5.02 4.714 -1.672 0.19
5.017 4.74 -1.676 0.23
5.012 4.751 -1.677 0.19
5.0 4.769 -1.678 0.23
4.985 4.785 -1.678 0.18
4.971 4.802 -1.678 0.24
4.967 4.828 -1.682 0.2
4.952 4.844 -1.682 0.22
4.949 4.871 -1.687 0.19
4.936 4.874 -1.685 0.22
4.928 4.896 -1.687 0.19
4.9 4.899 -1.683 0.05
4.888 4.919 -1.684 0.18
4.883 4.943 -1.688 0.11
4.875 4.967 -1.691 0.18
4.851 4.974 -1.688 0.21
4.834 4.988 -1.687 0.09
4.833 5.002 -1.69 0.18
4.822 5.022 -1.691 0.2
4.808 5.04 -1.692 0.1
4.803 5.066 -1.696 0.17
4.779 5.073 -1.693 0.05
4.758 5.082 -1.691 0.16
4.758 5.114 -1.697 0.2
4.745 5.116 -1.695 0.1
4.727 5.129 -1.695 0.18
4.715 5.148 -1.696 0.05
4.698 5.162 -1.696 0.16
4.692 5.188 -1.7 0.2
4.682 5.21 -1.702 0.1
4.646 5.203 -1.695 0.18
4.656 5.23 -1.702 0.2
4.641 5.246 -1.702 0.1
4.614 5.249 -1.698 0.19
4.61 5.278 -1.703 0.19
4.586 5.284 -1.7 0.1
4.572 5.301 -1.701 0.18
4.567 5.329 -1.706 0.11
4.555 5.331 -1.704 0.2
4.534 5.341 -1.703 0.11
4.531 5.372 -1.708 0.18
4.512 5.383 -1.707 0.11
4.487 5.388 -1.704 0.21
4.479 5.413 -1.708 0.11
4.463 5.428 -1.708 0.18
4.446 5.425 -1.705 0.23
4.442 5.455 -1.71 0.18
4.427 5.471 -1.711 0.24
4.412 5.488 -1.712 0.18
4.398 5.506 -1.713 0.23
4.375 5.512 -1.711 0.23
4.366 5.536 -1.714 0.18
4.361 5.548 -1.716 0.26
4.342 5.56 -1.715 0.24
4.326 5.575 -1.716 0.16
4.317 5.599 -1.719 0.28
4.294 5.607 -1.717 0.23
4.281 5.626 -1.719 0.18
4.266 5.643 -1.72 0.26
4.244 5.65 -1.718 0.23
4.246 5.672 -1.724 0.21
4.231 5.689 -1.725 0.25
4.212 5.7 -1.724 0.22
4.201 5.723 -1.727 0.18
4.182 5.735 -1.727 0.27
4.159 5.741 -1.725 0.24
4.14 5.753 -1.724 0.19
4.145 5.78 -1.731 0.27
4.121 5.783 -1.728 0.22
4.108 5.804 -1.73 0.19
4.093 5.822 -1.732 0.26
4.078 5.839 -1.733 0.23
4.063 5.857 -1.735 0.21
4.035 5.855 -1.73 0.24
4.029 5.866 -1.732 0.24
4.015 5.885 -1.734 0.19
4.001 5.904 -1.736 0.27
3.984 5.92 -1.737 0.22
3.966 5.933 -1.737 0.18
3.949 5.948 -1.738 0.27
3.924 5.951 -1.735 0.24
3.917 5.981 -1.74 0.21
3.91 5.99 -1.741 0.25
3.883 5.991 -1.738 0.23
3.867 6.007 -1.739 0.17
3.856 6.032 -1.743 0.28
3.839 6.047 -1.744 0.24
3.821 6.061 -1.744 0.19
3.808 6.083 -1.747 0.28
3.794 6.08 -1.745 0.23
3.781 6.102 -1.748 0.19
3.765 6.119 -1.749 0.28
3.74 6.123 -1.747 0.23
3.727 6.144 -1.75 0.17
3.703 6.148 -1.747 0.26
3.69 6.171 -1.751 0.23
3.684 6.182 -1.752 0.19
3.667 6.198 -1.754 0.26
3.648 6.21 -1.754 0.23
3.634 6.231 -1.757 0.18
3.617 6.246 -1.758 0.26
3.599 6.26 -1.759 0.19
3.58 6.273 -1.759 0.23
3.581 6.297 -1.765 0.19
3.554 6.297 -1.761 0.12
3.534 6.306 -1.761 0.2
3.516 6.321 -1.762 0.11
3.494 6.328 -1.761 0.18
3.48 6.35 -1.764 0.21
3.459 6.359 -1.763 0.09
3.456 6.378 -1.767 0.18
3.436 6.389 -1.767 0.11
3.414 6.396 -1.766 0.18
3.392 6.403 -1.765 0.2
3.374 6.417 -1.766 0.1
3.363 6.445 -1.771 0.18
3.33 6.431 -1.764 0.05
3.328 6.452 -1.769 0.17
3.311 6.469 -1.771 0.2
3.29 6.478 -1.77 0.1
3.27 6.49 -1.771 0.18
3.25 6.5 -1.771 0.05
3.236 6.523 -1.774 0.17
3.213 6.529 -1.773 0.2
3.188 6.529 -1.77 0.09
3.183 6.544 -1.773 0.18
3.169 6.568 -1.777 0.1
3.145 6.571 -1.775 0.18
3.12 6.572 -1.773 0.05
3.099 6.582 -1.773 0.16
3.085 6.606 -1.777 0.2
3.068 6.622 -1.779 0.1
3.059 6.631 -1.78 0.17
3.034 6.632 -1.777 0.05
3.018 6.652 -1.78 0.17
2.993 6.652 -1.778 0.05
2.974 6.665 -1.779 0.18
2.95 6.669 -1.777 0.05
2.933 6.687 -1.78 0.17
2.928 6.703 -1.783 0.1
2.912 6.724 -1.787 0.17
2.889 6.73 -1.786 0.21
2.867 6.735 -1.784 0.1
2.852 6.758 -1.789 0.16
2.828 6.762 -1.787 0.22
2.805 6.767 -1.786 0.1
2.794 6.799 -1.793 0.17
2.774 6.782 -1.787 0.05
2.758 6.803 -1.79 0.17
2.733 6.803 -1.788 0.2
2.717 6.824 -1.791 0.19
2.695 6.833 -1.791 0.21
2.671 6.834 -1.789 0.1
2.656 6.858 -1.794 0.2
2.643 6.859 -1.793 0.11
2.62 6.864 -1.792 0.2
2.604 6.886 -1.796 0.11
2.583 6.896 -1.796 0.18
2.558 6.895 -1.794 0.22
2.545 6.927 -1.8 0.19
2.52 6.924 -1.797 0.11
2.505 6.919 -1.795 0.21
2.488 6.938 -1.798 0.11
2.468 6.951 -1.799 0.21
2.445 6.955 -1.798 0.11
2.423 6.964 -1.799 0.2
2.404 6.979 -1.801 0.2
2.382 6.985 -1.8 0.23
2.379 7.012 -1.807 0.21
2.353 7.009 -1.804 0.12
2.332 7.02 -1.805 0.21
2.308 7.022 -1.803 0.2
2.289 7.036 -1.805 0.25
2.267 7.043 -1.805 0.22
2.246 7.056 -1.807 0.2
2.225 7.065 -1.807 0.25
2.213 7.067 -1.807 0.25
2.195 7.086 -1.81 0.21
2.171 7.09 -1.809 0.25
2.149 7.096 -1.809 0.23
2.127 7.105 -1.81 0.2
2.101 7.099 -1.806 0.26
2.082 7.116 -1.809 0.24
2.073 7.127 -1.811 0.18
2.05 7.13 -1.81 0.27
2.029 7.144 -1.812 0.25
2.006 7.146 -1.811 0.2
1.984 7.154 -1.812 0.26
1.966 7.175 -1.816 0.23
1.943 7.183 -1.816 0.19
1.932 7.187 -1.816 0.28
1.91 7.194 -1.817 0.23
1.887 7.199 -1.816 0.25
1.865 7.208 -1.817 0.15
1.846 7.225 -1.82 0.28
1.82 7.22 -1.817 0.24
1.799 7.231 -1.819 0.26
1.781 7.257 -1.824 0.23
1.765 7.241 -1.819 0.18
1.742 7.245 -1.819 0.29
1.723 7.265 -1.823 0.25
1.696 7.254 -1.818 0.26
1.676 7.27 -1.821 0.2
1.657 7.295 -1.826 0.28
1.631 7.285 -1.822 0.25
1.622 7.3 -1.826 0.2
1.602 7.319 -1.829 0.27
1.575 7.305 -1.824 0.24
1.553 7.313 -1.825 0.26
1.535 7.341 -1.831 0.26
1.508 7.327 -1.826 0.18
1.486 7.337 -1.828 0.28
1.466 7.355 -1.831 0.25
1.451 7.34 -1.827 0.25
1.428 7.349 -1.828 0.26
1.408 7.366 -1.831 0.28
1.384 7.365 -1.83 0.26
1.363 7.381 -1.833 0.24
1.338 7.377 -1.831 0.18
1.316 7.385 -1.832 0.3
1.303 7.384 -1.831 0.25
1.282 7.399 -1.834 0.27
1.259 7.403 -1.834 0.26
1.237 7.417 -1.836 0.29
1.216 7.432 -1.839 0.28
1.19 7.42 -1.835 0.29
1.167 7.426 -1.836 0.26
1.156 7.43 -1.836 0.26
1.131 7.428 -1.835 0.27
1.11 7.441 -1.837 0.26
1.087 7.448 -1.838 0.27
1.064 7.453 -1.839 0.27
1.041 7.462 -1.84 0.27
1.018 7.469 -1.841 0.27
1.004 7.458 -1.838 0.26
0.984 7.482 -1.843 0.25
0.959 7.475 -1.841 0.19
0.935 7.474 -1.84 0.29
0.915 7.5 -1.846 0.25
0.889 7.49 -1.842 0.28
0.866 7.494 -1.843 0.27
0.844 7.513 -1.847 0.26
0.832 7.506 -1.845 0.18
0.808 7.505 -1.844 0.29
0.784 7.504 -1.843 0.23
0.762 7.529 -1.849 0.27
0.738 7.522 -1.846 0.29
0.715 7.532 -1.849 0.27
0.691 7.536 -1.849 0.28
0.678 7.525 -1.846 0.28
0.656 7.541 -1.85 0.27
0.632 7.543 -1.85 0.29
0.609 7.551 -1.851 0.27
0.585 7.543 -1.849 0.27
0.563 7.566 -1.854 0.24
0.539 7.564 -1.853 0.18
0.527 7.563 -1.853 0.29
0.502 7.555 -1.85 0.25
0.479 7.564 -1.852 0.27
0.455 7.565 -1.852 0.26
0.432 7.577 -1.855 0.28
0.408 7.572 -1.853 0.27
0.385 7.585 -1.856 0.29
0.373 7.587 -1.857 0.28
0.349 7.594 -1.858 0.26
0.325 7.593 -1.858 0.27
0.302 7.596 -1.858 0.27
0.278 7.595 -1.858 0.29
0.254 7.61 -1.861 0.26
0.23 7.609 -1.861 0.26
0.206 7.592 -1.856 0.35
0.194 7.606 -1.86 0.26
0.17 7.602 -1.859 0.28
0.147 7.611 -1.861 0.28
0.123 7.607 -1.86 0.27
0.099 7.609 -1.86 0.26
0.075 7.627 -1.865 0.26
0.051 7.622 -1.863 0.29
0.039 7.622 -1.863 0.29
0.015 7.62 -1.863 0.27
-0.009 7.616 -1.862 0.27
-0.033 7.626 -1.864 0.29
-0.057 7.639 -1.868 0.26
-0.081 7.646 -1.87 0.29
-0.105 7.627 -1.865 0.3
-0.117 7.629 -1.865 0.27
-0.141 7.64 -1.868 0.26
-0.165 7.643 -1.869 0.27
-0.189 7.637 -1.868 0.28
-0.213 7.644 -1.87 0.28
-0.237 7.637 -1.868 0.29
-0.261 7.629 -1.866 0.28
-0.285 7.636 -1.868 0.28
-0.297 7.647 -1.871 0.29
-0.321 7.648 -1.872 0.26
-0.345 7.649 -1.872 0.28
-0.369 7.64 -1.87 0.3
-0.394 7.648 -1.873 0.29
-0.417 7.632 -1.869 0.27
-0.442 7.661 -1.877 0.25
-0.454 7.653 -1.875 0.28
-0.478 7.646 -1.873 0.3
-0.502 7.646 -1.874 0.29
-0.526 7.644 -1.874 0.28
-0.55 7.646 -1.875 0.28
-0.574 7.643 -1.874 0.28
-0.598 7.641 -1.874 0.27
-0.611 7.648 -1.876 0.28
-0.634 7.642 -1.875 0.28
-0.658 7.638 -1.875 0.29
-0.683 7.64 -1.876 0.28
-0.708 7.655 -1.88 0.26
-0.731 7.639 -1.877 0.3
-0.756 7.648 -1.88 0.29
-0.781 7.656 -1.882 0.26
-0.792 7.645 -1.88 0.28
-0.816 7.64 -1.879 0.27
-0.841 7.651 -1.883 0.27
-0.865 7.645 -1.882 0.28
-0.889 7.642 -1.882 0.29
-0.914 7.651 -1.885 0.29
-0.937 7.638 -1.882 0.28
-0.949 7.638 -1.883 0.28
-0.972 7.626 -1.88 0.3
-0.997 7.628 -1.882 0.26
-1.02 7.62 -1.88 0.3
-1.046 7.634 -1.885 0.27
-1.068 7.613 -1.88 0.3
-1.094 7.629 -1.885 0.25
-1.12 7.635 -1.888 0.29
-1.13 7.622 -1.885 0.29
-1.152 7.607 -1.882 0.3
-1.177 7.609 -1.883 0.28
-1.2 7.599 -1.882 0.28
-1.225 7.601 -1.883 0.29
-1.249 7.599 -1.884 0.29
-1.273 7.597 -1.884 0.29
-1.287 7.607 -1.887 0.25
-1.311 7.604 -1.888 0.28
-1.335 7.598 -1.887 0.28
-1.359 7.598 -1.888 0.28
-1.386 7.609 -1.892 0.29
-1.408 7.593 -1.889 0.29
-1.431 7.587 -1.889 0.28
-1.444 7.588 -1.89 0.29
-1.466 7.576 -1.888 0.27
-1.491 7.577 -1.889 0.29
-1.517 7.582 -1.892 0.29
-1.539 7.568 -1.889 0.28
-1.562 7.561 -1.889 0.27
-1.586 7.554 -1.888 0.3
-1.595 7.54 -1.885 0.29
-1.62 7.541 -1.887 0.29
-1.644 7.537 -1.887 0.29
-1.67 7.542 -1.89 0.27
-1.693 7.535 -1.889 0.3
-1.72 7.544 -1.893 0.25
-1.742 7.533 -1.892 0.28
-1.766 7.528 -1.892 0.27
-1.78 7.532 -1.894 0.27
-1.798 7.506 -1.888 0.18
-1.823 7.506 -1.89 0.3
-1.847 7.502 -1.89 0.25
-1.87 7.494 -1.89 0.27
-1.895 7.494 -1.891 0.27
-1.918 7.483 -1.89 0.17
-1.931 7.485 -1.891 0.3
-1.951 7.466 -1.888 0.24
-1.98 7.48 -1.893 0.27
-1.998 7.453 -1.888 0.28
-2.024 7.458 -1.891 0.27
-2.049 7.458 -1.892 0.27
-2.07 7.442 -1.89 0.26
-2.08 7.431 -1.888 0.26
-2.108 7.443 -1.893 0.27
-2.126 7.418 -1.888 0.27
-2.154 7.428 -1.892 0.27
-2.177 7.417 -1.891 0.28
-2.201 7.416 -1.893 0.25
-2.22 7.394 -1.889 0.3
-2.244 7.389 -1.889 0.27
-2.253 7.378 -1.887 0.28
-2.278 7.375 -1.888 0.27
-2.308 7.392 -1.895 0.27
-2.329 7.375 -1.892 0.29
-2.348 7.357 -1.889 0.31
-2.373 7.355 -1.891 0.28
-2.39 7.327 -1.885 0.29
-2.401 7.323 -1.885 0.28
-2.43 7.332 -1.89 0.33
-2.448 7.312 -1.886 0.3
-2.47 7.298 -1.885 0.27
-2.499 7.309 -1.89 0.36
-2.517 7.286 -1.886 0.3
-2.54 7.279 -1.886 0.36
-2.555 7.285 -1.889 0.3
-2.574 7.268 -1.886 0.35
-2.595 7.255 -1.885 0.3
-2.624 7.263 -1.889 0.36
-2.64 7.236 -1.884 0.3
-2.667 7.239 -1.887 0.37
-2.692 7.238 -1.889 0.32
-2.712 7.22 -1.887 0.37
-2.725 7.221 -1.888 0.33
-2.751 7.222 -1.891 0.31
-2.772 7.208 -1.889 0.33
-2.8 7.214 -1.893 0.34
-2.82 7.197 -1.891 0.3
-2.837 7.176 -1.888 0.28
-2.862 7.172 -1.889 0.27
-2.876 7.175 -1.891 0.25
-2.899 7.168 -1.892 0.26
-2.915 7.141 -1.887 0.17
-2.943 7.146 -1.891 0.28
-2.958 7.119 -1.886 0.25
-2.986 7.122 -1.889 0.26
-3.009 7.116 -1.89 0.2
-3.013 7.093 -1.885 0.28
-3.038 7.091 -1.887 0.23
-3.064 7.09 -1.89 0.21
-3.083 7.072 -1.887 0.28
-3.106 7.064 -1.888 0.25
-3.134 7.068 -1.892 0.23
-3.148 7.039 -1.886 0.18
-3.171 7.031 -1.887 0.29
-3.183 7.028 -1.887 0.23
-3.205 7.018 -1.887 0.26
-3.228 7.011 -1.888 0.24
-3.251 7.003 -1.889 0.18
-3.273 6.992 -1.889 0.28
-3.289 6.97 -1.885 0.23
-3.315 6.968 -1.888 0.19
-3.318 6.945 -1.883 0.27
-3.346 6.949 -1.887 0.21
-3.369 6.94 -1.887 0.21
-3.387 6.921 -1.885 0.25
-3.407 6.907 -1.884 0.22
-3.436 6.912 -1.888 0.18
-3.452 6.889 -1.885 0.26
-3.476 6.883 -1.886 0.19
-3.485 6.874 -1.885 0.25
-3.505 6.86 -1.884 0.18
-3.532 6.861 -1.888 0.25
-3.553 6.848 -1.887 0.2
-3.566 6.819 -1.882 0.23
-3.595 6.823 -1.887 0.18
-3.617 6.812 -1.887 0.23
-3.625 6.801 -1.885 0.19
-3.648 6.793 -1.886 0.24
-3.674 6.79 -1.889 0.2
-3.687 6.763 -1.884 0.12
-3.704 6.745 -1.882 0.2
-3.728 6.738 -1.884 0.11
-3.739 6.708 -1.878 0.2
-3.764 6.728 -1.886 0.11
-3.776 6.701 -1.881 0.18
-3.799 6.692 -1.882 0.11
-3.822 6.683 -1.883 0.19
-3.845 6.675 -1.884 0.11
-3.861 6.654 -1.882 0.2
-3.889 6.654 -1.885 0.11
-3.914 6.648 -1.887 0.18
-3.913 6.624 -1.882 0.05
-3.938 6.618 -1.884 0.18
-3.959 6.606 -1.884 0.11
-3.971 6.578 -1.879 0.18
-3.995 6.572 -1.881 0.2
-4.019 6.565 -1.883 0.1
-4.033 6.542 -1.88 0.19
-4.052 6.549 -1.884 0.11
-4.069 6.531 -1.882 0.19
-4.091 6.52 -1.883 0.19
-4.114 6.512 -1.884 0.1
-4.131 6.493 -1.882 0.18
-4.151 6.48 -1.882 0.21
-4.174 6.471 -1.884 0.1
-4.179 6.457 -1.881 0.18
-4.203 6.449 -1.883 0.11
-4.224 6.437 -1.883 0.18
-4.238 6.414 -1.88 0.21
-4.266 6.412 -1.884 0.19
-4.281 6.392 -1.882 0.21
-4.3 6.377 -1.881 0.19
-4.309 6.368 -1.881 0.21
-4.327 6.352 -1.88 0.18
-4.344 6.333 -1.878 0.23
-4.374 6.334 -1.883 0.19
-4.387 6.311 -1.88 0.22
-4.404 6.294 -1.879 0.18
-4.421 6.275 -1.877 0.25
-4.439 6.26 -1.877 0.2
-4.447 6.249 -1.876 0.23
-4.469 6.239 -1.877 0.21
-4.485 6.22 -1.875 0.12
-4.499 6.198 -1.873 0.21
-4.518 6.184 -1.873 0.2
-4.534 6.165 -1.871 0.24
-4.554 6.15 -1.871 0.23
-4.575 6.139 -1.872 0.19
-4.584 6.13 -1.872 0.26
-4.594 6.104 -1.868 0.25
-4.614 6.091 -1.868 0.2
-4.633 6.076 -1.868 0.27
-4.656 6.066 -1.87 0.25
-4.665 6.039 -1.866 0.19
-4.683 6.023 -1.865 0.26
-4.688 6.01 -1.863 0.24
-4.707 5.995 -1.863 0.25
-4.724 5.978 -1.863 0.26
-4.742 5.962 -1.862 0.28
-4.757 5.943 -1.861 0.17
-4.779 5.932 -1.862 0.29
-4.791 5.908 -1.859 0.23
-4.806 5.908 -1.862 0.24
-4.816 5.882 -1.858 0.18
-4.842 5.876 -1.861 0.29
-4.86 5.861 -1.861 0.23
-4.866 5.831 -1.856 0.17
-4.888 5.82 -1.858 0.29
-4.899 5.796 -1.855 0.23
-4.911 5.791 -1.856 0.27
-4.929 5.775 -1.856 0.27
-4.949 5.763 -1.857 0.23
-4.961 5.74 -1.854 0.3
-4.979 5.724 -1.854 0.27
-4.995 5.706 -1.853 0.2
-5.014 5.692 -1.854 0.27
-5.029 5.673 -1.853 0.24
-5.03 5.656 -1.85 0.26
-5.048 5.64 -1.85 0.25
-5.071 5.63 -1.852 0.17
-5.076 5.6 -1.846 0.29
-5.098 5.59 -1.849 0.24
-5.113 5.571 -1.848 0.25
-5.131 5.555 -1.848 0.24
-5.137 5.544 -1.846 0.21
-5.156 5.529 -1.847 0.28
-5.172 5.511 -1.846 0.24
-5.185 5.491 -1.845 0.19
-5.201 5.473 -1.844 0.26
-5.207 5.446 -1.84 0.24
-5.231 5.436 -1.843 0.18
-5.244 5.432 -1.844 0.26
-5.255 5.41 -1.842 0.22
-5.278 5.399 -1.844 0.2
-5.289 5.377 -1.842 0.26
-5.301 5.355 -1.84 0.25
-5.322 5.342 -1.842 0.23
-5.334 5.321 -1.84 0.11
-5.348 5.302 -1.839 0.21
-5.362 5.299 -1.841 0.18
-5.381 5.285 -1.842 0.26
-5.388 5.258 -1.839 0.19
-5.403 5.24 -1.838 0.24
-5.42 5.223 -1.838 0.19
-5.433 5.203 -1.837 0.24
-5.452 5.189 -1.838 0.19
-5.461 5.18 -1.838 0.25
-5.473 5.159 -1.837 0.2
-5.483 5.137 -1.835 0.23
-5.511 5.13 -1.839 0.2
-5.507 5.094 -1.832 0.23
-5.53 5.083 -1.834 0.1
-5.547 5.067 -1.835 0.2
-5.549 5.037 -1.83 0.11
-5.563 5.033 -1.832 0.2
-5.583 5.02 -1.833 0.11
-5.587 4.992 -1.829 0.18
-5.604 4.975 -1.83 0.22
-5.611 4.95 -1.827 0.1
-5.628 4.934 -1.827 0.19
-5.651 4.922 -1.83 0.11
-5.658 4.914 -1.83 0.18
-5.656 4.881 -1.824 0.23
-5.691 4.879 -1.83 0.2
-5.685 4.844 -1.823 0.21
-5.708 4.832 -1.826 0.2
-5.713 4.805 -1.822 0.23
-5.737 4.795 -1.825 0.19
-5.722 4.767 -1.818 0.21
-5.746 4.757 -1.821 0.19
-5.758 4.736 -1.82 0.12
-5.767 4.713 -1.818 0.21
-5.784 4.697 -1.819 0.18
-5.792 4.673 -1.816 0.27
-5.797 4.648 -1.813 0.24
-5.809 4.642 -1.815 0.18
-5.822 4.623 -1.814 0.28
-5.826 4.596 -1.811 0.24
-5.845 4.581 -1.812 0.22
-5.856 4.56 -1.811 0.25
-5.867 4.54 -1.81 0.24
-5.883 4.522 -1.811 0.24
-5.893 4.5 -1.809 0.18
-5.897 4.489 -1.808 0.3
-5.902 4.463 -1.805 0.25
-5.909 4.44 -1.803 0.27
-5.931 4.427 -1.806 0.27
-5.937 4.403 -1.803 0.28
-5.959 4.39 -1.806 0.26
-5.974 4.372 -1.806 0.28
-5.978 4.36 -1.805 0.28
-5.985 4.337 -1.803 0.28
-5.989 4.311 -1.8 0.27
-6.016 4.302 -1.804 0.38
-6.009 4.268 -1.798 0.22
-6.009 4.24 -1.794 0.25
-6.038 4.232 -1.799 0.36
-6.045 4.223 -1.799 0.35
-6.06 4.205 -1.799 0.41
-6.076 4.188 -1.8 0.41
-6.088 4.168 -1.8 0.31
-6.099 4.148 -1.799 0.32
-6.115 4.131 -1.8 0.29
-6.127 4.11 -1.8 0.35
-6.133 4.087 -1.798 0.21
-6.154 4.087 -1.802 0.22
-6.16 4.063 -1.8 0.52
-6.191 4.056 -1.806 0.37
-6.204 4.036 -1.806 0.29
-6.2 4.006 -1.801 0.28
-6.227 3.996 -1.805 0.32
-6.243 3.978 -1.806 0.28
-6.248 3.968 -1.806 0.29
-6.254 3.944 -1.804 0.3
-6.276 3.93 -1.807 0.32
-6.295 3.915 -1.809 0.28
-6.307 3.895 -1.809 0.29
-6.321 3.876 -1.809 0.3
-6.336 3.858 -1.81 0.31
-6.342 3.848 -1.81 0.28
-6.359 3.831 -1.812 0.32
-6.37 3.81 -1.811 0.28
-6.377 3.787 -1.81 0.28
-6.395 3.771 -1.812 0.29
-6.404 3.749 -1.811 0.3
-6.425 3.735 -1.814 0.31
-6.422 3.706 -1.809 0.3
-6.445 3.706 -1.814 0.24
-6.463 3.689 -1.816 0.32
-6.468 3.665 -1.814 0.3
-6.476 3.643 -1.813 0.29
-6.491 3.624 -1.814 0.29
-6.504 3.605 -1.815 0.27
-6.513 3.597 -1.816 0.32
-6.527 3.578 -1.817 0.28
-6.535 3.556 -1.816 0.3
-6.548 3.536 -1.816 0.29
-6.554 3.513 -1.815 0.31
-6.567 3.493 -1.815 0.29
-6.571 3.469 -1.813 0.28
-6.599 3.457 -1.818 0.27
-6.604 3.447 -1.818 0.29
-6.618 3.428 -1.819 0.27
-6.622 3.403 -1.817 0.29
-6.631 3.382 -1.817 0.29
-6.645 3.362 -1.818 0.29
-6.658 3.342 -1.818 0.31
-6.673 3.324 -1.82 0.3
-6.67 3.309 -1.817 0.3
-6.678 3.287 -1.817 0.27
-6.701 3.272 -1.82 0.26
-6.699 3.245 -1.817 0.0
-6.716 3.228 -1.819 0.0
-6.742 3.214 -1.823 0.0
-7.171 2.135 -1.827 0.0
-7.158 2.119 -1.822 0.02
-7.174 2.099 -1.825 0.08
-7.167 2.073 -1.821 0.09
-7.192 2.056 -1.826 0.18
-7.184 2.029 -1.822 0.23
-7.179 2.003 -1.819 0.23
-7.199 1.996 -1.824 0.19
-7.207 1.974 -1.824 0.26
-7.215 1.952 -1.825 0.23
-7.214 1.927 -1.823 0.18
-7.218 1.904 -1.822 0.27
-7.23 1.883 -1.824 0.24
-7.234 1.86 -1.823 0.26
-7.238 1.849 -1.824 0.26
-7.25 1.828 -1.825 0.26
-7.261 1.806 -1.827 0.29
-7.274 1.785 -1.829 0.31
-7.278 1.762 -1.828 0.29
-7.283 1.739 -1.828 0.28
-7.294 1.718 -1.83 0.32
-7.296 1.694 -1.829 0.29
-7.31 1.685 -1.832 0.28
-7.312 1.661 -1.831 0.28
-7.313 1.637 -1.83 0.28
-7.309 1.612 -1.827 0.3
-7.31 1.588 -1.826 0.29
-7.322 1.567 -1.828 0.26
-7.329 1.545 -1.829 0.3
-7.337 1.534 -1.83 0.28
-7.327 1.508 -1.826 0.29
-7.347 1.488 -1.83 0.29
-7.342 1.463 -1.828 0.31
-7.352 1.441 -1.829 0.27
-7.355 1.418 -1.829 0.29
-7.365 1.396 -1.83 0.28
-7.358 1.37 -1.827 0.26
-7.373 1.361 -1.831 0.32
-7.379 1.338 -1.831 0.3
-7.355 1.31 -1.824 0.3
-7.374 1.29 -1.828 0.29
-7.38 1.267 -1.828 0.29
-7.398 1.246 -1.832 0.26
-7.398 1.222 -1.831 0.25
-7.386 1.208 -1.827 0.21
-7.392 1.185 -1.828 0.37
-7.397 1.162 -1.828 0.36
-7.411 1.141 -1.831 0.37
-7.412 1.117 -1.83 0.29
-7.339 1.082 -1.81 0.36
-7.436 1.073 -1.835 0.25
-7.432 1.061 -1.833 0.26
-7.437 1.037 -1.834 0.26
-7.445 1.015 -1.835 0.2
-7.457 0.993 -1.837 0.27
-7.458 0.969 -1.837 0.21
-7.461 0.945 -1.837 0.23
-7.451 0.92 -1.833 0.23
-7.462 0.91 -1.836 0.19
-7.472 0.887 -1.838 0.26
-7.485 0.865 -1.84 0.21
-7.488 0.841 -1.84 0.12
-7.486 0.817 -1.839 0.21
-7.487 0.794 -1.839 0.18
-7.495 0.771 -1.84 0.26
-7.492 0.747 -1.839 0.22
-7.499 0.735 -1.84 0.18
-7.505 0.712 -1.841 0.27
-7.501 0.688 -1.84 0.19
-7.499 0.664 -1.839 0.23
-7.511 0.641 -1.841 0.19
-7.525 0.619 -1.844 0.25
-7.513 0.594 -1.841 0.22
-7.514 0.582 -1.841 0.12
-7.512 0.558 -1.84 0.21
-7.506 0.534 -1.838 0.19
-7.511 0.511 -1.839 0.26
-7.515 0.487 -1.839 0.24
-7.503 0.463 -1.836 0.18
-7.502 0.439 -1.835 0.26
-7.507 0.428 -1.836 0.23
-7.491 0.403 -1.832 0.26
-7.498 0.38 -1.833 0.2
-7.501 0.356 -1.834 0.26
-7.489 0.332 -1.83 0.25
-7.491 0.309 -1.831 0.27
-7.498 0.286 -1.832 0.26
-7.489 0.273 -1.83 0.27
-7.507 0.25 -1.834 0.26
-7.506 0.227 -1.834 0.3
-7.493 0.203 -1.83 0.29
-7.502 0.179 -1.832 0.27
-7.516 0.156 -1.836 0.27
-7.506 0.132 -1.833 0.29
-7.518 0.109 -1.836 0.28
-7.528 0.097 -1.839 0.29
-7.523 0.074 -1.837 0.29
-7.531 0.05 -1.839 0.27
-7.533 0.026 -1.84 0.31
-7.504 0.003 -1.832 0.31
-7.511 -0.021 -1.834 0.29
-7.525 -0.045 -1.838 0.26
-7.525 -0.056 -1.838 0.27
-7.53 -0.08 -1.839 0.28
-7.53 -0.104 -1.839 0.28
-7.522 -0.127 -1.837 0.28
-7.531 -0.151 -1.84 0.29
-7.527 -0.175 -1.839 0.29
-7.526 -0.198 -1.839 0.29
-7.522 -0.222 -1.838 0.26
-7.521 -0.234 -1.838 0.31
-7.528 -0.257 -1.84 0.29
-7.524 -0.281 -1.839 0.28
-7.527 -0.305 -1.84 0.28
-7.522 -0.328 -1.839 0.31
-7.515 -0.352 -1.837 0.29
-7.514 -0.375 -1.837 0.27
-7.519 -0.387 -1.839 0.27
-7.516 -0.411 -1.838 0.27
-7.509 -0.434 -1.837 0.29
-7.513 -0.458 -1.838 0.29
-7.515 -0.482 -1.839 0.26
-7.518 -0.506 -1.84 0.28
-7.53 -0.53 -1.844 0.25
-7.504 -0.54 -1.837 0.19
-7.508 -0.564 -1.839 0.29
-7.51 -0.588 -1.84 0.24
-7.51 -0.612 -1.84 0.26
-7.514 -0.636 -1.842 0.19
-7.512 -0.66 -1.842 0.27
-7.507 -0.683 -1.841 0.23
-7.51 -0.695 -1.842 0.2
-7.51 -0.719 -1.843 0.25
-7.492 -0.741 -1.839 0.24
-7.484 -0.764 -1.837 0.22
-7.484 -0.788 -1.838 0.12
-7.462 -0.809 -1.833 0.2
-7.459 -0.833 -1.833 0.21
-7.466 -0.845 -1.835 0.24
-7.457 -0.868 -1.833 0.23
-7.474 -0.894 -1.838 0.2
-7.452 -0.915 -1.833 0.24
-7.451 -0.938 -1.834 0.22
-7.45 -0.962 -1.834 0.2
-7.45 -0.986 -1.835 0.27
-7.441 -1.009 -1.834 0.23
-7.449 -1.022 -1.836 0.19
-7.45 -1.046 -1.837 0.28
-7.447 -1.069 -1.837 0.25
-7.434 -1.091 -1.835 0.26
-7.425 -1.113 -1.833 0.26
-7.432 -1.139 -1.836 0.27
-7.425 -1.161 -1.835 0.27
-7.421 -1.173 -1.835 0.28
-7.423 -1.197 -1.836 0.28
-7.429 -1.222 -1.839 0.24
-7.431 -1.246 -1.84 0.29
-7.427 -1.269 -1.84 0.28
-7.429 -1.294 -1.842 0.3
-7.417 -1.316 -1.84 0.3
-7.421 -1.328 -1.841 0.3
-7.426 -1.353 -1.844 0.29
-7.41 -1.375 -1.841 0.29
-7.412 -1.399 -1.842 0.32
-7.401 -1.421 -1.841 0.27
-7.408 -1.447 -1.844 0.32
-7.406 -1.47 -1.844 0.29
-7.398 -1.481 -1.843 0.29
-7.397 -1.505 -1.844 0.29
-7.386 -1.527 -1.842 0.3
-7.389 -1.551 -1.844 0.27
-7.399 -1.578 -1.849 0.28
-7.409 -1.604 -1.853 0.3
-7.402 -1.627 -1.852 0.3
-7.398 -1.638 -1.852 0.31
-7.363 -1.655 -1.843 0.33
-7.371 -1.681 -1.847 0.34
-7.335 -1.697 -1.839 0.36
-7.343 -1.723 -1.842 0.39
-7.33 -1.745 -1.84 0.24
-7.334 -1.77 -1.843 0.31
-7.341 -1.796 -1.846 0.5
-7.278 -1.793 -1.83 0.29
-7.199 -1.798 -1.811 0.28
-7.126 -1.804 -1.793 0.28
-7.049 -1.808 -1.773 0.28
-6.987 -1.816 -1.758 0.27
-6.903 -1.817 -1.737 0.27
-6.852 -1.827 -1.725 0.27
-6.808 -1.827 -1.714 0.0
-6.802 -1.848 -1.714 0.0
-6.808 -1.873 -1.717 0.0
-6.534 -2.973 -1.748 0.0
-6.465 -2.967 -1.731 0.0
-6.419 -2.958 -1.719 0.14
-6.385 -2.967 -1.712 0.19
-6.32 -2.961 -1.696 0.19
-6.223 -2.94 -1.671 0.12
-6.173 -2.94 -1.659 0.21
-6.119 -2.938 -1.646 0.0
-6.092 -2.949 -1.641 0.0
-6.061 -2.946 -1.633 0.0
-6.672 -3.292 -1.816 0.12
-6.625 -3.295 -1.805 0.32
-6.655 -3.335 -1.817 0.25
-6.653 -3.361 -1.819 0.2
-6.576 -3.348 -1.8 0.39
-6.609 -3.391 -1.813 0.3
-6.649 -3.424 -1.826 0.29
-6.653 -3.453 -1.83 0.26
-6.622 -3.463 -1.824 0.39
-6.576 -3.466 -1.814 0.29
-6.566 -3.487 -1.814 0.26
-6.573 -3.517 -1.82 0.34
-6.559 -3.536 -1.819 0.28
-6.538 -3.538 -1.814 0.29
-6.501 -3.545 -1.807 0.45
-6.47 -3.554 -1.801 0.29
-6.455 -3.573 -1.8 0.3
-6.442 -3.592 -1.799 0.4
-6.439 -3.617 -1.802 0.28
-6.448 -3.649 -1.808 0.45
-6.427 -3.65 -1.803 0.3
-6.38 -3.65 -1.793 0.35
-6.382 -3.678 -1.797 0.34
-6.377 -3.702 -1.799 0.3
-6.357 -3.717 -1.796 0.23
-6.354 -3.742 -1.799 0.19
-6.371 -3.778 -1.807 0.35
-6.375 -3.794 -1.81 0.41
-6.321 -3.79 -1.798 0.25
-6.341 -3.828 -1.807 0.26
-6.296 -3.828 -1.797 0.34
-6.292 -3.853 -1.8 0.25
-6.291 -3.88 -1.803 0.25
-6.272 -3.896 -1.801 0.29
-6.283 -3.93 -1.808 0.21
-6.284 -3.943 -1.81 0.38
-6.27 -3.962 -1.81 0.31
-6.28 -3.996 -1.817 0.27
-6.258 -4.01 -1.814 0.35
-6.237 -4.024 -1.811 0.25
-6.244 -4.056 -1.817 0.29
-6.218 -4.068 -1.813 0.29
-6.177 -4.055 -1.803 0.32
-6.163 -4.073 -1.802 0.31
-6.141 -4.086 -1.799 0.33
-6.132 -4.109 -1.801 0.29
-6.176 -4.166 -1.818 0.27
-6.142 -4.171 -1.812 0.26
-6.089 -4.163 -1.799 0.25
-6.063 -4.16 -1.793 0.19
-6.042 -4.173 -1.791 0.24
-6.032 -4.194 -1.792 0.2
-6.004 -4.203 -1.787 0.23
-5.997 -4.227 -1.789 0.2
-5.979 -4.242 -1.788 0.12
-5.955 -4.253 -1.784 0.21
-5.945 -4.26 -1.783 0.23
-5.916 -4.268 -1.778 0.25
-5.909 -4.291 -1.78 0.13
-5.875 -4.294 -1.773 0.21
-5.877 -4.324 -1.778 0.15
-5.871 -4.348 -1.781 0.3
-5.847 -4.359 -1.777 0.24
-5.849 -4.375 -1.78 0.16
-5.829 -4.389 -1.778 0.29
-5.811 -4.403 -1.777 0.2
-5.788 -4.415 -1.774 0.12
-5.752 -4.416 -1.767 0.18
-5.706 -4.41 -1.756 0.21
-5.681 -4.419 -1.753 0.1
-5.674 -4.442 -1.755 0.18
-5.644 -4.433 -1.747 0.22
-5.616 -4.44 -1.743 0.21
-5.598 -4.454 -1.741 0.18
-5.562 -4.455 -1.734 0.26
-5.524 -4.453 -1.726 0.23
-5.501 -4.463 -1.723 0.19
-5.454 -4.453 -1.712 0.27
-5.427 -4.446 -1.705 0.24
-5.406 -4.457 -1.703 0.23
-5.369 -4.455 -1.695 0.21
-5.329 -4.45 -1.686 0.28
-5.297 -4.452 -1.68 0.25
-5.268 -4.456 -1.675 0.25
-5.221 -4.445 -1.664 0.21
-5.192 -4.434 -1.656 0.27
-5.152 -4.428 -1.647 0.2
-5.113 -4.423 -1.639 0.23
-5.062 -4.407 -1.626 0.0
-5.038 -4.414 -1.623 0.0
-5.007 -4.415 -1.617 0.0
-4.984 -4.423 -1.614 0.0
-4.963 -4.418 -1.609 0.0
-5.296 -4.802 -1.74 0.1
-5.354 -4.885 -1.766 0.17
-5.336 -4.899 -1.765 0.3
-5.322 -4.918 -1.765 0.31
-5.317 -4.928 -1.766 0.34
-5.31 -4.953 -1.769 0.39
-5.257 -4.934 -1.756 0.22
-5.25 -4.959 -1.759 0.34
-5.232 -4.974 -1.758 0.34
-5.197 -4.971 -1.751 0.25
-5.173 -4.98 -1.748 0.34
-5.148 -4.987 -1.745 0.32
-5.141 -4.996 -1.745 0.28
-5.121 -5.008 -1.744 0.36
-5.085 -5.004 -1.736 0.41
-5.033 -4.984 -1.723 0.3
-5.055 -5.037 -1.737 0.25
-5.054 -5.068 -1.742 0.27
-5.037 -5.082 -1.742 0.29
-5.025 -5.086 -1.74 0.28
-4.991 -5.084 -1.734 0.44
-4.982 -5.107 -1.736 0.36
-4.92 -5.075 -1.719 0.35
-4.893 -5.079 -1.715 0.31
-4.898 -5.117 -1.723 0.35
-4.865 -5.114 -1.716 0.35
-4.847 -5.112 -1.713 0.32
-4.838 -5.134 -1.715 0.36
-4.817 -5.144 -1.713 0.38
-4.79 -5.148 -1.709 0.22
-4.755 -5.143 -1.702 0.36
-4.731 -5.149 -1.699 0.43
-4.704 -5.153 -1.695 0.29
-4.697 -5.177 -1.699 0.23
-4.677 -5.172 -1.694 0.31
-4.659 -5.184 -1.693 0.32
-4.653 -5.21 -1.697 0.35
-4.619 -5.206 -1.691 0.35
-4.585 -5.2 -1.684 0.25
-4.565 -5.21 -1.682 0.27
-4.534 -5.208 -1.677 0.48
-4.543 -5.234 -1.683 0.35
-4.514 -5.234 -1.678 0.35
-4.467 -5.213 -1.666 0.32
-4.462 -5.24 -1.671 0.37
-4.447 -5.256 -1.671 0.4
-4.428 -5.267 -1.67 0.36
-4.425 -5.297 -1.676 0.4
-4.413 -5.299 -1.674 0.31
-4.376 -5.289 -1.666 0.25
-4.351 -5.293 -1.663 0.34
-4.327 -5.297 -1.659 0.36
-4.313 -5.314 -1.66 0.33
-4.328 -5.366 -1.674 0.34
-4.324 -5.397 -1.679 0.47
-4.31 -5.396 -1.677 0.31
-4.29 -5.406 -1.676 0.31
-4.262 -5.406 -1.671 0.31
-4.239 -5.412 -1.669 0.44
-4.245 -5.454 -1.678 0.27
-4.242 -5.486 -1.684 0.35
-4.225 -5.499 -1.684 0.3
-4.221 -5.512 -1.686 0.29
-4.172 -5.484 -1.673 0.17
-4.196 -5.551 -1.69 0.29
-4.213 -5.61 -1.705 0.25
-4.194 -5.622 -1.705 0.25
-4.154 -5.604 -1.695 0.18
-4.054 -5.507 -1.659 0.2
-4.043 -5.51 -1.658 0.51
-4.047 -5.552 -1.668 0.25
-4.004 -5.529 -1.656 0.25
-3.984 -5.538 -1.655 0.45
-4.044 -5.657 -1.689 0.27
-4.037 -5.686 -1.694 0.41
-4.02 -5.7 -1.695 0.32
-4.005 -5.716 -1.696 0.3
-3.993 -5.719 -1.695 0.27
-3.98 -5.738 -1.697 0.28
-3.982 -5.779 -1.706 0.26
-3.969 -5.799 -1.708 0.24
-3.942 -5.799 -1.704 0.37
-3.936 -5.829 -1.71 0.25
-3.919 -5.843 -1.71 0.21
-3.918 -5.862 -1.714 0.29
-3.858 -5.812 -1.695 0.24
-3.876 -5.878 -1.712 0.25
-3.859 -5.894 -1.713 0.3
-3.858 -5.932 -1.721 0.24
-3.824 -5.921 -1.714 0.25
-3.803 -5.928 -1.712 0.26
-3.789 -5.948 -1.715 0.42
-3.773 -5.943 -1.711 0.3
-3.737 -5.929 -1.703 0.19
-3.694 -5.901 -1.691 0.26
-3.669 -5.903 -1.688 0.24
-3.647 -5.909 -1.687 0.23
-3.621 -5.908 -1.683 0.24
-3.588 -5.875 -1.671 0.2
-3.587 -5.915 -1.68 0.12
-3.54 -5.88 -1.666 0.21
-3.509 -5.869 -1.659 0.19
-3.507 -5.908 -1.668 0.26
-3.474 -5.894 -1.66 0.19
-3.456 -5.907 -1.66 0.24
-3.462 -5.939 -1.669 0.23
-3.453 -5.965 -1.673 0.24
-3.42 -5.952 -1.666 0.18
-3.399 -5.958 -1.665 0.29
-3.373 -5.957 -1.661 0.25
-3.349 -5.957 -1.658 0.2
-3.322 -5.954 -1.654 0.27
-3.304 -5.943 -1.649 0.25
-3.288 -5.958 -1.65 0.2
-3.261 -5.955 -1.646 0.27
-3.236 -5.953 -1.643 0.24
-3.215 -5.958 -1.641 0.19
-3.192 -5.961 -1.639 0.26
-3.163 -5.951 -1.633 0.23
-3.142 -5.957 -1.632 0.19
-3.129 -5.956 -1.63 0.26
-3.104 -5.953 -1.627 0.23
-3.086 -5.965 -1.627 0.18
-3.063 -5.966 -1.625 0.27
-3.035 -5.957 -1.619 0.24
-3.009 -5.952 -1.615 0.19
-2.994 -5.97 -1.618 0.26
-2.976 -5.958 -1.613 0.23
-2.959 -5.971 -1.614 0.21
-2.931 -5.961 -1.608 0.25
-2.904 -5.953 -1.603 0.23
-2.888 -5.967 -1.605 0.21
-2.862 -5.962 -1.601 0.25
-2.835 -5.953 -1.595 0.23
-2.828 -5.963 -1.597 0.18
-2.806 -5.965 -1.595 0.26
-2.775 -5.948 -1.587 0.23
-2.753 -5.949 -1.585 0.18
-2.732 -5.953 -1.584 0.26
-2.701 -5.935 -1.576 0.22
-2.679 -5.936 -1.574 0.2
-2.671 -5.942 -1.575 0.25
-2.638 -5.92 -1.566 0.23
-2.617 -5.923 -1.565 0.19
-2.6 -5.935 -1.566 0.26
-2.571 -5.919 -1.559 0.24
-2.551 -5.923 -1.558 0.19
-2.532 -5.931 -1.558 0.26
-2.506 -5.923 -1.553 0.23
-2.496 -5.925 -1.553 0.18
-2.479 -5.936 -1.554 0.26
-2.448 -5.914 -1.545 0.22
-2.43 -5.923 -1.546 0.2
-2.409 -5.924 -1.544 0.24
-2.386 -5.921 -1.541 0.2
-2.371 -5.937 -1.543 0.23
-2.358 -5.932 -1.541 0.1
-2.33 -5.917 -1.534 0.09
-2.314 -5.93 -1.536 0.08
-2.292 -5.93 -1.534 0.04
-2.279 -5.952 -1.538 0.0
-2.252 -5.937 -1.532 0.0
-2.231 -5.937 -1.53 0.0
-2.222 -5.942 -1.53 0.0
-2.223 -6.0 -1.545 0.0
-2.281 -6.214 -1.602 0.0
-2.367 -6.508 -1.682 0.02
-2.375 -6.595 -1.704 0.07
-2.366 -6.636 -1.713 0.18
-2.347 -6.647 -1.714 0.26
-2.342 -6.665 -1.718 0.32
-2.326 -6.689 -1.722 0.34
-2.297 -6.672 -1.716 0.29
-2.272 -6.667 -1.712 0.33
-2.253 -6.679 -1.714 0.18
-2.225 -6.666 -1.708 0.2
-2.193 -6.64 -1.699 0.36
-2.185 -6.651 -1.701 0.42
-2.166 -6.663 -1.703 0.38
-2.154 -6.697 -1.71 0.46
-2.12 -6.664 -1.699 0.3
-2.097 -6.665 -1.698 0.27
-2.074 -6.664 -1.696 0.29
-2.053 -6.672 -1.696 0.29
-2.039 -6.664 -1.693 0.26
-2.014 -6.656 -1.689 0.26
-1.984 -6.633 -1.681 0.36
-1.954 -6.609 -1.673 0.3
-1.932 -6.61 -1.672 0.22
-1.908 -6.605 -1.669 0.28
-1.889 -6.616 -1.67 0.33
-1.882 -6.63 -1.673 0.32
-1.865 -6.653 -1.678 0.33
-1.851 -6.681 -1.684 0.33
-1.837 -6.711 -1.69 0.3
-1.798 -6.652 -1.673 0.25
-1.788 -6.698 -1.684 0.36
-1.768 -6.709 -1.685 0.35
-1.75 -6.682 -1.677 0.37
-1.731 -6.697 -1.68 0.25
-1.711 -6.704 -1.68 0.39
-1.697 -6.74 -1.688 0.33
-1.682 -6.768 -1.694 0.39
-1.653 -6.745 -1.687 0.26
-1.63 -6.74 -1.684 0.26
-1.603 -6.721 -1.678 0.29
-1.6 -6.754 -1.686 0.38
-1.585 -6.787 -1.693 0.36
-1.56 -6.777 -1.689 0.31
-1.54 -6.787 -1.691 0.25
-1.52 -6.796 -1.692 0.36
-1.492 -6.772 -1.684 0.34
-1.478 -6.809 -1.693 0.27
-1.465 -6.802 -1.69 0.36
-1.444 -6.808 -1.691 0.36
-1.419 -6.798 -1.687 0.26
-1.407 -6.844 -1.698 0.45
-1.379 -6.82 -1.69 0.32
-1.35 -6.786 -1.68 0.27
-1.329 -6.79 -1.68 0.29
-1.318 -6.791 -1.68 0.27
-1.296 -6.793 -1.679 0.27
-1.274 -6.791 -1.678 0.27
-1.255 -6.81 -1.682 0.25
-1.233 -6.807 -1.68 0.2
-1.212 -6.816 -1.681 0.34
-1.187 -6.799 -1.676 0.38
-1.176 -6.797 -1.675 0.34
-1.155 -6.803 -1.675 0.28
-1.133 -6.804 -1.675 0.32
-1.111 -6.804 -1.674 0.32
-1.089 -6.805 -1.673 0.39
-1.071 -6.828 -1.678 0.3
-1.044 -6.799 -1.67 0.27
-1.034 -6.804 -1.671 0.33
-1.018 -6.84 -1.679 0.38
-0.997 -6.849 -1.681 0.29
-0.977 -6.863 -1.684 0.31
-0.952 -6.84 -1.677 0.33
-0.929 -6.831 -1.674 0.27
-0.909 -6.847 -1.677 0.42
-0.886 -6.839 -1.674 0.28
-0.874 -6.832 -1.672 0.27
-0.856 -6.862 -1.679 0.38
-0.834 -6.861 -1.678 0.4
-0.815 -6.881 -1.683 0.48
-0.788 -6.843 -1.672 0.3
-0.766 -6.834 -1.669 0.24
-0.743 -6.827 -1.667 0.18
-0.739 -6.887 -1.682 0.29
-0.718 -6.897 -1.684 0.36
-0.695 -6.882 -1.68 0.4
-0.674 -6.89 -1.681 0.38
-0.65 -6.871 -1.676 0.28
-0.626 -6.852 -1.67 0.27
-0.605 -6.858 -1.671 0.28
-0.593 -6.847 -1.668 0.27
-0.572 -6.855 -1.67 0.28
-0.551 -6.856 -1.67 0.28
-0.529 -6.854 -1.669 0.27
-0.509 -6.879 -1.675 0.27
-0.487 -6.877 -1.674 0.24
-0.464 -6.851 -1.667 0.31
-0.455 -6.879 -1.674 0.38
-0.432 -6.857 -1.668 0.27
-0.41 -6.849 -1.665 0.29
-0.39 -6.883 -1.674 0.29
-0.367 -6.869 -1.67 0.29
-0.346 -6.876 -1.671 0.41
-0.322 -6.832 -1.659 0.27
-0.311 -6.815 -1.655 0.37
-0.289 -6.807 -1.652 0.32
-0.269 -6.838 -1.66 0.27
-0.248 -6.849 -1.663 0.31
-0.226 -6.848 -1.663 0.54
-0.205 -6.856 -1.665 0.35
-0.183 -6.861 -1.666 0.29
-0.173 -6.884 -1.672 0.38
-0.152 -6.881 -1.671 0.26
-0.129 -6.842 -1.66 0.37
-0.108 -6.841 -1.66 0.34
-0.086 -6.851 -1.663 0.33
-0.065 -6.872 -1.668 0.21
-0.044 -6.904 -1.676 0.29
-0.033 -6.929 -1.683 0.37
-0.011 -6.939 -1.685 0.45
0.01 -6.927 -1.682 0.22
0.032 -6.917 -1.68 0.34
0.054 -6.919 -1.68 0.36
0.075 -6.872 -1.668 0.26
0.097 -6.853 -1.663 0.29
0.118 -6.85 -1.663 0.27
0.129 -6.842 -1.66 0.27
0.15 -6.842 -1.66 0.27
0.172 -6.842 -1.66 0.25
0.193 -6.849 -1.663 0.27
0.215 -6.852 -1.664 0.27
0.238 -6.905 -1.678 0.26
0.26 -6.91 -1.679 0.33
0.271 -6.906 -1.678 0.34
0.292 -6.88 -1.672 0.25
0.311 -6.837 -1.66 0.26
0.333 -6.832 -1.659 0.27
0.355 -6.836 -1.661 0.35
0.377 -6.857 -1.667 0.4
0.399 -6.863 -1.669 0.25
0.408 -6.822 -1.658 0.29
0.428 -6.801 -1.653 0.33
0.453 -6.854 -1.667 0.41
0.474 -6.854 -1.668 0.28
0.496 -6.859 -1.669 0.42
0.517 -6.844 -1.666 0.26
0.54 -6.869 -1.673 0.37
0.553 -6.889 -1.678 0.36
0.573 -6.87 -1.674 0.26
0.596 -6.89 -1.679 0.29
0.616 -6.864 -1.673 0.26
0.636 -6.849 -1.67 0.49
0.655 -6.812 -1.66 0.34
0.677 -6.822 -1.664 0.36
0.69 -6.848 -1.671 0.27
0.712 -6.847 -1.671 0.26
0.731 -6.82 -1.665 0.36
0.748 -6.772 -1.652 0.2
0.769 -6.771 -1.653 0.34
0.795 -6.813 -1.665 0.23
0.812 -6.766 -1.653 0.26
0.822 -6.767 -1.653 0.26
0.844 -6.766 -1.654 0.27
0.864 -6.756 -1.652 0.27
0.886 -6.757 -1.653 0.27
0.91 -6.773 -1.658 0.26
0.928 -6.751 -1.653 0.19
0.963 -6.844 -1.678 0.38
0.973 -6.837 -1.677 0.32
0.997 -6.853 -1.682 0.29
1.017 -6.84 -1.679 0.29
1.037 -6.825 -1.676 0.3
1.054 -6.791 -1.668 0.41
1.071 -6.765 -1.662 0.29
1.101 -6.817 -1.677 0.39
1.108 -6.793 -1.671 0.27
1.129 -6.787 -1.67 0.22
1.15 -6.778 -1.669 0.22
1.176 -6.805 -1.677 0.32
1.199 -6.809 -1.679 0.41
1.22 -6.803 -1.678 0.3
1.236 -6.767 -1.67 0.29
1.255 -6.753 -1.667 0.31
1.262 -6.73 -1.662 0.24
1.291 -6.77 -1.673 0.4
1.31 -6.753 -1.67 0.23
1.331 -6.749 -1.67 0.32
1.359 -6.778 -1.679 0.36
1.381 -6.78 -1.68 0.47
1.4 -6.762 -1.677 0.23
1.406 -6.737 -1.671 0.29
1.428 -6.738 -1.672 0.36
1.453 -6.751 -1.677 0.29
1.471 -6.729 -1.672 0.34
1.493 -6.729 -1.673 0.29
1.51 -6.709 -1.669 0.27
1.518 -6.643 -1.653 0.23
1.525 -6.626 -1.649 0.28
1.546 -6.621 -1.649 0.28
1.568 -6.624 -1.651 0.27
1.589 -6.617 -1.65 0.19
1.608 -6.604 -1.648 0.29
1.628 -6.597 -1.648 0.25
1.651 -6.604 -1.651 0.22
1.67 -6.633 -1.659 0.31
1.698 -6.656 -1.667 0.33
1.733 -6.707 -1.682 0.3
1.749 -6.682 -1.677 0.36
1.76 -6.639 -1.667 0.0
1.767 -6.58 -1.652 0.0
1.742 -6.406 -1.607 0.0
1.673 -6.072 -1.518 0.0
1.656 -5.97 -1.492 0.0
1.665 -5.931 -1.483 0.0
1.681 -5.915 -1.48 0.0
1.705 -5.93 -1.485 0.03
1.723 -5.921 -1.484 0.07
1.738 -5.904 -1.481 0.15
1.755 -5.929 -1.489 0.17
1.767 -5.901 -1.483 0.09
1.793 -5.918 -1.489 0.18
1.812 -5.914 -1.489 0.22
1.833 -5.916 -1.491 0.18
1.852 -5.912 -1.492 0.25
1.873 -5.915 -1.494 0.23
1.881 -5.909 -1.493 0.2
1.9 -5.905 -1.494 0.26
1.924 -5.913 -1.498 0.23
1.939 -5.898 -1.495 0.17
1.964 -5.912 -1.501 0.28
1.985 -5.913 -1.503 0.25
2.004 -5.907 -1.503 0.2
2.024 -5.906 -1.504 0.28
2.038 -5.916 -1.508 0.24
2.054 -5.902 -1.506 0.2
2.078 -5.91 -1.51 0.27
2.098 -5.908 -1.511 0.23
2.119 -5.908 -1.513 0.19
2.138 -5.903 -1.513 0.26
2.162 -5.913 -1.518 0.22
2.174 -5.917 -1.52 0.2
2.202 -5.934 -1.526 0.25
2.222 -5.93 -1.527 0.23
2.242 -5.929 -1.529 0.19
2.267 -5.938 -1.533 0.27
2.285 -5.929 -1.533 0.24
2.306 -5.929 -1.535 0.25
2.324 -5.947 -1.541 0.25
2.338 -5.929 -1.538 0.18
2.363 -5.936 -1.542 0.29
2.384 -5.936 -1.544 0.25
2.41 -5.946 -1.549 0.23
2.424 -5.928 -1.546 0.21
2.446 -5.927 -1.548 0.26
2.457 -5.927 -1.549 0.24
2.483 -5.937 -1.554 0.2
2.508 -5.945 -1.559 0.28
2.523 -5.929 -1.556 0.23
2.547 -5.933 -1.56 0.2
2.57 -5.936 -1.563 0.27
2.586 -5.922 -1.561 0.25
2.606 -5.941 -1.568 0.21
2.624 -5.933 -1.568 0.25
2.649 -5.939 -1.572 0.23
2.668 -5.931 -1.572 0.19
2.698 -5.947 -1.579 0.26
2.71 -5.924 -1.575 0.22
2.74 -5.94 -1.582 0.18
2.763 -5.942 -1.585 0.26
2.771 -5.934 -1.584 0.22
2.8 -5.949 -1.59 0.2
2.816 -5.934 -1.589 0.24
2.839 -5.934 -1.591 0.22
2.864 -5.939 -1.595 0.19
2.881 -5.927 -1.594 0.26
2.903 -5.925 -1.596 0.23
2.918 -5.931 -1.6 0.2
2.944 -5.937 -1.604 0.25
2.962 -5.926 -1.604 0.19
2.983 -5.922 -1.605 0.23
3.002 -5.912 -1.605 0.2
3.017 -5.896 -1.603 0.11
3.026 -5.891 -1.603 0.2
3.029 -5.851 -1.594 0.1
3.057 -5.86 -1.6 0.18
3.071 -5.842 -1.597 0.21
3.1 -5.853 -1.603 0.19
3.127 -5.86 -1.608 0.11
3.147 -5.854 -1.609 0.21
3.207 -5.921 -1.632 0.27
3.225 -5.933 -1.637 0.2
3.257 -5.946 -1.644 0.29
3.268 -5.922 -1.64 0.22
3.285 -5.909 -1.639 0.25
3.309 -5.909 -1.642 0.32
3.325 -5.893 -1.64 0.18
3.348 -5.891 -1.643 0.17
3.362 -5.894 -1.645 0.57
3.366 -5.858 -1.638 0.25
3.395 -5.866 -1.643 0.24
3.416 -5.859 -1.644 0.23
3.441 -5.86 -1.648 0.35
3.457 -5.846 -1.647 0.28
3.469 -5.823 -1.643 0.24
3.475 -5.813 -1.642 0.22
3.489 -5.795 -1.64 0.2
3.512 -5.792 -1.642 0.16
3.494 -5.722 -1.624 0.46
3.521 -5.726 -1.629 0.39
3.546 -5.726 -1.632 0.28
3.578 -5.736 -1.639 0.36
3.578 -5.717 -1.635 0.25
3.591 -5.698 -1.632 0.29
3.616 -5.698 -1.636 0.28
3.646 -5.705 -1.641 0.21
3.671 -5.705 -1.645 0.49
3.682 -5.683 -1.642 0.27
3.697 -5.667 -1.64 0.2
3.706 -5.661 -1.64 0.29
3.71 -5.628 -1.634 0.24
3.72 -5.605 -1.63 0.27
3.72 -5.566 -1.622 0.26
3.735 -5.551 -1.621 0.25
3.75 -5.536 -1.62 0.27
3.769 -5.526 -1.62 0.27
3.786 -5.533 -1.624 0.31
3.801 -5.518 -1.623 0.3
3.788 -5.461 -1.609 0.32
3.826 -5.48 -1.619 0.28
3.823 -5.439 -1.61 0.36
3.82 -5.398 -1.601 0.3
3.85 -5.404 -1.606 0.41
3.903 -5.444 -1.623 0.29
3.912 -5.437 -1.623 0.32
3.93 -5.427 -1.623 0.33
3.968 -5.443 -1.632 0.3
3.963 -5.4 -1.623 0.29
3.957 -5.357 -1.613 0.22
3.994 -5.371 -1.621 0.38
3.986 -5.343 -1.614 0.34
3.99 -5.313 -1.609 0.26
4.031 -5.333 -1.619 0.29
4.038 -5.308 -1.615 0.33
4.051 -5.291 -1.614 0.22
4.09 -5.307 -1.623 0.36
4.089 -5.271 -1.616 0.32
4.106 -5.258 -1.616 0.25
4.105 -5.24 -1.612 0.28
4.104 -5.205 -1.605 0.29
4.128 -5.202 -1.608 0.35
4.156 -5.204 -1.613 0.32
4.179 -5.198 -1.615 0.33
4.199 -5.19 -1.617 0.25
4.199 -5.157 -1.61 0.29
4.208 -5.152 -1.611 0.24
4.239 -5.156 -1.617 0.2
4.247 -5.133 -1.613 0.32
4.241 -5.092 -1.604 0.27
4.273 -5.098 -1.611 0.29
4.315 -5.116 -1.621 0.22
4.346 -5.12 -1.627 0.4
4.358 -5.118 -1.629 0.44
4.349 -5.075 -1.619 0.32
4.367 -5.064 -1.62 0.3
4.383 -5.05 -1.62 0.25
4.398 -5.035 -1.619 0.32
4.407 -5.014 -1.617 0.36
4.438 -5.017 -1.623 0.32
4.433 -4.996 -1.618 0.25
4.471 -5.007 -1.626 0.28
4.5 -5.008 -1.632 0.34
4.508 -4.986 -1.629 0.25
4.512 -4.958 -1.624 0.32
4.528 -4.944 -1.624 0.25
4.541 -4.927 -1.623 0.16
4.556 -4.929 -1.626 0.25
4.578 -4.921 -1.629 0.48
4.611 -4.925 -1.635 0.3
4.63 -4.915 -1.637 0.29
4.641 -4.895 -1.635 0.31
4.643 -4.866 -1.63 0.31
4.655 -4.849 -1.629 0.33
4.712 -4.893 -1.647 0.25
4.765 -4.918 -1.662 0.29
4.793 -4.915 -1.666 0.44
4.754 -4.845 -1.646 0.23
4.718 -4.777 -1.627 0.16
4.748 -4.777 -1.632 0.0
4.511 -4.508 -1.539 0.0
4.441 -4.397 -1.506 0.0
4.454 -4.381 -1.505 0.0
4.499 -4.399 -1.517 0.0
4.514 -4.386 -1.517 0.02
4.532 -4.376 -1.519 0.12
4.568 -4.383 -1.527 0.04
4.59 -4.377 -1.53 0.17
4.624 -4.395 -1.54 0.2
4.656 -4.398 -1.546 0.17
4.692 -4.404 -1.554 0.23
4.73 -4.412 -1.563 0.23
4.761 -4.413 -1.569 0.2
4.792 -4.414 -1.575 0.25
4.817 -4.409 -1.579 0.23
4.844 -4.42 -1.586 0.2
4.866 -4.413 -1.589 0.24
4.909 -4.423 -1.599 0.21
4.928 -4.413 -1.601 0.23
4.968 -4.421 -1.61 0.2
4.985 -4.408 -1.611 0.23
5.016 -4.408 -1.617 0.2
5.036 -4.411 -1.622 0.12
5.058 -4.403 -1.625 0.2
5.08 -4.393 -1.627 0.11
5.101 -4.384 -1.63 0.18
5.123 -4.375 -1.633 0.2
5.144 -4.365 -1.635 0.1
5.168 -4.358 -1.639 0.2
5.215 -4.384 -1.652 0.21
5.269 -4.401 -1.666 0.32
5.265 -4.369 -1.66 0.22
5.283 -4.357 -1.662 0.26
5.289 -4.334 -1.659 0.23
5.283 -4.301 -1.652 0.27
5.28 -4.271 -1.647 0.3
5.3 -4.274 -1.651 0.26
5.344 -4.282 -1.662 0.26
5.375 -4.279 -1.668 0.25
5.365 -4.243 -1.659 0.25
5.375 -4.224 -1.658 0.37
5.388 -4.207 -1.658 0.36
5.415 -4.201 -1.663 0.24
5.425 -4.194 -1.664 0.14
5.498 -4.224 -1.684 0.5
5.517 -4.211 -1.686 0.38
5.475 -4.151 -1.668 0.3
5.519 -4.158 -1.678 0.28
5.544 -4.15 -1.682 0.33
5.554 -4.13 -1.681 0.27
5.579 -4.135 -1.687 0.3
5.583 -4.111 -1.684 0.31
5.578 -4.08 -1.678 0.32
5.582 -4.056 -1.675 0.3
5.58 -4.028 -1.671 0.29
5.59 -4.008 -1.67 0.29
5.582 -3.976 -1.663 0.23
5.585 -3.965 -1.662 0.3
5.604 -3.952 -1.664 0.25
5.624 -3.94 -1.667 0.23
5.622 -3.912 -1.662 0.17
5.641 -3.899 -1.664 0.28
5.653 -3.881 -1.664 0.25
5.673 -3.869 -1.667 0.25
5.671 -3.855 -1.664 0.26
5.696 -3.845 -1.668 0.26
5.721 -3.836 -1.672 0.26
5.73 -3.816 -1.671 0.25
5.753 -3.805 -1.675 0.26
5.77 -3.791 -1.676 0.28
5.779 -3.77 -1.675 0.38
5.8 -3.759 -1.678 0.31
5.806 -3.749 -1.678 0.29
5.825 -3.71 -1.677 0.54
5.812 -3.676 -1.669 0.37
5.802 -3.644 -1.663 0.42
5.836 -3.64 -1.67 0.33
5.863 -3.631 -1.674 0.32
5.885 -3.632 -1.679 0.44
5.908 -3.621 -1.683 0.27
5.891 -3.585 -1.674 0.31
5.887 -3.557 -1.67 0.45
5.905 -3.543 -1.672 0.31
5.931 -3.533 -1.676 0.51
5.969 -3.53 -1.684 0.37
5.941 -3.501 -1.674 0.31
5.939 -3.475 -1.67 0.3
5.975 -3.471 -1.678 0.38
5.977 -3.447 -1.675 0.29
6.035 -3.455 -1.689 0.26
6.019 -3.421 -1.681 0.39
6.029 -3.402 -1.681 0.31
6.038 -3.395 -1.682 0.38
6.081 -3.394 -1.692 0.34
6.11 -3.385 -1.697 0.32
6.116 -3.363 -1.696 0.35
6.092 -3.325 -1.686 0.28
6.098 -3.303 -1.684 0.27
5.931 -3.188 -1.632 0.0
6.028 -3.228 -1.659 0.0
5.529 -2.914 -1.506 0.03
5.543 -2.899 -1.507 0.15
5.588 -2.901 -1.518 0.16
5.618 -2.894 -1.524 0.26
5.658 -2.892 -1.533 0.25
5.728 -2.917 -1.552 0.27
5.783 -2.923 -1.566 0.28
5.832 -2.924 -1.577 0.27
5.871 -2.921 -1.586 0.27
5.92 -2.922 -1.597 0.27
5.965 -2.922 -1.608 0.26
6.001 -2.916 -1.616 0.27
6.031 -2.919 -1.623 0.26
6.07 -2.914 -1.632 0.21
6.079 -2.895 -1.632 0.25
6.113 -2.888 -1.639 0.22
6.141 -2.878 -1.644 0.18
6.237 -2.9 -1.67 0.22
6.243 -2.878 -1.669 0.39
6.261 -2.863 -1.671 0.37
6.267 -2.854 -1.672 0.48
6.257 -2.825 -1.666 0.37
6.269 -2.807 -1.667 0.23
6.276 -2.787 -1.667 0.57
