# .PCD v.7 - Point Cloud Data file format
VERSION .7
FIELDS x y z intensity
SIZE 4 4 4 4
TYPE F F F F
COUNT 1 1 1 1
WIDTH 1918
HEIGHT 1
VIEWPOINT 0 0 0 1 0 0 0
POINTS 1918
DATA ascii
63.744 -5.689 2.373 0.0
63.619 -5.476 2.368 0.0
63.61 -5.274 2.367 0.0
63.632 -5.075 2.368 0.0
63.592 -4.87 2.366 0.0
63.563 -4.667 2.364 0.0
46.483 -1.955 1.782 0.0
46.555 -1.812 1.785 0.0
46.514 -1.664 1.783 0.0
72.637 10.983 2.227 0.0
72.142 11.14 2.214 0.0
71.577 11.283 2.2 0.0
71.518 11.504 2.199 0.0
73.262 11.902 2.248 0.0
73.812 12.229 2.264 0.0
73.785 12.463 2.265 0.0
73.848 12.713 2.268 0.0
73.861 12.954 2.269 0.0
73.29 13.091 2.254 0.0
72.019 13.098 2.22 0.0
72.423 13.289 2.232 0.0
70.326 13.592 2.177 0.0
68.751 13.512 2.134 0.0
62.391 12.468 1.957 0.0
62.104 12.614 1.95 0.0
61.982 12.792 1.948 0.0
71.391 14.847 2.212 0.0
55.687 11.769 1.773 0.0
55.743 11.964 1.775 0.0
55.303 12.052 1.764 0.0
55.142 12.198 1.76 0.0
55.088 12.368 1.76 0.0
55.101 12.553 1.761 0.0
56.231 12.903 1.794 0.0
56.19 13.079 1.794 0.0
56.322 13.297 1.799 0.0
57.451 13.753 1.832 0.0
66.738 16.194 2.096 0.0
54.709 13.462 1.757 0.0
54.616 13.621 1.755 0.0
66.364 16.878 2.09 0.0
66.07 17.025 2.083 0.0
65.926 17.209 2.081 0.0
66.109 17.478 2.088 0.0
69.847 18.7 2.195 0.0
69.545 18.854 2.189 0.0
68.917 18.8 2.172 0.0
68.841 19.012 2.171 0.0
58.902 17.573 1.898 0.0
58.959 17.792 1.901 0.0
58.911 17.979 1.901 0.0
42.51 13.42 1.434 0.25
42.582 13.517 1.436 0.68
42.615 13.675 1.438 0.71
42.797 13.881 1.445 0.0
60.726 20.108 1.966 0.0
60.7 20.311 1.967 0.0
60.246 20.581 1.958 0.0
59.956 20.587 1.951 0.0
59.944 20.794 1.952 0.0
36.766 13.154 1.282 0.17
36.651 13.243 1.279 0.21
36.62 13.362 1.28 0.28
36.712 13.461 1.283 0.0
56.398 20.865 1.861 0.0
55.328 20.667 1.832 0.0
55.336 20.869 1.834 0.0
52.715 20.071 1.759 0.0
52.486 20.173 1.754 0.1
52.146 20.231 1.746 0.0
52.035 20.281 1.743 0.0
52.384 20.607 1.755 0.0
52.557 20.866 1.762 0.09
52.201 20.915 1.754 0.1
44.981 18.19 1.542 0.09
44.985 18.356 1.544 0.0
44.964 18.513 1.545 0.06
41.631 17.219 1.447 0.0
41.872 17.473 1.455 0.16
41.951 17.661 1.459 0.0
42.591 18.088 1.48 0.0
41.908 17.953 1.461 0.0
41.937 18.122 1.464 0.0
41.963 18.29 1.466 0.0
42.176 18.461 1.474 0.0
42.147 18.606 1.475 0.05
42.517 18.93 1.487 0.0
44.576 20.013 1.551 0.0
42.495 19.402 1.492 0.0
44.147 20.322 1.544 0.0
41.667 19.421 1.472 0.26
42.332 19.892 1.494 0.0
42.24 20.012 1.493 0.0
43.013 20.543 1.518 0.0
44.157 21.259 1.555 0.05
26.714 13.028 1.025 0.27
26.637 13.094 1.024 0.43
26.596 13.178 1.024 0.27
26.81 13.389 1.032 0.0
44.626 22.442 1.581 0.0
43.298 21.946 1.542 0.0
44.207 22.58 1.573 0.0
44.392 22.763 1.579 0.0
42.559 22.333 1.529 0.0
70.375 37.193 2.396 0.0
43.734 23.3 1.57 0.04
36.378 19.533 1.343 0.11
36.26 19.543 1.34 0.27
36.054 19.579 1.336 0.29
35.857 19.618 1.332 0.29
35.653 19.653 1.327 0.29
35.452 19.687 1.323 0.29
35.257 19.724 1.319 0.29
35.054 19.755 1.314 0.29
34.894 19.738 1.31 0.29
34.687 19.765 1.306 0.29
34.5 19.802 1.302 0.31
34.311 19.838 1.298 0.3
34.121 19.871 1.294 0.31
33.929 19.902 1.289 0.28
33.739 19.934 1.285 0.33
33.54 19.959 1.281 0.3
33.403 19.948 1.278 0.34
33.209 19.975 1.273 0.29
33.039 20.014 1.27 0.33
32.844 20.037 1.266 0.3
32.67 20.073 1.262 0.33
32.493 20.105 1.259 0.32
32.301 20.126 1.254 0.29
32.167 20.114 1.251 0.34
31.981 20.137 1.247 0.29
31.812 20.171 1.244 0.33
31.636 20.199 1.24 0.3
31.465 20.229 1.236 0.32
31.293 20.258 1.233 0.32
31.122 20.287 1.229 0.31
30.995 20.273 1.226 0.31
30.829 20.303 1.223 0.32
30.66 20.331 1.219 0.32
30.497 20.36 1.216 0.33
30.341 20.395 1.213 0.33
30.179 20.424 1.21 0.32
30.017 20.452 1.207 0.34
29.878 20.426 1.203 0.31
29.728 20.461 1.2 0.36
29.571 20.491 1.197 0.35
29.413 20.518 1.194 0.35
29.247 20.54 1.191 0.29
29.093 20.568 1.188 0.37
28.932 20.591 1.184 0.3
28.799 20.564 1.181 0.32
28.659 20.601 1.178 0.33
28.512 20.631 1.176 0.36
28.358 20.656 1.173 0.32
28.206 20.681 1.17 0.32
28.052 20.705 1.167 0.33
27.903 20.731 1.164 0.34
27.794 20.717 1.161 0.32
27.644 20.741 1.158 0.32
27.503 20.771 1.156 0.38
27.353 20.793 1.153 0.31
27.209 20.818 1.15 0.33
27.069 20.847 1.147 0.33
26.922 20.869 1.145 0.38
26.807 20.848 1.142 0.31
26.665 20.871 1.139 0.29
16.773 13.226 0.796 0.31
16.658 13.221 0.793 0.45
16.575 13.24 0.792 0.3
16.518 13.28 0.791 0.44
16.475 13.33 0.791 0.32
16.475 13.416 0.792 0.51
25.729 21.001 1.121 0.28
25.587 21.02 1.119 0.35
25.456 21.046 1.116 0.35
25.332 21.078 1.114 0.36
25.192 21.096 1.111 0.35
25.063 21.122 1.109 0.36
24.927 21.142 1.107 0.36
24.82 21.118 1.104 0.36
24.688 21.14 1.102 0.32
24.559 21.164 1.099 0.38
24.512 21.258 1.1 0.36
24.519 21.399 1.103 0.3
24.54 21.554 1.106 0.25
24.473 21.631 1.106 0.45
24.585 21.799 1.111 0.3
24.626 21.974 1.116 0.37
24.635 22.122 1.118 0.34
24.649 22.274 1.121 0.29
24.681 22.444 1.125 0.36
24.68 22.585 1.128 0.28
24.709 22.754 1.132 0.35
24.764 22.877 1.135 0.34
24.765 23.023 1.138 0.29
24.799 23.2 1.142 0.35
24.814 23.36 1.145 0.3
24.839 23.531 1.149 0.43
24.829 23.67 1.151 0.27
23.29 22.345 1.096 0.29
23.336 22.46 1.099 0.19
23.349 22.613 1.102 0.18
23.366 22.773 1.105 0.12
23.388 22.937 1.109 0.18
23.397 23.091 1.112 0.12
23.413 23.253 1.115 0.16
23.442 23.428 1.119 0.29
23.494 23.554 1.123 0.19
23.506 23.714 1.126 0.16
23.521 23.879 1.13 0.13
23.54 24.048 1.133 0.18
23.556 24.216 1.137 0.12
23.58 24.394 1.141 0.16
23.602 24.57 1.145 0.28
23.663 24.711 1.149 0.26
23.676 24.881 1.152 0.18
23.693 25.055 1.156 0.18
23.754 25.278 1.162 0.16
23.83 25.519 1.168 0.16
23.852 25.703 1.172 0.16
23.871 25.887 1.176 0.16
23.887 26.068 1.18 0.16
23.945 26.213 1.184 0.18
23.96 26.396 1.188 0.23
20.744 23.003 1.06 0.13
20.63 23.022 1.058 0.15
20.603 23.137 1.06 0.14
18.711 21.149 0.985 0.28
18.593 21.149 0.982 0.0
24.138 27.532 1.215 0.1
20.27 23.273 1.057 0.18
18.15 20.976 0.971 0.41
18.367 21.361 0.983 0.18
18.205 21.308 0.979 0.37
18.16 21.391 0.98 0.29
18.091 21.446 0.98 0.18
18.175 21.614 0.985 0.58
18.547 22.197 1.003 0.22
18.278 22.015 0.995 0.27
18.103 21.945 0.99 0.35
18.065 22.04 0.992 0.2
17.039 20.924 0.95 0.29
16.982 20.988 0.95 0.31
17.719 22.038 0.986 0.2
16.675 20.809 0.941 0.4
16.564 20.804 0.939 0.37
16.513 20.875 0.94 0.21
16.664 21.201 0.95 0.43
16.634 21.301 0.951 0.21
17.0 21.91 0.971 0.4
16.971 22.014 0.972 0.14
16.804 21.869 0.966 0.5
16.734 21.921 0.966 0.21
16.494 21.747 0.959 0.25
16.465 21.851 0.96 0.3
13.162 17.591 0.812 0.27
13.103 17.628 0.812 0.34
13.042 17.603 0.811 0.17
11.996 16.301 0.765 0.52
12.742 17.427 0.802 0.2
11.681 16.085 0.755 0.41
12.034 16.679 0.774 0.28
11.719 16.351 0.761 0.31
11.68 16.406 0.762 0.36
11.583 16.379 0.76 0.28
11.511 16.332 0.758 0.4
11.45 16.353 0.757 0.39
11.434 16.44 0.759 0.39
11.353 16.435 0.757 0.45
11.311 16.483 0.758 0.36
11.269 16.534 0.758 0.29
11.034 16.299 0.749 0.49
11.047 16.373 0.751 0.16
10.994 16.406 0.751 0.26
10.855 16.309 0.747 0.47
10.8 16.338 0.747 0.29
10.807 16.46 0.75 0.24
10.674 16.37 0.746 0.42
10.724 16.56 0.751 0.37
10.788 16.773 0.757 0.34
10.923 17.041 0.765 0.28
10.482 16.468 0.745 0.32
10.444 16.523 0.746 0.36
10.39 16.552 0.746 0.26
10.284 16.499 0.743 0.5
10.47 16.915 0.755 0.3
10.47 17.034 0.758 0.41
10.564 17.247 0.764 0.22
10.244 16.844 0.75 0.32
10.187 16.87 0.75 0.35
10.257 17.105 0.757 0.43
10.2 17.132 0.757 0.28
10.098 17.084 0.754 0.41
10.074 17.165 0.756 0.38
10.138 17.336 0.76 0.36
10.029 17.275 0.757 0.43
9.991 17.334 0.758 0.29
10.022 17.514 0.763 0.39
10.086 17.756 0.77 0.26
10.182 18.055 0.778 0.28
10.019 17.897 0.772 0.3
9.91 17.768 0.768 0.39
9.97 18.009 0.774 0.33
9.907 18.028 0.774 0.41
10.085 18.489 0.787 0.27
10.223 18.88 0.799 0.18
9.753 18.15 0.775 0.33
9.989 18.729 0.792 0.36
10.048 18.983 0.799 0.37
10.012 18.986 0.798 0.29
10.054 19.213 0.804 0.25
9.963 19.185 0.803 0.39
10.345 20.071 0.829 0.13
9.64 18.853 0.79 0.39
9.699 19.115 0.798 0.27
9.655 19.177 0.799 0.36
9.631 19.205 0.799 0.26
9.55 19.194 0.798 0.42
9.482 19.208 0.797 0.2
9.394 19.182 0.796 0.27
9.25 19.04 0.79 0.37
9.233 19.157 0.793 0.23
9.488 19.843 0.813 0.58
9.373 19.682 0.808 0.17
9.237 19.556 0.803 0.25
9.146 19.522 0.801 0.31
9.04 19.455 0.798 0.36
9.017 19.566 0.801 0.39
8.94 19.56 0.8 0.27
8.922 19.685 0.802 0.33
9.71 21.507 0.857 0.18
9.635 21.519 0.856 0.17
8.781 19.783 0.803 0.34
9.666 21.958 0.868 0.4
9.504 21.774 0.861 0.16
9.456 21.851 0.863 0.44
13.455 31.335 1.146 0.0
13.314 31.276 1.143 0.0
16.191 38.188 1.348 0.12
16.163 38.456 1.355 0.12
15.186 36.455 1.294 0.16
15.003 36.338 1.289 0.12
12.971 31.707 1.15 0.09
13.513 33.327 1.197 0.16
12.774 31.793 1.15 0.27
12.526 31.606 1.143 0.48
12.437 31.671 1.144 0.22
12.278 31.559 1.139 0.28
12.208 31.674 1.141 0.14
12.157 31.839 1.145 0.45
11.962 31.627 1.138 0.16
11.913 31.646 1.138 0.4
11.938 32.016 1.148 0.16
11.859 32.114 1.149 0.0
16.059 43.883 1.493 0.12
11.638 32.135 1.148 0.21
11.509 32.092 1.145 0.25
11.401 32.108 1.145 0.39
11.32 32.202 1.147 0.0
15.507 44.305 1.498 0.05
11.25 32.491 1.153 0.16
11.149 32.528 1.153 0.2
11.062 32.608 1.155 0.17
11.415 33.996 1.194 0.16
10.911 32.84 1.16 0.0
10.821 32.914 1.161 0.12
10.769 32.929 1.161 0.1
12.293 37.98 1.306 0.15
11.003 34.373 1.2 0.0
11.237 35.482 1.231 0.12
10.455 33.384 1.17 0.11
10.408 33.602 1.175 0.14
10.252 33.47 1.17 0.18
10.158 33.351 1.167 0.27
9.195 30.54 1.085 0.2
9.077 30.494 1.083 0.0
10.437 35.458 1.224 0.0
10.521 36.161 1.243 0.11
8.761 30.482 1.08 0.18
8.668 30.519 1.08 0.16
10.117 36.033 1.237 0.11
10.197 36.54 1.251 0.26
9.593 34.801 1.201 0.23
9.575 35.164 1.21 0.2
9.569 35.582 1.221 0.16
8.957 33.736 1.168 0.17
8.86 33.797 1.169 0.0
8.669 33.5 1.159 0.13
8.615 33.506 1.159 0.25
8.522 33.581 1.161 0.16
8.37 33.421 1.155 0.48
8.158 33.017 1.143 0.25
8.06 33.067 1.144 0.27
9.299 38.659 1.301 0.0
8.679 36.591 1.242 0.07
8.86 37.881 1.278 0.14
7.629 32.868 1.136 0.31
8.652 37.796 1.274 0.24
8.532 37.817 1.274 0.19
8.113 36.499 1.236 0.18
8.221 37.538 1.265 0.35
8.372 38.807 1.299 0.11
8.048 37.594 1.265 0.16
7.891 37.433 1.26 0.21
7.758 37.388 1.258 0.19
7.647 37.439 1.259 0.4
7.418 36.914 1.243 0.14
7.295 36.902 1.242 0.4
7.262 37.347 1.254 0.2
7.209 37.391 1.255 0.0
8.571 45.189 1.472 0.0
11.06 59.283 1.866 0.0
7.627 42.4 1.392 0.0
8.817 49.884 1.601 0.0
8.508 49.037 1.576 0.0
8.336 48.961 1.573 0.0
8.284 49.124 1.578 0.0
8.202 49.582 1.59 0.14
8.098 49.927 1.598 0.11
7.949 50.003 1.6 0.0
7.693 49.394 1.582 0.07
7.541 49.438 1.583 0.09
7.434 49.783 1.592 0.08
7.323 49.578 1.586 0.0
7.243 50.123 1.6 0.0
8.106 57.338 1.8 0.0
8.002 57.91 1.815 0.0
7.862 58.246 1.824 0.0
7.645 58.017 1.817 0.0
7.439 57.858 1.812 0.0
7.265 57.939 1.813 0.0
7.158 57.825 1.81 0.0
6.957 57.685 1.805 0.0
6.674 56.84 1.781 0.0
6.532 57.183 1.79 0.0
6.336 57.054 1.786 0.0
6.205 57.527 1.799 0.0
6.055 57.832 1.806 0.0
6.827 66.18 2.037 0.0
6.575 65.762 2.025 0.0
6.379 65.887 2.028 0.0
6.193 66.134 2.034 0.0
6.099 67.406 2.068 0.0
5.735 65.682 2.02 0.0
5.758 68.421 2.095 0.0
5.436 65.845 2.024 0.0
5.319 66.98 2.055 0.0
5.027 65.93 2.026 0.0
4.807 65.782 2.021 0.0
4.594 65.705 2.018 0.0
4.4 65.903 2.024 0.0
4.155 65.324 2.007 0.0
3.984 65.895 2.023 0.0
3.888 66.027 2.026 0.0
3.864 69.315 2.116 0.0
3.629 68.989 2.107 0.0
3.393 68.621 2.096 0.0
3.21 69.334 2.116 0.0
3.0 69.517 2.121 0.0
2.679 69.713 2.126 0.0
2.467 69.917 2.131 0.0
2.235 69.542 2.12 0.07
0.314 14.728 0.613 0.7
0.265 14.579 0.609 0.89
0.24 14.479 0.607 0.84
0.192 14.298 0.602 0.8
0.146 14.2 0.599 0.64
0.102 14.337 0.603 0.29
0.057 14.341 0.603 0.23
0.012 14.323 0.602 0.5
-0.033 14.319 0.602 0.44
-0.078 14.353 0.603 0.47
-0.101 14.375 0.604 0.34
-0.232 17.98 0.703 0.38
-0.289 17.971 0.703 0.46
-0.345 17.974 0.703 0.36
-0.402 17.979 0.703 0.46
-0.458 17.972 0.703 0.37
-0.487 17.975 0.703 0.38
-0.543 17.965 0.703 0.39
-0.599 17.968 0.703 0.46
-0.656 17.982 0.703 0.3
-0.713 17.976 0.703 0.52
-0.68 15.824 0.644 0.36
-0.729 15.808 0.643 0.38
-0.754 15.804 0.643 0.42
-0.91 17.957 0.703 0.18
-0.967 17.974 0.703 0.39
-1.024 17.973 0.703 0.39
-1.08 17.971 0.703 0.39
-1.137 17.974 0.703 0.39
-1.194 17.978 0.704 0.39
-1.223 17.978 0.704 0.39
-1.279 17.976 0.704 0.39
-1.336 17.974 0.704 0.38
-1.393 17.98 0.704 0.39
-1.45 17.979 0.704 0.4
-1.506 17.975 0.704 0.39
-1.563 17.976 0.704 0.4
-1.62 17.975 0.705 0.39
-1.649 17.98 0.705 0.39
-1.705 17.975 0.705 0.39
-1.762 17.973 0.705 0.4
-1.82 17.978 0.705 0.4
-1.877 17.982 0.705 0.39
-1.934 17.976 0.705 0.4
-1.991 17.98 0.706 0.4
-2.02 17.982 0.706 0.39
-2.077 17.976 0.706 0.4
-2.134 17.977 0.706 0.41
-2.192 17.983 0.706 0.4
-2.249 17.978 0.706 0.39
-2.306 17.978 0.707 0.39
-2.364 17.981 0.707 0.4
-2.393 17.983 0.707 0.39
-2.449 17.975 0.707 0.39
-2.508 17.984 0.708 0.38
-2.565 17.978 0.708 0.39
-2.623 17.983 0.708 0.39
-2.68 17.979 0.708 0.4
-2.74 17.988 0.709 0.39
-2.797 17.985 0.709 0.4
-2.826 17.987 0.709 0.39
-2.885 17.996 0.709 0.4
-2.941 17.981 0.709 0.39
-2.999 17.983 0.71 0.41
-3.059 17.991 0.71 0.4
-3.116 17.984 0.71 0.39
-3.174 17.984 0.71 0.38
-3.204 17.99 0.711 0.4
-3.261 17.982 0.711 0.39
-3.319 17.98 0.711 0.4
-3.38 17.995 0.712 0.38
-3.437 17.984 0.712 0.38
-3.495 17.983 0.712 0.39
-3.555 17.988 0.712 0.39
-3.612 17.982 0.713 0.4
-3.642 17.984 0.713 0.4
-3.703 17.994 0.713 0.39
-3.76 17.985 0.713 0.39
-3.819 17.984 0.714 0.41
-3.877 17.978 0.714 0.57
-3.906 17.841 0.71 0.21
-3.993 17.971 0.714 0.28
-4.023 17.973 0.715 0.58
-3.89 17.117 0.691 0.21
-4.023 17.452 0.701 0.2
-4.048 17.311 0.697 0.2
-4.052 17.086 0.691 0.39
-4.052 16.847 0.685 0.24
-4.058 16.64 0.679 0.23
-4.035 16.434 0.674 0.28
-4.038 16.225 0.668 0.3
-4.042 16.024 0.663 0.25
-4.043 15.818 0.657 0.25
-4.043 15.609 0.652 0.21
-4.055 15.455 0.648 0.34
-4.103 15.443 0.648 0.39
-4.152 15.431 0.648 0.37
-4.183 15.448 0.648 0.38
-4.231 15.435 0.648 0.41
-4.285 15.439 0.649 0.41
-4.329 15.412 0.649 0.29
-4.388 15.435 0.65 0.3
-4.442 15.438 0.65 0.45
-4.509 15.491 0.652 0.0
-4.335 14.801 0.632 0.0
-4.145 13.986 0.609 0.0
-4.198 14.001 0.61 0.0
-4.237 13.973 0.61 0.0
-4.291 13.994 0.611 0.0
-4.339 13.992 0.611 0.0
-4.384 13.982 0.611 0.0
-4.413 13.998 0.612 0.0
-4.455 13.978 0.612 0.0
-4.518 14.021 0.613 0.0
-4.558 13.997 0.613 0.0
-4.6 13.975 0.613 0.0
-4.66 14.01 0.614 0.0
-4.701 13.986 0.614 0.0
-4.735 14.015 0.615 0.0
-4.788 14.026 0.616 0.0
-4.825 13.99 0.615 0.0
-4.892 14.043 0.617 0.0
-4.929 14.005 0.617 0.0
-4.975 13.997 0.617 0.0
-5.033 14.019 0.618 0.0
-5.07 13.984 0.617 0.0
-5.114 14.036 0.619 0.0
-5.156 14.015 0.619 0.0
-5.202 14.004 0.619 0.0
-5.271 14.055 0.621 0.0
-5.313 14.033 0.621 0.0
-5.351 14.001 0.62 0.0
-5.41 14.021 0.622 0.0
-5.432 14.015 0.622 0.0
-5.476 13.998 0.622 0.0
-5.538 14.027 0.623 0.0
-5.587 14.021 0.623 0.0
-5.641 14.029 0.624 0.07
-5.711 14.074 0.626 0.0
-5.747 14.038 0.625 0.0
-5.777 14.047 0.626 0.1
-5.843 14.081 0.628 0.0
-5.878 14.04 0.627 0.0
-5.945 14.077 0.629 0.0
-5.994 14.069 0.629 0.0
-6.042 14.059 0.629 0.0
-6.095 14.061 0.63 0.0
-6.153 14.074 0.631 0.0
-6.187 14.09 0.631 0.0
-6.236 14.084 0.632 0.0
-6.313 14.137 0.634 0.0
-6.359 14.121 0.634 0.0
-6.4 14.093 0.634 0.0
-6.476 14.142 0.636 0.0
-6.522 14.126 0.636 0.0
-6.54 14.106 0.636 0.0
-6.603 14.126 0.637 0.0
-8.601 17.975 0.756 0.43
-8.671 17.975 0.757 0.41
-8.743 17.98 0.758 0.41
-8.808 17.97 0.759 0.35
-8.848 17.98 0.759 0.42
-8.92 17.984 0.76 0.42
-8.988 17.979 0.761 0.41
-9.058 17.978 0.762 0.41
-9.127 17.974 0.763 0.35
-9.197 17.972 0.763 0.42
-9.267 17.97 0.764 0.41
-9.311 17.985 0.765 0.41
-9.383 17.986 0.766 0.41
-9.454 17.983 0.767 0.41
-9.525 17.982 0.768 0.42
-9.594 17.975 0.768 0.41
-9.664 17.971 0.769 0.41
-9.74 17.976 0.77 0.41
-9.781 17.985 0.771 0.41
-9.854 17.984 0.772 0.41
-9.929 17.986 0.773 0.4
-9.998 17.978 0.774 0.4
-10.069 17.972 0.775 0.4
-10.144 17.974 0.776 0.41
-10.215 17.968 0.777 0.41
-10.291 17.97 0.778 0.4
-10.341 17.991 0.779 0.41
-10.412 17.984 0.78 0.41
-10.485 17.979 0.781 0.41
-10.557 17.973 0.781 0.39
-10.633 17.973 0.782 0.41
-10.706 17.967 0.783 0.4
-10.779 17.962 0.784 0.39
-10.832 17.986 0.786 0.32
-10.899 17.969 0.786 0.46
-10.982 17.978 0.787 0.27
-11.059 17.977 0.789 0.44
-11.135 17.975 0.79 0.34
-11.211 17.97 0.791 0.45
-11.294 17.977 0.792 0.35
-11.336 17.982 0.793 0.55
-11.422 17.993 0.794 0.33
-11.491 17.977 0.795 0.45
-11.579 17.99 0.796 0.34
-11.653 17.98 0.797 0.45
-11.732 17.979 0.799 0.43
-11.813 17.979 0.8 0.44
-11.865 17.997 0.801 0.44
-11.942 17.99 0.802 0.43
-12.022 17.989 0.803 0.43
-12.103 17.987 0.804 0.44
-12.183 17.984 0.806 0.43
-12.265 17.982 0.807 0.35
-12.346 17.98 0.808 0.64
-10.865 15.71 0.733 0.31
-10.869 15.664 0.732 0.38
-10.925 15.639 0.733 0.38
-10.992 15.631 0.734 0.24
-12.729 17.988 0.814 0.32
-12.808 17.979 0.815 0.52
-12.894 17.981 0.817 0.32
-12.972 17.969 0.818 0.52
-13.031 17.993 0.819 0.32
-13.109 17.981 0.82 0.52
-13.202 17.989 0.822 0.32
-13.281 17.978 0.823 0.51
-13.372 17.983 0.824 0.33
-13.449 17.968 0.825 0.5
-13.545 17.979 0.827 0.31
-13.595 17.986 0.828 0.48
-13.689 17.993 0.83 0.32
-13.767 17.978 0.831 0.48
-13.861 17.984 0.833 0.33
-13.943 17.974 0.834 0.5
-14.038 17.979 0.835 0.31
-14.12 17.967 0.837 0.5
-14.22 17.978 0.838 0.31
-14.267 17.979 0.839 0.48
-14.362 17.983 0.841 0.32
-14.452 17.98 0.842 0.48
-14.546 17.981 0.844 0.3
-14.633 17.972 0.845 0.48
-14.728 17.974 0.847 0.37
-14.813 17.962 0.848 0.47
-14.883 17.989 0.85 0.33
-14.975 17.986 0.852 0.62
-14.979 17.875 0.849 0.18
-15.139 17.952 0.854 0.3
-15.21 17.921 0.855 0.41
-15.209 17.807 0.852 0.38
-15.21 17.695 0.85 0.36
-15.215 17.588 0.848 0.35
-15.187 17.501 0.845 0.34
-15.196 17.4 0.843 0.35
-15.199 17.294 0.841 0.34
-15.199 17.184 0.839 0.31
-15.212 17.09 0.837 0.54
-15.181 16.947 0.834 0.33
-15.051 16.695 0.826 0.14
-15.185 16.792 0.831 0.37
-15.192 16.694 0.829 0.38
-15.195 16.592 0.827 0.37
-15.191 16.483 0.825 0.37
-15.198 16.387 0.823 0.31
-15.201 16.287 0.821 0.36
-15.201 16.185 0.819 0.35
-15.18 16.111 0.817 0.39
-15.186 16.017 0.815 0.33
-15.19 15.92 0.813 0.38
-15.196 15.826 0.811 0.41
-15.195 15.726 0.81 0.38
-15.196 15.628 0.808 0.33
-15.204 15.539 0.806 0.36
-15.178 15.464 0.804 0.39
-15.237 15.426 0.804 0.36
-15.332 15.425 0.806 0.28
-15.432 15.429 0.808 0.58
-15.513 15.413 0.81 0.23
-15.584 15.387 0.81 0.45
-15.796 15.402 0.815 0.46
-15.878 15.433 0.817 0.0
-15.533 15.002 0.802 0.0
-15.57 14.943 0.802 0.0
-15.638 14.915 0.802 0.0
-15.782 14.958 0.806 0.0
-15.945 15.018 0.811 0.0
-16.004 14.979 0.811 0.0
-16.196 15.111 0.817 0.0
-16.091 14.918 0.812 0.0
-16.198 14.923 0.814 0.0
-16.312 14.934 0.816 0.0
-16.622 15.123 0.826 0.0
-16.773 15.164 0.83 0.0
-16.885 15.169 0.832 0.0
-16.952 15.181 0.834 0.0
-16.862 15.006 0.829 0.0
-16.975 15.011 0.831 0.0
-17.181 15.098 0.837 0.0
-17.334 15.136 0.841 0.0
-17.41 15.106 0.842 0.0
-17.53 15.114 0.845 0.0
-17.667 15.136 0.848 0.0
-21.3 17.967 0.974 0.41
-21.433 17.965 0.977 0.4
-21.56 17.956 0.98 0.4
-21.701 17.958 0.983 0.35
-21.83 17.95 0.985 0.4
-21.932 17.977 0.988 0.34
-22.061 17.967 0.99 0.4
-22.193 17.959 0.993 0.39
-22.332 17.956 0.996 0.36
-22.471 17.952 0.999 0.36
-22.611 17.947 1.002 0.36
-22.748 17.94 1.005 0.39
-22.863 17.973 1.008 0.38
-23.004 17.967 1.011 0.35
-23.149 17.964 1.014 0.39
-23.294 17.959 1.017 0.37
-23.434 17.951 1.02 0.38
-23.581 17.946 1.023 0.37
-23.73 17.942 1.026 0.36
-23.887 17.943 1.03 0.36
-24.001 17.97 1.032 0.36
-24.152 17.965 1.036 0.36
-24.3 17.957 1.039 0.36
-24.456 17.954 1.042 0.35
-24.614 17.951 1.046 0.35
-24.766 17.943 1.049 0.35
-24.924 17.939 1.052 0.35
-25.047 17.967 1.056 0.32
-25.215 17.969 1.059 0.52
-22.015 15.58 0.95 0.21
-22.044 15.497 0.949 0.31
-21.914 15.303 0.943 0.3
-22.011 15.268 0.945 0.36
-22.217 15.308 0.95 0.25
-22.223 15.26 0.949 0.3
-26.24 17.904 1.081 0.29
-26.394 17.887 1.085 0.26
-26.427 17.789 1.084 0.3
-26.426 17.668 1.082 0.3
-26.438 17.556 1.081 0.3
-26.435 17.434 1.079 0.3
-26.417 17.363 1.077 0.29
-26.396 17.231 1.075 0.28
-26.407 17.119 1.073 0.29
-26.415 17.007 1.072 0.32
-26.415 16.89 1.07 0.29
-26.43 16.783 1.069 0.32
-26.42 16.66 1.067 0.28
-26.415 16.541 1.065 0.29
-26.399 16.473 1.064 0.29
-26.336 16.319 1.06 0.38
-26.331 16.202 1.058 0.17
-26.406 16.134 1.059 0.3
-26.416 16.026 1.058 0.29
-26.42 15.915 1.056 0.3
-26.408 15.795 1.054 0.3
-26.391 15.729 1.053 0.3
-26.392 15.617 1.051 0.3
-26.398 15.509 1.05 0.34
-26.419 15.41 1.049 0.29
-26.585 15.395 1.053 0.19
-26.782 15.397 1.057 0.39
-26.957 15.385 1.062 0.2
-27.131 15.428 1.066 0.38
-27.322 15.423 1.071 0.2
-27.515 15.419 1.075 0.37
-27.696 15.406 1.079 0.19
-27.898 15.404 1.084 0.36
-28.094 15.397 1.089 0.18
-28.293 15.391 1.094 0.36
-28.477 15.434 1.099 0.19
-28.678 15.427 1.103 0.23
-28.875 15.416 1.108 0.2
-29.087 15.412 1.113 0.16
-35.049 18.436 1.297 0.3
-35.044 18.293 1.295 0.31
-35.055 18.159 1.293 0.36
-35.023 18.073 1.292 0.3
-35.03 17.937 1.29 0.37
-35.029 17.798 1.288 0.31
-35.028 17.659 1.287 0.33
-35.03 17.522 1.285 0.32
-35.033 17.386 1.283 0.32
-35.032 17.249 1.282 0.38
-35.041 17.116 1.28 0.3
-35.035 17.046 1.279 0.41
-35.132 16.956 1.281 0.31
-35.807 17.144 1.299 0.21
-36.194 17.19 1.31 0.26
-36.458 17.176 1.316 0.2
-36.745 17.17 1.323 0.5
-32.449 15.035 1.191 0.13
-32.413 14.957 1.19 0.16
-32.559 14.901 1.193 0.11
-37.886 17.199 1.352 0.32
-38.191 17.193 1.359 0.12
-38.566 17.217 1.369 0.09
-38.885 17.213 1.377 0.13
-39.089 17.157 1.382 0.3
-39.399 17.146 1.389 0.27
-39.661 17.186 1.396 0.38
-39.972 17.172 1.404 0.14
-40.218 17.128 1.41 0.0
-41.331 17.45 1.441 0.07
-41.333 17.145 1.438 0.0
-41.746 17.24 1.45 0.0
-42.384 17.348 1.467 0.09
-42.433 17.213 1.467 0.14
-42.72 17.174 1.474 0.44
-43.082 17.162 1.483 0.25
-43.45 17.151 1.492 0.22
-43.714 17.097 1.498 0.31
-43.682 17.005 1.497 0.3
-43.683 16.847 1.495 0.3
-43.69 16.693 1.494 0.3
-43.692 16.536 1.492 0.3
-43.686 16.377 1.491 0.34
-43.698 16.225 1.489 0.25
-43.696 16.069 1.488 0.27
-39.689 14.451 1.369 0.16
-39.725 14.394 1.37 0.26
-39.958 14.337 1.375 0.0
-44.473 15.802 1.505 0.0
-44.931 15.806 1.517 0.0
-45.451 15.829 1.531 0.0
-45.982 15.852 1.545 0.0
-46.544 15.883 1.56 0.09
-50.588 17.177 1.677 0.19
-50.939 17.118 1.685 0.22
-51.556 17.145 1.702 0.0
-52.001 17.112 1.713 0.0
-52.849 17.208 1.736 0.05
-53.062 17.093 1.74 0.0
-54.06 17.228 1.768 0.11
-54.204 17.086 1.77 0.29
-54.705 17.15 1.784 0.0
-55.17 17.106 1.796 0.0
-51.236 15.708 1.681 0.0
-55.37 16.787 1.798 0.0
-55.395 16.605 1.798 0.0
-50.144 14.857 1.646 0.12
-55.353 16.214 1.794 0.0
-55.424 16.141 1.795 0.0
-50.674 14.582 1.658 0.0
-50.802 14.447 1.66 0.0
-50.776 14.267 1.658 0.0
-50.725 14.081 1.655 0.0
-50.738 13.913 1.654 0.0
-50.924 13.792 1.658 0.0
-50.876 13.693 1.656 0.0
-50.888 13.525 1.655 0.0
-50.735 13.314 1.65 0.0
-51.123 13.244 1.66 0.0
-66.588 17.036 2.097 0.0
-50.426 12.726 1.638 0.0
-50.545 12.587 1.64 0.0
-50.654 12.53 1.642 0.0
-50.92 12.426 1.649 0.0
-50.833 12.236 1.645 0.0
-51.61 12.252 1.666 0.0
-51.101 11.961 1.651 0.0
-51.394 11.86 1.658 0.0
-51.673 11.753 1.665 0.0
-51.839 11.706 1.669 0.0
-62.456 13.902 1.967 0.0
-64.359 13.903 2.018 0.0
-61.958 13.18 1.949 0.0
-61.628 12.907 1.939 0.0
-62.032 12.789 1.949 0.0
-60.103 12.193 1.894 0.07
-60.053 12.085 1.892 0.13
-60.071 11.892 1.891 0.0
-60.222 11.726 1.894 0.0
-60.628 11.607 1.905 0.0
-61.077 11.495 1.916 0.0
-62.325 11.528 1.95 0.0
-62.072 11.279 1.942 0.0
-63.477 11.432 1.981 0.0
-63.302 11.195 1.975 0.0
-62.89 10.918 1.963 0.0
-62.125 10.584 1.94 0.0
-62.212 10.398 1.942 0.0
-67.588 11.081 2.091 0.0
-67.852 10.905 2.097 0.0
-68.303 10.868 2.109 0.0
-68.341 10.654 2.109 0.0
-68.113 10.399 2.102 0.0
-68.193 10.192 2.103 0.0
-68.529 10.023 2.112 0.0
-68.857 9.85 2.12 0.0
-69.444 9.712 2.135 0.0
-76.569 10.466 2.332 0.0
-76.629 10.351 2.333 0.0
-77.054 10.162 2.344 0.0
-76.459 9.839 2.327 0.0
-76.247 9.569 2.32 0.0
-76.676 9.378 2.331 0.0
-77.45 8.856 2.351 0.0
-77.561 8.622 2.353 0.0
-77.274 8.344 2.344 0.0
-77.324 8.104 2.345 0.0
-77.532 7.88 2.35 0.0
-78.587 7.738 2.378 0.0
-78.706 7.5 2.381 0.0
-56.688 -10.5 1.793 0.0
-56.634 -10.674 1.792 0.0
-56.555 -10.843 1.791 0.05
-56.412 -10.908 1.787 0.0
-51.563 -10.14 1.653 0.06
-51.537 -10.304 1.653 0.16
-51.361 -10.436 1.649 0.0
-51.774 -10.69 1.661 0.0
-51.294 -10.759 1.649 0.09
-50.85 -10.833 1.637 0.1
-50.522 -10.846 1.628 0.14
-50.306 -10.965 1.623 0.28
-50.279 -11.125 1.624 0.0
-50.15 -11.262 1.621 0.07
-50.132 -11.423 1.621 0.16
-50.189 -11.602 1.624 0.1
-50.085 -11.744 1.622 0.0
-50.053 -11.903 1.622 0.0
-54.162 -13.148 1.74 0.12
-49.339 -12.143 1.605 0.1
-49.335 -12.307 1.606 0.0
-49.308 -12.465 1.606 0.13
-49.342 -12.639 1.608 0.1
-49.366 -12.81 1.61 0.0
-55.713 -14.547 1.791 0.0
-55.655 -14.719 1.79 0.0
-66.827 -18.909 2.117 0.0
-66.826 -19.136 2.119 0.0
-66.453 -19.255 2.11 0.0
-66.346 -19.45 2.108 0.0
-70.544 -20.92 2.23 0.0
-58.606 -17.585 1.89 0.0
-70.875 -21.625 2.245 0.0
-70.079 -21.623 2.224 0.0
-32.123 -10.259 1.135 0.27
-31.847 -10.282 1.128 0.28
-31.764 -10.365 1.127 0.28
-31.783 -10.427 1.128 0.23
-31.566 -10.465 1.122 0.29
-31.433 -10.531 1.12 0.25
-31.227 -10.571 1.115 0.14
-31.205 -10.673 1.115 0.51
-29.873 -10.324 1.077 0.22
-29.82 -10.41 1.077 0.29
-30.918 -10.902 1.109 0.27
-29.193 -10.347 1.06 0.21
-29.837 -10.68 1.079 0.23
-29.884 -10.803 1.082 0.35
-29.925 -10.924 1.084 0.13
-29.74 -10.963 1.08 0.5
-30.103 -11.204 1.091 0.21
-30.051 -11.292 1.091 0.27
-30.097 -11.363 1.093 0.32
-29.923 -11.405 1.089 0.24
-27.499 -10.583 1.018 0.19
-27.436 -10.657 1.017 0.33
-27.375 -10.733 1.017 0.28
-27.028 -10.695 1.007 0.34
-27.21 -10.866 1.014 0.28
-23.005 -9.233 0.89 0.4
-26.958 -10.913 1.008 0.3
-23.062 -9.424 0.893 0.24
-22.988 -9.478 0.892 0.27
-22.997 -9.567 0.893 0.3
-23.582 -9.897 0.911 0.2
-23.43 -9.919 0.908 0.19
-23.252 -9.887 0.903 0.28
-23.195 -9.949 0.902 0.34
-23.134 -10.01 0.901 0.33
-23.026 -10.049 0.899 0.36
-23.109 -10.172 0.902 0.09
-41.978 -18.611 1.47 0.11
-23.556 -10.545 0.918 0.18
-23.547 -10.629 0.919 0.42
-23.484 -10.646 0.917 0.0
-45.462 -20.754 1.582 0.0
-45.47 -20.93 1.584 0.0
-58.881 -27.32 1.992 0.0
-45.053 -21.083 1.575 0.0
-63.086 -29.752 2.125 0.0
-59.44 -28.263 2.017 0.0
-59.387 -28.352 2.017 0.0
-39.49 -19.015 1.413 0.0
-48.928 -23.742 1.703 0.0
-48.97 -23.953 1.707 0.05
-43.519 -21.459 1.542 0.08
-43.435 -21.588 1.541 0.14
-43.321 -21.701 1.54 0.1
-43.602 -22.014 1.551 0.16
-43.578 -22.087 1.551 0.0
-43.329 -22.133 1.546 0.11
-31.534 -16.241 1.183 0.25
-31.293 -16.242 1.177 0.19
-31.2 -16.318 1.176 0.22
-30.989 -16.332 1.171 0.0
-30.936 -16.428 1.171 0.11
-30.301 -16.153 1.152 0.16
-30.16 -16.2 1.149 0.25
-30.148 -16.315 1.151 0.18
-29.974 -16.343 1.147 0.27
-29.997 -16.478 1.149 0.34
-29.944 -16.572 1.149 0.23
-29.944 -16.695 1.151 0.23
-29.913 -16.739 1.15 0.29
-29.977 -16.898 1.154 0.1
-30.363 -17.242 1.168 0.16
-29.937 -17.125 1.156 0.25
-30.163 -17.38 1.165 0.12
-30.042 -17.436 1.163 0.0
-29.916 -17.552 1.162 0.24
-28.175 -16.652 1.108 0.0
-30.18 -17.962 1.174 0.0
-48.442 -29.02 1.76 0.0
-48.243 -29.107 1.757 0.0
-48.069 -29.208 1.754 0.0
-47.737 -29.212 1.746 0.0
-45.93 -28.207 1.69 0.0
-27.156 -16.925 1.088 0.0
-46.831 -29.371 1.728 0.0
-46.724 -29.508 1.727 0.0
-38.312 -24.54 1.459 0.13
-38.433 -24.702 1.464 0.09
-38.503 -24.918 1.469 0.0
-37.558 -24.475 1.44 0.0
-26.213 -17.209 1.07 0.15
-23.914 -15.81 0.996 0.24
-31.634 -21.047 1.253 0.11
-31.536 -21.125 1.252 0.14
-24.485 -16.52 1.02 0.24
-24.418 -16.531 1.019 0.27
-24.362 -16.605 1.019 0.3
-23.365 -16.034 0.987 0.19
-23.319 -16.111 0.987 0.39
-25.229 -17.663 1.055 0.19
-23.373 -16.475 0.994 0.15
-23.25 -16.444 0.991 0.22
-24.696 -17.581 1.042 0.14
-23.14 -16.585 0.991 0.14
-24.558 -17.716 1.041 0.46
-22.104 -16.161 0.961 0.19
-24.892 -18.316 1.058 0.16
-22.131 -16.341 0.965 0.26
-21.623 -16.072 0.949 0.18
-21.416 -16.023 0.944 0.38
-21.297 -16.038 0.941 0.33
-21.52 -16.313 0.951 0.34
-21.412 -16.337 0.949 0.17
-21.246 -16.316 0.945 0.3
-21.398 -16.486 0.951 0.0
-20.925 -16.333 0.938 0.0
-20.993 -16.599 0.944 0.13
-45.922 -36.506 1.821 0.0
-45.796 -36.641 1.82 0.0
-39.354 -32.002 1.602 0.31
-39.255 -32.126 1.602 0.26
-20.523 -16.92 0.939 0.19
-20.474 -16.988 0.94 0.29
-20.187 -16.858 0.931 0.39
-20.109 -16.846 0.929 0.26
-19.696 -16.607 0.917 0.29
-19.63 -16.657 0.916 0.3
-19.585 -16.725 0.916 0.28
-19.713 -16.941 0.923 0.19
-19.484 -16.851 0.916 0.19
-19.496 -16.969 0.919 0.16
-19.767 -17.313 0.931 0.37
-18.974 -16.779 0.905 0.35
-19.071 -16.971 0.91 0.14
-18.005 -16.126 0.873 0.32
-17.675 -15.932 0.862 0.22
-17.472 -15.849 0.857 0.39
-17.337 -15.826 0.854 0.25
-17.263 -15.808 0.852 0.3
-17.091 -15.75 0.847 0.32
-16.977 -15.744 0.845 0.27
-16.872 -15.745 0.843 0.45
-16.821 -15.797 0.843 0.31
-16.547 -15.639 0.834 0.33
-16.196 -15.404 0.823 0.3
-16.15 -15.409 0.822 0.39
-16.265 -15.616 0.828 0.31
-16.155 -15.609 0.826 0.35
-16.063 -15.618 0.824 0.34
-15.891 -15.548 0.82 0.31
-15.836 -15.592 0.819 0.45
-15.827 -15.681 0.821 0.35
-15.798 -15.702 0.821 0.37
-15.668 -15.671 0.818 0.4
-15.732 -15.833 0.822 0.48
-15.652 -15.853 0.821 0.26
-15.615 -15.915 0.821 0.33
-15.529 -15.927 0.82 0.36
-15.473 -15.97 0.82 0.39
-15.462 -16.008 0.82 0.39
-15.278 -15.918 0.815 0.39
-15.25 -15.989 0.816 0.36
-15.261 -16.101 0.818 0.41
-15.321 -16.267 0.823 0.43
-15.354 -16.404 0.826 0.0
-24.106 -26.059 1.184 0.2
-23.792 -25.802 1.173 0.2
-23.696 -25.86 1.172 0.37
-23.673 -25.998 1.175 0.27
-23.866 -26.376 1.186 0.2
-23.667 -26.322 1.181 0.0
-24.6 -27.531 1.223 0.0
-32.079 -36.117 1.536 0.0
-32.013 -36.157 1.536 0.0
-46.637 -52.99 2.148 0.05
-13.231 -15.254 0.763 0.25
-13.075 -15.17 0.759 0.28
-13.027 -15.211 0.759 0.52
-13.038 -15.32 0.761 0.14
-12.866 -15.167 0.755 0.38
-12.87 -15.268 0.757 0.3
-12.76 -15.235 0.755 0.39
-12.652 -15.203 0.752 0.34
-12.579 -15.212 0.751 0.42
-12.495 -15.208 0.749 0.38
-12.469 -15.274 0.75 0.4
-12.349 -15.224 0.747 0.3
-12.258 -15.161 0.744 0.37
-12.07 -15.026 0.738 0.4
-12.074 -15.127 0.74 0.33
-12.058 -15.204 0.742 0.34
-11.954 -15.172 0.739 0.36
-11.898 -15.198 0.739 0.38
-11.81 -15.185 0.737 0.39
-11.768 -15.18 0.736 0.34
-11.668 -15.149 0.734 0.43
-11.547 -15.09 0.731 0.32
-11.511 -15.141 0.731 0.39
-11.473 -15.189 0.732 0.33
-11.307 -15.069 0.726 0.41
-11.309 -15.17 0.729 0.26
-11.192 -15.063 0.724 0.39
-11.087 -15.021 0.722 0.44
-11.033 -15.046 0.721 0.27
-10.903 -14.967 0.717 0.42
-10.783 -14.901 0.714 0.27
-10.73 -14.927 0.714 0.52
-10.757 -15.063 0.717 0.33
-10.712 -15.05 0.716 0.36
-10.63 -15.035 0.715 0.31
-10.553 -15.026 0.713 0.41
-10.467 -15.003 0.711 0.32
-10.36 -14.951 0.708 0.38
-10.302 -14.967 0.708 0.37
-10.227 -14.958 0.707 0.41
-10.196 -14.964 0.706 0.27
-10.089 -14.907 0.703 0.49
-9.997 -14.872 0.701 0.31
-9.959 -14.917 0.701 0.39
-9.926 -14.968 0.702 0.41
-9.888 -15.014 0.703 0.41
-9.791 -14.968 0.7 0.36
-9.737 -14.936 0.699 0.41
-9.653 -14.91 0.697 0.23
-9.647 -15.004 0.699 0.56
-9.534 -14.932 0.695 0.39
-9.452 -14.906 0.694 0.39
-9.409 -14.942 0.694 0.27
-9.278 -14.838 0.689 0.51
-9.25 -14.846 0.689 0.34
-9.166 -14.814 0.687 0.4
-9.118 -14.841 0.687 0.43
-9.071 -14.869 0.687 0.31
-9.039 -14.921 0.688 0.4
-8.956 -14.89 0.686 0.34
-8.855 -14.827 0.683 0.39
-8.781 -14.808 0.682 0.37
-8.761 -14.829 0.682 0.35
-8.697 -14.825 0.681 0.43
-8.631 -14.82 0.68 0.38
-8.568 -14.819 0.679 0.34
-8.485 -14.782 0.677 0.46
-8.445 -14.821 0.677 0.32
-8.396 -14.842 0.677 0.45
-8.4 -14.904 0.679 0.37
-8.314 -14.861 0.677 0.3
-8.17 -14.712 0.671 0.46
-8.182 -14.844 0.674 0.39
-8.068 -14.747 0.671 0.32
-8.023 -14.774 0.671 0.46
-7.982 -14.81 0.671 0.35
-7.919 -14.749 0.669 0.41
-7.89 -14.805 0.67 0.4
-7.822 -14.789 0.668 0.39
-7.77 -14.805 0.668 0.34
-7.713 -14.808 0.667 0.37
-7.645 -14.791 0.666 0.5
-7.584 -14.787 0.665 0.3
-7.526 -14.731 0.663 0.51
-7.457 -14.71 0.662 0.3
-7.398 -14.708 0.661 0.5
-7.343 -14.714 0.66 0.27
-7.314 -14.771 0.662 0.41
-7.25 -14.76 0.66 0.41
-7.205 -14.784 0.661 0.37
-7.211 -14.855 0.662 0.35
-7.09 -14.724 0.658 0.5
-7.001 -14.658 0.655 0.23
-6.909 -14.583 0.652 0.53
-6.854 -14.586 0.651 0.26
-6.81 -14.611 0.652 0.45
-6.75 -14.602 0.651 0.4
-6.681 -14.572 0.649 0.38
-6.679 -14.63 0.651 0.41
-6.648 -14.683 0.652 0.45
-6.639 -14.786 0.654 0.27
-6.507 -14.615 0.648 0.53
-6.465 -14.645 0.649 0.32
-6.405 -14.634 0.648 0.43
-6.367 -14.672 0.648 0.34
-6.309 -14.602 0.646 0.43
-6.256 -14.605 0.645 0.35
-6.218 -14.643 0.646 0.42
-6.171 -14.659 0.646 0.43
-6.097 -14.612 0.644 0.28
-6.038 -14.601 0.643 0.53
-5.995 -14.626 0.643 0.41
-5.945 -14.568 0.641 0.41
-5.906 -14.604 0.641 0.35
-5.851 -14.602 0.641 0.5
-5.791 -14.585 0.64 0.3
-5.763 -14.647 0.641 0.42
-5.711 -14.649 0.641 0.42
-5.67 -14.682 0.641 0.34
-5.628 -14.64 0.64 0.45
-5.568 -14.622 0.639 0.34
-5.512 -14.612 0.638 0.45
-5.488 -14.689 0.639 0.39
-5.417 -14.638 0.638 0.35
-5.369 -14.65 0.637 0.43
-5.318 -14.653 0.637 0.42
-5.309 -14.701 0.638 0.38
-5.248 -14.675 0.637 0.45
-5.187 -14.651 0.636 0.33
-5.139 -14.66 0.635 0.45
-5.083 -14.648 0.635 0.32
-5.022 -14.62 0.633 0.52
-4.958 -14.583 0.632 0.41
-4.933 -14.585 0.632 0.34
-4.893 -14.619 0.632 0.5
-4.831 -14.585 0.631 0.27
-4.788 -14.61 0.631 0.48
-4.766 -14.699 0.633 0.36
-4.69 -14.621 0.631 0.42
-4.645 -14.637 0.631 0.44
-4.586 -14.61 0.629 0.3
-4.554 -14.59 0.629 0.37
-4.503 -14.587 0.628 0.38
-4.442 -14.552 0.627 0.43
-4.389 -14.543 0.626 0.31
-4.338 -14.537 0.625 0.32
-4.298 -14.57 0.626 0.44
-4.253 -14.587 0.626 0.37
-4.232 -14.6 0.626 0.48
-4.194 -14.642 0.627 0.32
-4.127 -14.582 0.625 0.39
-4.073 -14.564 0.624 0.39
-4.027 -14.575 0.624 0.39
-3.984 -14.599 0.624 0.33
-3.934 -14.596 0.624 0.38
-3.908 -14.59 0.624 0.46
-3.867 -14.62 0.624 0.32
-3.855 -14.762 0.628 0.57
-3.794 -14.718 0.626 0.25
-3.725 -14.642 0.624 0.53
-3.674 -14.635 0.623 0.41
-3.637 -14.681 0.624 0.26
-3.608 -14.663 0.624 0.59
-3.455 -14.236 0.611 0.22
-3.398 -14.196 0.61 0.27
-3.352 -14.201 0.61 0.27
-3.303 -14.194 0.609 0.43
-3.26 -14.212 0.609 0.48
-3.22 -14.243 0.61 0.46
-3.202 -14.264 0.61 0.27
-3.21 -14.512 0.617 0.18
-3.182 -14.602 0.619 0.45
-3.144 -14.649 0.62 0.39
-3.105 -14.69 0.621 0.42
-3.059 -14.704 0.621 0.27
-3.011 -14.704 0.621 0.46
-2.984 -14.687 0.62 0.32
-2.934 -14.678 0.62 0.44
-2.883 -14.662 0.619 0.39
-2.837 -14.673 0.619 0.29
-2.783 -14.641 0.618 0.55
-2.758 -14.759 0.621 0.26
-2.69 -14.654 0.618 0.4
-2.636 -14.619 0.617 0.51
-2.627 -14.702 0.619 0.21
-2.54 -14.48 0.613 0.45
-2.493 -14.478 0.612 0.36
-2.46 -14.56 0.614 0.45
-2.403 -14.499 0.612 0.28
-2.365 -14.55 0.614 0.39
-2.31 -14.502 0.612 0.45
-2.287 -14.502 0.612 0.45
-2.242 -14.513 0.612 0.42
-2.222 -14.688 0.617 0.31
-2.148 -14.509 0.612 0.4
-2.095 -14.468 0.61 0.38
-2.05 -14.476 0.61 0.39
-2.002 -14.461 0.61 0.43
-1.984 -14.504 0.611 0.32
-1.926 -14.415 0.608 0.5
-1.887 -14.468 0.61 0.3
-1.842 -14.48 0.61 0.43
-1.803 -14.534 0.611 0.39
-1.757 -14.539 0.611 0.41
-1.699 -14.443 0.608 0.41
-1.684 -14.512 0.61 0.38
-1.632 -14.457 0.608 0.32
-1.596 -14.544 0.611 0.55
-1.571 -14.743 0.616 0.19
-1.493 -14.444 0.608 0.53
-1.448 -14.455 0.608 0.38
-1.398 -14.417 0.607 0.39
-1.38 -14.463 0.608 0.37
-1.334 -14.468 0.608 0.28
-1.288 -14.456 0.607 0.57
-1.264 -14.713 0.614 0.23
-1.189 -14.374 0.605 0.42
-1.147 -14.419 0.606 0.35
-1.108 -14.505 0.608 0.42
-1.083 -14.474 0.607 0.41
-1.038 -14.482 0.608 0.41
-0.99 -14.453 0.607 0.29
-0.943 -14.426 0.606 0.52
-0.905 -14.551 0.609 0.24
-0.855 -14.474 0.607 0.51
-0.8 -14.323 0.603 0.33
-0.78 -14.37 0.604 0.46
-0.737 -14.412 0.605 0.37
-0.691 -14.398 0.605 0.45
-0.646 -14.391 0.604 0.35
-0.599 -14.363 0.604 0.39
-0.556 -14.412 0.605 0.33
-0.511 -14.434 0.605 0.44
-0.493 -14.565 0.609 0.41
-0.446 -14.524 0.608 0.28
-0.397 -14.404 0.605 0.5
-0.351 -14.393 0.604 0.31
-0.309 -14.492 0.607 0.48
-0.261 -14.407 0.605 0.36
-0.216 -14.425 0.605 0.41
-0.171 -14.408 0.605 0.3
-0.148 -14.366 0.603 0.43
-0.102 -14.365 0.603 0.34
-0.057 -14.363 0.603 0.46
-0.012 -14.409 0.605 0.34
0.033 -14.433 0.605 0.5
0.078 -14.485 0.607 0.36
0.123 -14.406 0.605 0.34
0.146 -14.39 0.604 0.39
0.191 -14.384 0.604 0.49
0.238 -14.477 0.606 0.34
0.282 -14.41 0.605 0.28
0.326 -14.333 0.603 0.48
0.374 -14.48 0.607 0.23
0.415 -14.321 0.602 0.58
0.44 -14.386 0.604 0.32
0.482 -14.303 0.602 0.5
0.529 -14.339 0.603 0.36
0.572 -14.306 0.602 0.41
0.617 -14.3 0.602 0.39
0.662 -14.292 0.602 0.37
0.706 -14.274 0.601 0.35
0.728 -14.264 0.601 0.49
0.776 -14.324 0.603 0.4
0.834 -14.553 0.609 0.36
0.867 -14.327 0.603 0.24
0.907 -14.25 0.601 0.41
0.951 -14.233 0.601 0.44
0.996 -14.232 0.601 0.29
1.018 -14.235 0.601 0.49
1.065 -14.255 0.601 0.32
1.111 -14.272 0.602 0.53
1.164 -14.376 0.605 0.35
1.221 -14.506 0.609 0.39
1.254 -14.358 0.605 0.36
1.294 -14.295 0.603 0.47
1.319 -14.326 0.604 0.35
1.367 -14.35 0.605 0.45
1.408 -14.302 0.604 0.4
1.452 -14.295 0.603 0.28
1.497 -14.285 0.603 0.52
1.535 -14.214 0.601 0.41
1.59 -14.305 0.604 0.29
1.61 -14.287 0.604 0.55
1.658 -14.301 0.604 0.27
1.701 -14.28 0.604 0.48
1.754 -14.348 0.606 0.33
1.79 -14.263 0.604 0.47
1.83 -14.226 0.603 0.32
1.88 -14.258 0.604 0.43
1.906 -14.286 0.605 0.38
1.953 -14.294 0.605 0.43
1.99 -14.229 0.603 0.25
2.033 -14.214 0.603 0.52
2.083 -14.24 0.604 0.27
2.124 -14.209 0.603 0.54
2.178 -14.264 0.605 0.32
2.221 -14.245 0.605 0.5
2.251 -14.291 0.606 0.29
2.291 -14.254 0.605 0.45
2.342 -14.284 0.606 0.29
2.381 -14.243 0.605 0.54
2.429 -14.254 0.606 0.25
2.473 -14.244 0.606 0.5
2.521 -14.252 0.606 0.32
2.544 -14.25 0.606 0.58
2.6 -14.307 0.608 0.28
2.632 -14.228 0.606 0.52
2.676 -14.213 0.606 0.38
2.723 -14.219 0.606 0.48
2.776 -14.255 0.608 0.27
2.822 -14.252 0.608 0.52
2.846 -14.258 0.608 0.37
2.895 -14.27 0.609 0.36
2.936 -14.241 0.608 0.38
2.986 -14.254 0.609 0.46
3.029 -14.238 0.609 0.34
3.066 -14.194 0.608 0.5
3.11 -14.18 0.608 0.34
3.142 -14.222 0.609 0.43
3.199 -14.267 0.61 0.36
3.257 -14.313 0.612 0.35
3.288 -14.242 0.61 0.45
3.344 -14.279 0.612 0.33
3.386 -14.256 0.611 0.47
3.421 -14.205 0.61 0.29
3.436 -14.17 0.609 0.45
3.5 -14.241 0.612 0.34
3.539 -14.205 0.611 0.45
3.58 -14.18 0.61 0.32
3.629 -14.184 0.611 0.47
3.672 -14.169 0.611 0.38
3.728 -14.2 0.612 0.38
3.749 -14.19 0.612 0.41
3.782 -14.136 0.611 0.33
3.82 -14.099 0.61 0.45
3.876 -14.129 0.611 0.36
3.937 -14.178 0.613 0.43
3.978 -14.153 0.613 0.36
4.034 -14.18 0.614 0.44
4.082 -14.264 0.616 0.42
4.134 -14.278 0.617 0.29
4.161 -14.202 0.615 0.45
4.21 -14.206 0.616 0.38
4.267 -14.235 0.617 0.34
4.305 -14.198 0.616 0.42
4.351 -14.189 0.616 0.3
4.372 -14.178 0.616 0.45
4.408 -14.136 0.615 0.47
4.465 -14.162 0.617 0.34
4.504 -14.132 0.616 0.41
4.538 -14.084 0.615 0.34
4.579 -14.062 0.615 0.43
4.629 -14.063 0.615 0.34
4.682 -14.077 0.616 0.45
4.71 -14.086 0.617 0.38
4.78 -14.147 0.619 0.29
4.825 -14.136 0.619 0.59
4.94 -14.325 0.625 0.2
4.92 -14.122 0.62 0.46
4.967 -14.114 0.62 0.32
5.015 -14.108 0.62 0.43
5.049 -14.134 0.621 0.42
5.099 -14.135 0.622 0.41
5.161 -14.168 0.623 0.29
5.195 -14.123 0.622 0.46
5.252 -14.139 0.623 0.32
5.289 -14.104 0.623 0.39
5.352 -14.136 0.624 0.48
5.379 -14.142 0.624 0.38
5.422 -14.121 0.624 0.41
5.467 -14.106 0.624 0.36
5.502 -14.065 0.624 0.41
5.547 -14.047 0.624 0.5
5.612 -14.084 0.625 0.25
5.653 -14.059 0.625 0.52
5.716 -14.152 0.628 0.27
5.734 -14.067 0.626 0.48
5.795 -14.092 0.627 0.41
5.879 -14.169 0.63 0.37
5.902 -14.099 0.629 0.36
5.949 -14.086 0.629 0.5
6.006 -14.099 0.63 0.32
6.019 -14.067 0.629 0.43
6.073 -14.07 0.63 0.23
6.129 -14.079 0.631 0.45
6.176 -14.067 0.631 0.4
6.231 -14.071 0.631 0.45
6.283 -14.069 0.632 0.34
6.303 -13.995 0.63 0.46
6.348 -14.036 0.632 0.32
6.421 -14.08 0.634 0.35
6.472 -14.076 0.634 0.54
6.532 -14.088 0.635 0.29
6.569 -14.053 0.635 0.46
6.645 -14.101 0.637 0.24
6.672 -14.042 0.636 0.53
6.74 -14.129 0.639 0.32
6.746 -14.029 0.636 0.39
6.781 -13.988 0.636 0.42
6.812 -13.939 0.635 0.4
6.903 -14.015 0.638 0.41
6.951 -14.0 0.638 0.38
6.98 -13.95 0.637 0.37
7.008 -13.951 0.638 0.38
7.08 -13.984 0.639 0.34
7.155 -14.023 0.641 0.53
7.268 -14.135 0.645 0.32
7.24 -13.972 0.641 0.29
7.299 -13.978 0.642 0.4
7.347 -13.964 0.642 0.43
7.394 -13.946 0.642 0.3
7.415 -13.932 0.642 0.5
7.479 -13.948 0.644 0.41
7.515 -13.91 0.643 0.36
7.604 -13.969 0.646 0.48
7.653 -13.956 0.646 0.32
7.692 -13.923 0.646 0.45
7.739 -13.904 0.646 0.38
7.775 -13.918 0.647 0.36
7.818 -13.891 0.647 0.49
7.895 -13.926 0.649 0.26
7.936 -13.896 0.648 0.44
7.989 -13.887 0.649 0.42
8.054 -13.899 0.65 0.36
8.108 -13.891 0.651 0.53
8.172 -13.951 0.653 0.26
8.192 -13.886 0.652 0.51
8.262 -13.905 0.653 0.21
8.283 -13.839 0.652 0.49
8.328 -13.817 0.652 0.33
8.356 -13.765 0.651 0.38
8.414 -13.762 0.652 0.48
8.443 -13.761 0.652 0.41
8.516 -13.784 0.654 0.36
8.56 -13.759 0.654 0.5
8.605 -13.733 0.654 0.29
8.662 -13.728 0.655 0.44
8.731 -13.743 0.656 0.44
8.828 -13.8 0.659 0.36
8.865 -13.81 0.66 0.38
8.905 -13.777 0.659 0.35
8.951 -13.752 0.659 0.45
9.019 -13.762 0.661 0.34
9.064 -13.737 0.661 0.43
9.099 -13.695 0.66 0.45
9.157 -13.69 0.661 0.3
9.18 -13.677 0.661 0.44
9.287 -13.745 0.664 0.4
9.317 -13.695 0.664 0.34
9.397 -13.721 0.666 0.46
9.52 -13.806 0.669 0.28
9.588 -13.813 0.671 0.47
9.64 -13.795 0.671 0.3
9.676 -13.8 0.672 0.48
9.743 -13.804 0.673 0.34
9.793 -13.783 0.673 0.37
9.849 -13.77 0.674 0.41
9.913 -13.767 0.675 0.44
9.958 -13.739 0.675 0.36
10.085 -13.822 0.679 0.33
10.148 -13.863 0.681 0.48
10.294 -13.971 0.685 0.43
10.217 -13.775 0.68 0.31
10.321 -13.824 0.683 0.4
10.435 -13.886 0.686 0.34
10.478 -13.853 0.686 0.45
10.648 -13.986 0.692 0.22
10.618 -13.901 0.689 0.48
10.684 -13.898 0.69 0.34
10.823 -13.987 0.695 0.35
10.857 -13.941 0.694 0.45
10.871 -13.869 0.693 0.4
10.935 -13.86 0.694 0.35
10.969 -13.814 0.693 0.41
11.051 -13.872 0.696 0.39
11.174 -13.937 0.699 0.4
11.232 -13.919 0.7 0.31
11.337 -13.96 0.703 0.41
11.406 -13.955 0.704 0.45
11.435 -13.901 0.703 0.35
11.538 -13.937 0.706 0.35
11.595 -13.916 0.706 0.51
11.657 -13.947 0.708 0.29
11.731 -13.946 0.709 0.49
11.784 -13.92 0.71 0.39
11.871 -13.934 0.712 0.35
12.042 -14.046 0.717 0.34
12.062 -13.979 0.716 0.5
12.285 -14.148 0.723 0.28
12.358 -14.188 0.726 0.38
12.429 -14.179 0.727 0.3
12.508 -14.179 0.728 0.29
12.579 -14.17 0.729 0.38
12.651 -14.161 0.73 0.31
12.691 -14.117 0.73 0.33
12.761 -14.105 0.731 0.28
12.748 -14.047 0.73 0.41
12.753 -13.964 0.728 0.38
12.777 -13.901 0.727 0.43
12.914 -13.963 0.731 0.38
13.035 -14.006 0.734 0.33
13.088 -13.973 0.735 0.38
13.163 -13.966 0.736 0.33
13.255 -14.019 0.739 0.53
13.457 -14.144 0.745 0.29
13.577 -14.181 0.748 0.27
13.659 -14.178 0.75 0.41
13.733 -14.165 0.751 0.34
13.791 -14.136 0.751 0.37
13.817 -14.074 0.751 0.38
13.861 -14.074 0.751 0.36
13.92 -14.046 0.752 0.36
13.957 -13.995 0.752 0.47
14.075 -14.024 0.755 0.37
14.069 -13.931 0.753 0.37
14.148 -13.922 0.754 0.35
14.228 -13.912 0.755 0.43
14.48 -14.115 0.764 0.31
14.629 -14.171 0.768 0.3
14.739 -14.189 0.771 0.33
14.821 -14.178 0.772 0.3
14.911 -14.174 0.774 0.3
15.0 -14.17 0.776 0.31
15.082 -14.158 0.777 0.27
15.167 -14.194 0.779 0.37
15.25 -14.181 0.781 0.25
15.347 -14.182 0.783 0.38
15.449 -14.187 0.785 0.36
15.541 -14.181 0.787 0.27
15.638 -14.181 0.789 0.32
15.723 -14.168 0.79 0.25
15.787 -14.181 0.792 0.32
15.891 -14.184 0.794 0.31
15.989 -14.182 0.796 0.31
16.083 -14.175 0.798 0.32
16.175 -14.167 0.799 0.28
16.28 -14.169 0.802 0.36
16.38 -14.166 0.804 0.34
16.444 -14.176 0.805 0.22
16.556 -14.182 0.808 0.32
16.655 -14.177 0.81 0.38
16.752 -14.169 0.811 0.33
16.859 -14.169 0.814 0.31
16.968 -14.17 0.816 0.33
17.067 -14.162 0.818 0.33
17.136 -14.174 0.82 0.22
17.259 -14.185 0.822 0.38
17.358 -14.175 0.824 0.35
17.469 -14.174 0.827 0.27
17.563 -14.16 0.829 0.25
17.677 -14.161 0.831 0.3
17.783 -14.154 0.833 0.33
17.879 -14.139 0.835 0.22
17.986 -14.178 0.838 0.49
18.103 -14.178 0.84 0.23
18.221 -14.179 0.843 0.24
18.321 -14.164 0.845 0.22
18.438 -14.163 0.847 0.34
18.552 -14.158 0.85 0.29
18.657 -14.146 0.852 0.26
18.766 -14.182 0.855 0.4
18.868 -14.166 0.857 0.31
19.005 -14.176 0.86 0.27
19.122 -14.17 0.863 0.28
19.24 -14.164 0.865 0.24
19.373 -14.169 0.868 0.36
19.487 -14.158 0.87 0.28
19.575 -14.176 0.873 0.21
19.716 -14.183 0.876 0.41
19.828 -14.17 0.878 0.27
19.956 -14.167 0.881 0.29
20.077 -14.158 0.884 0.28
20.205 -14.154 0.886 0.31
20.316 -14.137 0.889 0.22
20.44 -14.176 0.892 0.51
20.564 -14.166 0.895 0.22
20.727 -14.183 0.899 0.26
20.847 -14.17 0.901 0.28
20.981 -14.165 0.904 0.31
21.087 -14.14 0.906 0.21
21.236 -14.143 0.91 0.43
21.358 -14.176 0.913 0.2
21.499 -14.173 0.916 0.21
21.639 -14.168 0.919 0.4
21.769 -14.156 0.922 0.23
21.912 -14.151 0.925 0.22
22.066 -14.153 0.929 0.36
22.21 -14.147 0.932 0.2
22.355 -14.19 0.936 0.31
22.497 -14.182 0.939 0.31
22.638 -14.172 0.943 0.34
22.778 -14.16 0.946 0.18
22.943 -14.163 0.949 0.43
23.103 -14.162 0.953 0.27
23.238 -14.144 0.956 0.24
23.412 -14.2 0.961 0.36
23.541 -14.177 0.964 0.29
23.693 -14.168 0.967 0.17
23.873 -14.174 0.972 0.48
24.03 -14.165 0.975 0.22
24.224 -14.178 0.98 0.28
24.37 -14.161 0.983 0.3
24.536 -14.206 0.988 0.25
24.672 -14.182 0.991 0.3
24.83 -14.168 0.994 0.24
25.048 -14.189 1.0 0.2
25.197 -14.169 1.003 0.28
25.353 -14.152 1.006 0.29
25.479 -14.118 1.009 0.2
25.652 -14.162 1.014 0.35
25.842 -14.161 1.018 0.24
26.028 -14.157 1.023 0.2
26.201 -14.145 1.027 0.42
26.355 -14.121 1.03 0.25
26.519 -14.102 1.034 0.18
26.724 -14.104 1.039 0.39
26.887 -14.136 1.043 0.22
27.095 -14.137 1.048 0.23
27.274 -14.122 1.053 0.2
27.473 -14.116 1.057 0.3
27.67 -14.107 1.062 0.2
27.876 -14.103 1.067 0.25
28.087 -14.099 1.072 0.16
28.278 -14.083 1.077 0.13
28.461 -14.119 1.082 0.18
28.681 -14.116 1.087 0.12
28.928 -14.125 1.093 0.17
29.173 -14.132 1.099 0.12
29.506 -14.179 1.108 0.0
29.868 -14.238 1.118 0.0
30.113 -14.239 1.124 0.0
30.155 -14.201 1.125 0.0
61.38 -28.701 2.07 0.0
60.384 -28.004 2.038 0.0
60.283 -27.727 2.032 0.0
60.231 -27.474 2.028 0.0
60.377 -27.312 2.03 0.0
60.547 -27.16 2.032 0.0
60.62 -27.079 2.033 0.0
60.917 -26.982 2.039 0.0
60.725 -26.669 2.031 0.0
60.477 -26.334 2.021 0.0
60.624 -26.171 2.023 0.0
60.808 -26.025 2.026 0.0
60.953 -25.86 2.028 0.0
60.984 -25.76 2.028 0.0
61.507 -25.754 2.041 0.0
73.824 -30.645 2.405 0.0
73.686 -30.046 2.395 0.0
23.073 -9.178 0.891 0.36
23.205 -9.147 0.894 0.0
60.784 -23.784 2.002 0.0
60.872 -23.598 2.003 0.0
60.895 -23.387 2.001 0.0
61.327 -23.332 2.012 0.0
40.418 -15.223 1.395 0.12
40.336 -15.119 1.392 0.2
40.31 -14.965 1.39 0.22
40.377 -14.846 1.391 0.36
40.551 -14.766 1.394 0.0
61.535 -22.202 2.006 0.0
61.887 -22.11 2.014 0.0
62.167 -21.99 2.021 0.0
64.455 -22.686 2.086 0.0
64.686 -22.54 2.091 0.0
64.883 -22.38 2.095 0.0
68.3 -23.32 2.192 0.0
68.416 -23.12 2.193 0.0
68.665 -22.964 2.198 0.0
68.947 -22.818 2.204 0.0
69.475 -22.872 2.218 0.0
56.184 -18.296 1.832 0.0
68.831 -22.181 2.196 0.0
56.15 -17.895 1.828 0.0
56.854 -17.923 1.847 0.0
56.853 -17.727 1.845 0.0
56.751 -17.499 1.84 0.0
48.077 -14.655 1.59 0.07
48.152 -14.596 1.591 0.14
48.27 -14.466 1.593 0.0
49.115 -14.552 1.616 0.0
49.285 -14.434 1.62 0.0
56.367 -16.32 1.821 0.0
55.646 -15.921 1.799 0.0
49.757 -14.065 1.629 0.0
49.885 -14.016 1.632 0.0
52.543 -14.586 1.707 0.0
56.317 -15.445 1.813 0.0
54.135 -14.663 1.75 0.0
52.985 -14.173 1.716 0.0
53.808 -14.212 1.738 0.0
54.034 -14.091 1.743 0.0
57.087 -14.792 1.829 0.0
53.153 -13.593 1.716 0.0
53.17 -13.42 1.715 0.0
56.995 -14.197 1.823 0.0
56.932 -13.991 1.82 0.0
57.267 -13.883 1.828 0.0
57.665 -13.788 1.838 0.0
58.489 -13.888 1.86 0.0
63.484 -14.866 2.0 0.0
63.913 -14.755 2.011 0.0
63.824 -14.524 2.007 0.0
65.408 -14.669 2.051 0.0
65.489 -14.471 2.052 0.0
65.14 -14.179 2.04 0.0
65.154 -14.075 2.04 0.0
65.705 -13.978 2.054 0.0
66.151 -13.856 2.066 0.0
66.04 -13.616 2.061 0.0
66.38 -13.469 2.07 0.0
66.855 -13.348 2.082 0.0
71.774 -14.097 2.218 0.0
70.603 -13.751 2.185 0.0
70.636 -13.528 2.185 0.0
70.8 -13.329 2.188 0.0
73.672 -13.631 2.267 0.0
78.063 -14.192 2.389 0.0
77.938 -13.916 2.384 0.0
63.169 -7.923 1.958 0.0
62.173 -6.511 1.926 0.0
62.157 -6.312 1.925 0.0
62.149 -6.114 1.925 0.0
62.118 -5.914 1.923 0.0
62.081 -5.714 1.922 0.0
62.058 -5.515 1.921 0.0
62.043 -5.416 1.92 0.0
62.018 -5.217 1.919 0.0
62.006 -5.02 1.918 0.0
61.976 -4.822 1.917 0.0
62.308 -4.651 1.925 0.0
62.812 -4.49 1.939 0.0
75.123 -3.48 2.275 0.0
46.502 -1.998 1.488 0.0
46.504 -1.852 1.487 0.0
46.522 -1.706 1.488 0.0
72.231 11.563 1.874 0.0
73.596 12.494 1.908 0.0
73.375 12.575 1.904 0.0
73.626 12.857 1.911 0.0
72.96 13.687 1.899 0.0
72.581 13.852 1.891 0.0
68.857 13.477 1.806 0.0
