# .PCD v.7 - Point Cloud Data file format
VERSION .7
FIELDS x y z intensity
SIZE 4 4 4 4
TYPE F F F F
COUNT 1 1 1 1
WIDTH 1853
HEIGHT 1
VIEWPOINT 0 0 0 1 0 0 0
POINTS 1853
DATA ascii
-2.859 -14.489 0.09 0.51
-2.806 -14.462 0.09 0.28
-2.76 -14.467 0.09 0.55
-2.708 -14.44 0.09 0.3
-2.654 -14.401 0.091 0.55
-2.61 -14.418 0.09 0.38
-2.581 -14.39 0.091 0.3
-2.542 -14.43 0.09 0.45
-2.491 -14.404 0.091 0.3
-2.455 -14.467 0.09 0.5
-2.404 -14.441 0.091 0.32
-2.354 -14.421 0.091 0.62
-2.318 -14.488 0.09 0.32
-2.291 -14.467 0.09 0.36
-2.241 -14.445 0.091 0.62
-2.227 -14.652 0.089 0.29
-2.151 -14.465 0.091 0.36
-2.1 -14.434 0.091 0.41
-2.055 -14.44 0.091 0.31
-2.01 -14.449 0.091 0.53
-1.986 -14.446 0.091 0.29
-1.938 -14.428 0.091 0.61
-1.922 -14.658 0.089 0.2
-1.848 -14.448 0.091 0.4
-1.8 -14.432 0.091 0.43
-1.753 -14.424 0.091 0.5
-1.716 -14.499 0.091 0.23
-1.679 -14.382 0.092 0.49
-1.632 -14.367 0.092 0.3
-1.586 -14.369 0.092 0.56
-1.545 -14.413 0.092 0.45
-1.495 -14.37 0.092 0.32
-1.435 -14.232 0.093 0.47
-1.393 -14.26 0.093 0.25
-1.376 -14.326 0.093 0.55
-1.346 -14.487 0.091 0.35
-1.285 -14.32 0.093 0.36
-1.241 -14.332 0.093 0.38
-1.196 -14.336 0.093 0.43
-1.157 -14.411 0.092 0.43
-1.107 -14.359 0.092 0.29
-1.085 -14.369 0.092 0.61
-1.058 -14.614 0.09 0.26
-0.995 -14.373 0.092 0.28
-0.946 -14.325 0.093 0.59
-0.9 -14.318 0.093 0.32
-0.853 -14.284 0.093 0.39
-0.807 -14.271 0.093 0.39
-0.791 -14.378 0.092 0.46
-0.748 -14.42 0.092 0.45
-0.708 -14.523 0.091 0.28
-0.654 -14.351 0.093 0.37
-0.609 -14.351 0.093 0.47
-0.564 -14.369 0.093 0.29
-0.518 -14.332 0.093 0.55
-0.496 -14.359 0.093 0.27
-0.451 -14.361 0.093 0.52
-0.407 -14.414 0.092 0.45
-0.365 -14.513 0.092 0.39
-0.32 -14.556 0.091 0.23
-0.27 -14.329 0.093 0.47
-0.225 -14.376 0.093 0.28
-0.18 -14.351 0.093 0.48
-0.157 -14.339 0.093 0.34
-0.112 -14.335 0.093 0.41
-0.067 -14.348 0.093 0.39
-0.022 -14.314 0.093 0.43
0.023 -14.286 0.093 0.41
0.068 -14.298 0.093 0.41
0.113 -14.297 0.093 0.29
0.135 -14.307 0.093 0.55
0.182 -14.451 0.092 0.25
0.225 -14.266 0.093 0.42
0.27 -14.283 0.093 0.34
0.314 -14.228 0.094 0.29
0.36 -14.311 0.093 0.59
0.406 -14.326 0.093 0.28
0.429 -14.337 0.093 0.59
0.474 -14.344 0.093 0.3
0.518 -14.306 0.093 0.46
0.563 -14.319 0.093 0.23
0.608 -14.323 0.093 0.52
0.653 -14.305 0.093 0.39
0.697 -14.291 0.093 0.32
0.719 -14.29 0.093 0.46
0.767 -14.339 0.093 0.48
0.813 -14.361 0.093 0.36
0.857 -14.338 0.093 0.27
0.902 -14.331 0.093 0.55
0.959 -14.512 0.091 0.24
0.997 -14.391 0.092 0.43
1.019 -14.384 0.092 0.36
1.063 -14.361 0.092 0.45
1.106 -14.331 0.093 0.36
1.148 -14.296 0.093 0.4
1.191 -14.264 0.093 0.46
1.237 -14.278 0.093 0.34
1.282 -14.278 0.093 0.46
1.305 -14.278 0.093 0.37
1.351 -14.282 0.093 0.39
1.394 -14.262 0.093 0.43
1.446 -14.335 0.092 0.29
1.492 -14.338 0.092 0.55
1.532 -14.282 0.093 0.41
1.576 -14.271 0.093 0.28
1.598 -14.265 0.093 0.45
1.642 -14.254 0.093 0.43
1.687 -14.252 0.093 0.34
1.733 -14.253 0.093 0.6
1.804 -14.46 0.091 0.19
1.827 -14.277 0.093 0.36
1.873 -14.28 0.092 0.53
1.896 -14.281 0.092 0.42
1.949 -14.338 0.092 0.2
1.991 -14.308 0.092 0.57
2.042 -14.345 0.092 0.21
2.066 -14.196 0.093 0.52
2.117 -14.227 0.093 0.36
2.16 -14.213 0.093 0.46
2.208 -14.229 0.092 0.39
2.231 -14.226 0.092 0.3
2.277 -14.229 0.092 0.53
2.33 -14.271 0.092 0.32
2.373 -14.256 0.092 0.53
2.428 -14.309 0.092 0.23
2.463 -14.242 0.092 0.41
2.489 -14.26 0.092 0.41
2.528 -14.217 0.092 0.43
2.572 -14.209 0.092 0.43
2.612 -14.173 0.092 0.27
2.66 -14.187 0.092 0.52
2.706 -14.182 0.092 0.25
2.749 -14.166 0.092 0.53
2.787 -14.244 0.092 0.32
2.832 -14.237 0.092 0.43
2.899 -14.34 0.091 0.28
2.933 -14.274 0.091 0.45
2.975 -14.255 0.091 0.46
3.024 -14.265 0.091 0.31
3.072 -14.269 0.091 0.48
3.11 -14.228 0.091 0.38
3.146 -14.284 0.091 0.39
3.201 -14.32 0.09 0.43
3.228 -14.232 0.091 0.36
3.283 -14.267 0.091 0.52
3.354 -14.37 0.09 0.18
3.368 -14.225 0.091 0.41
3.414 -14.222 0.091 0.39
3.439 -14.226 0.091 0.49
3.476 -14.184 0.091 0.26
3.518 -14.163 0.091 0.56
3.557 -14.131 0.091 0.28
3.591 -14.079 0.091 0.48
3.653 -14.135 0.091 0.35
3.71 -14.17 0.09 0.4
3.738 -14.19 0.09 0.38
3.789 -14.201 0.09 0.34
3.83 -14.174 0.09 0.46
3.872 -14.154 0.09 0.43
3.921 -14.159 0.09 0.37
3.97 -14.162 0.09 0.42
4.016 -14.155 0.09 0.3
4.051 -14.195 0.09 0.52
4.103 -14.205 0.089 0.39
4.133 -14.142 0.09 0.45
4.187 -14.164 0.09 0.22
4.232 -14.151 0.09 0.52
4.313 -14.262 0.089 0.32
4.329 -14.152 0.089 0.42
4.349 -14.138 0.089 0.45
4.427 -14.231 0.088 0.38
4.499 -14.305 0.088 0.25
4.488 -14.115 0.089 0.4
4.527 -14.084 0.089 0.48
4.584 -14.11 0.089 0.41
4.694 -14.295 0.087 0.38
4.67 -14.147 0.089 0.38
4.705 -14.104 0.089 0.41
4.759 -14.117 0.089 0.47
4.814 -14.135 0.088 0.31
4.854 -14.106 0.088 0.45
4.918 -14.149 0.088 0.44
4.942 -14.075 0.088 0.28
4.957 -14.047 0.089 0.49
5.001 -14.031 0.089 0.34
5.06 -14.057 0.088 0.43
5.129 -14.109 0.088 0.4
5.177 -14.104 0.088 0.48
5.248 -14.16 0.087 0.29
5.252 -14.033 0.088 0.39
5.277 -14.033 0.088 0.43
5.325 -14.027 0.088 0.41
5.36 -13.988 0.088 0.37
5.438 -14.059 0.087 0.37
5.497 -14.081 0.087 0.29
5.529 -14.032 0.087 0.52
5.574 -14.016 0.087 0.32
5.607 -13.971 0.087 0.57
5.659 -14.036 0.087 0.38
5.696 -14.002 0.087 0.25
5.741 -13.987 0.087 0.55
5.8 -14.004 0.086 0.36
5.848 -13.997 0.086 0.35
5.883 -13.957 0.087 0.52
5.917 -13.916 0.087 0.38
5.96 -13.954 0.086 0.46
6.007 -13.945 0.086 0.31
6.032 -13.882 0.087 0.64
6.22 -14.193 0.084 0.18
6.15 -13.913 0.086 0.48
6.202 -13.912 0.086 0.38
6.284 -13.98 0.085 0.45
6.318 -13.996 0.085 0.38
6.369 -13.992 0.085 0.39
6.419 -13.985 0.085 0.4
6.455 -13.948 0.085 0.33
6.491 -13.91 0.085 0.35
6.512 -13.842 0.085 0.41
6.535 -13.778 0.086 0.41
6.554 -13.763 0.086 0.45
6.649 -13.85 0.085 0.33
6.682 -13.806 0.085 0.44
6.845 -14.031 0.083 0.45
6.806 -13.841 0.084 0.35
6.833 -13.787 0.085 0.29
6.873 -13.759 0.085 0.62
7.01 -13.979 0.083 0.2
6.985 -13.819 0.084 0.47
7.015 -13.772 0.084 0.28
7.081 -13.793 0.084 0.49
7.151 -13.824 0.083 0.37
7.18 -13.773 0.084 0.43
7.218 -13.739 0.084 0.33
7.241 -13.732 0.084 0.4
7.392 -13.912 0.082 0.48
7.437 -13.892 0.082 0.25
7.471 -13.851 0.082 0.45
7.534 -13.863 0.082 0.47
7.579 -13.843 0.082 0.33
7.613 -13.801 0.082 0.59
7.696 -13.9 0.081 0.26
7.724 -13.847 0.081 0.52
7.756 -13.802 0.081 0.28
7.811 -13.799 0.081 0.53
7.899 -13.854 0.08 0.25
7.938 -13.82 0.08 0.52
8.076 -13.96 0.079 0.39
8.06 -13.881 0.079 0.39
8.116 -13.877 0.079 0.36
8.176 -13.881 0.079 0.45
8.289 -13.972 0.078 0.41
8.382 -14.028 0.077 0.33
8.39 -13.942 0.078 0.43
8.482 -13.994 0.077 0.48
8.525 -14.017 0.077 0.26
8.534 -13.932 0.077 0.43
8.575 -13.902 0.077 0.47
8.663 -13.946 0.077 0.36
8.844 -14.138 0.075 0.34
8.916 -14.154 0.074 0.34
8.977 -14.153 0.074 0.35
9.032 -14.141 0.074 0.34
9.045 -14.112 0.074 0.23
9.104 -14.107 0.074 0.57
9.189 -14.14 0.073 0.37
9.237 -14.118 0.073 0.19
9.237 -14.021 0.074 0.59
9.361 -14.113 0.072 0.3
9.444 -14.142 0.072 0.25
9.46 -14.117 0.072 0.38
9.472 -14.039 0.072 0.37
9.49 -13.971 0.073 0.38
9.54 -13.95 0.073 0.47
9.609 -13.958 0.072 0.46
9.808 -14.151 0.07 0.36
9.872 -14.148 0.07 0.38
9.917 -14.166 0.07 0.33
9.981 -14.162 0.069 0.41
10.046 -14.16 0.069 0.31
10.073 -14.104 0.069 0.43
10.177 -14.155 0.069 0.39
10.239 -14.148 0.068 0.33
10.288 -14.169 0.068 0.41
10.353 -14.165 0.068 0.34
10.412 -14.152 0.067 0.36
10.483 -14.155 0.067 0.36
10.554 -14.159 0.067 0.32
10.622 -14.156 0.066 0.37
10.691 -14.156 0.066 0.34
10.768 -14.165 0.066 0.38
10.806 -14.169 0.065 0.33
10.871 -14.162 0.065 0.38
10.935 -14.153 0.065 0.32
11.011 -14.158 0.065 0.38
11.08 -14.155 0.064 0.32
11.149 -14.152 0.064 0.25
11.207 -14.134 0.064 0.29
11.221 -14.107 0.064 0.6
11.333 -14.156 0.063 0.33
11.388 -14.133 0.063 0.3
11.428 -14.092 0.063 0.47
11.552 -14.154 0.062 0.38
11.622 -14.149 0.062 0.32
11.697 -14.149 0.061 0.36
11.743 -14.16 0.061 0.34
11.818 -14.16 0.061 0.35
11.896 -14.163 0.06 0.35
11.97 -14.16 0.06 0.33
12.045 -14.159 0.059 0.25
12.037 -14.059 0.06 0.33
12.057 -13.994 0.06 0.46
12.169 -14.079 0.059 0.31
12.127 -13.941 0.06 0.5
12.358 -14.117 0.058 0.33
12.474 -14.161 0.057 0.33
12.556 -14.164 0.057 0.34
12.634 -14.161 0.056 0.39
12.707 -14.154 0.056 0.35
12.764 -14.173 0.056 0.36
12.85 -14.179 0.055 0.33
12.92 -14.167 0.055 0.33
13.003 -14.167 0.054 0.38
13.078 -14.16 0.054 0.32
13.157 -14.156 0.054 0.32
13.238 -14.154 0.053 0.32
13.301 -14.177 0.053 0.38
13.373 -14.164 0.052 0.3
13.47 -14.177 0.052 0.33
13.545 -14.167 0.051 0.34
13.625 -14.161 0.051 0.34
13.71 -14.16 0.051 0.36
13.792 -14.156 0.05 0.35
13.852 -14.173 0.05 0.3
13.937 -14.171 0.049 0.41
14.016 -14.162 0.049 0.29
14.1 -14.158 0.048 0.32
14.201 -14.17 0.048 0.34
14.273 -14.152 0.048 0.31
14.371 -14.161 0.047 0.39
14.42 -14.165 0.047 0.3
14.528 -14.181 0.046 0.35
14.609 -14.172 0.046 0.3
14.697 -14.167 0.045 0.36
14.779 -14.157 0.045 0.3
14.87 -14.155 0.044 0.37
14.96 -14.152 0.044 0.34
15.042 -14.185 0.043 0.38
15.107 -14.157 0.043 0.23
15.207 -14.161 0.042 0.27
15.31 -14.168 0.042 0.42
15.341 -14.107 0.042 0.36
15.387 -14.06 0.042 0.29
15.486 -14.062 0.041 0.26
15.563 -14.087 0.04 0.34
15.644 -14.072 0.04 0.29
15.739 -14.068 0.04 0.31
15.819 -14.05 0.039 0.27
16.041 -14.158 0.037 0.34
16.135 -14.151 0.037 0.29
16.244 -14.157 0.036 0.37
16.351 -14.16 0.035 0.35
16.412 -14.168 0.035 0.32
16.519 -14.17 0.034 0.34
16.618 -14.165 0.034 0.34
16.716 -14.158 0.033 0.29
16.827 -14.162 0.033 0.37
16.936 -14.163 0.032 0.33
17.033 -14.153 0.031 0.34
17.106 -14.169 0.031 0.32
17.215 -14.168 0.03 0.34
17.313 -14.158 0.03 0.32
17.44 -14.171 0.029 0.31
17.545 -14.165 0.028 0.34
17.658 -14.165 0.027 0.32
17.76 -14.156 0.027 0.28
17.84 -14.174 0.026 0.27
17.955 -14.174 0.026 0.38
18.053 -14.159 0.025 0.26
18.186 -14.171 0.024 0.38
18.297 -14.166 0.024 0.32
18.409 -14.161 0.023 0.32
18.528 -14.16 0.022 0.32
18.611 -14.177 0.022 0.32
18.733 -14.178 0.021 0.32
18.84 -14.166 0.02 0.28
18.963 -14.165 0.019 0.34
19.088 -14.165 0.019 0.29
19.217 -14.168 0.018 0.36
19.342 -14.167 0.017 0.32
19.424 -14.18 0.016 0.3
19.558 -14.184 0.015 0.33
19.665 -14.168 0.015 0.25
19.791 -14.164 0.014 0.33
19.919 -14.161 0.013 0.31
20.05 -14.16 0.012 0.27
20.187 -14.162 0.012 0.38
20.278 -14.179 0.011 0.31
20.405 -14.172 0.01 0.33
20.536 -14.168 0.009 0.31
20.666 -14.163 0.008 0.27
20.8 -14.158 0.008 0.33
20.944 -14.16 0.007 0.31
21.066 -14.147 0.006 0.29
21.193 -14.184 0.005 0.31
21.326 -14.176 0.004 0.28
21.472 -14.176 0.003 0.29
21.598 -14.163 0.002 0.27
21.728 -14.15 0.002 0.31
21.866 -14.143 0.001 0.33
22.006 -14.136 -0.0 0.29
22.143 -14.175 -0.001 0.29
22.285 -14.168 -0.002 0.38
22.304 -14.081 -0.002 0.22
22.416 -14.054 -0.003 0.41
22.559 -14.045 -0.004 0.23
22.705 -14.037 -0.004 0.26
22.996 -14.118 -0.007 0.24
23.17 -14.174 -0.008 0.31
23.33 -14.172 -0.009 0.34
23.487 -14.167 -0.01 0.28
23.647 -14.162 -0.011 0.28
23.82 -14.165 -0.013 0.28
23.973 -14.154 -0.014 0.28
24.15 -14.157 -0.015 0.3
24.271 -14.176 -0.016 0.3
24.446 -14.176 -0.017 0.25
24.61 -14.168 -0.018 0.18
19.224 -10.981 0.031 0.26
19.247 -10.914 0.032 0.45
19.241 -10.83 0.032 0.29
19.222 -10.741 0.032 0.3
19.244 -10.673 0.032 0.52
19.488 -10.689 0.031 0.25
19.562 -10.65 0.03 0.42
19.657 -10.622 0.03 0.41
19.604 -10.514 0.031 0.55
26.567 -14.151 -0.031 0.24
26.758 -14.146 -0.033 0.28
26.931 -14.183 -0.034 0.28
27.119 -14.173 -0.035 0.27
27.316 -14.167 -0.037 0.27
27.524 -14.166 -0.038 0.25
27.716 -14.155 -0.039 0.17
27.923 -14.15 -0.041 0.42
28.124 -14.142 -0.042 0.22
28.309 -14.179 -0.044 0.18
28.536 -14.181 -0.045 0.4
28.733 -14.167 -0.047 0.21
28.953 -14.162 -0.048 0.2
29.174 -14.157 -0.05 0.38
29.395 -14.151 -0.051 0.23
29.625 -14.147 -0.053 0.29
29.697 -14.125 -0.053 0.26
29.832 -14.074 -0.054 0.32
30.086 -14.079 -0.056 0.14
30.515 -14.163 -0.059 0.39
30.742 -14.152 -0.061 0.21
31.01 -14.157 -0.063 0.24
31.242 -14.145 -0.064 0.25
31.456 -14.182 -0.066 0.18
31.725 -14.184 -0.068 0.18
31.974 -14.175 -0.07 0.23
32.227 -14.167 -0.072 0.18
32.456 -14.146 -0.073 0.12
21.483 -9.274 0.021 0.19
21.364 -9.142 0.023 0.11
33.256 -14.185 -0.079 0.24
33.51 -14.17 -0.081 0.17
33.791 -14.164 -0.083 0.13
34.092 -14.164 -0.085 0.17
34.373 -14.155 -0.087 0.21
34.626 -14.132 -0.089 0.19
34.924 -14.126 -0.091 0.28
35.197 -14.172 -0.093 0.19
35.494 -14.163 -0.095 0.17
35.795 -14.153 -0.098 0.16
36.113 -14.148 -0.1 0.23
36.388 -14.124 -0.102 0.21
36.705 -14.115 -0.104 0.14
36.971 -14.084 -0.106 0.36
37.066 -14.054 -0.107 0.11
37.393 -14.044 -0.109 0.14
37.988 -14.131 -0.114 0.16
38.313 -14.116 -0.116 0.0
38.666 -14.108 -0.119 0.0
39.046 -14.108 -0.121 0.12
39.412 -14.101 -0.124 0.12
39.76 -14.155 -0.127 0.14
40.136 -14.148 -0.13 0.16
40.515 -14.138 -0.132 0.1
40.95 -14.146 -0.136 0.15
41.371 -14.147 -0.139 0.0
41.73 -14.123 -0.141 0.0
42.174 -14.126 -0.145 0.0
42.583 -14.115 -0.148 0.08
43.003 -14.18 -0.151 0.0
43.209 -14.097 -0.152 0.0
43.729 -14.115 -0.156 0.0
44.301 -14.147 -0.161 0.0
44.728 -14.129 -0.164 0.0
45.202 -14.123 -0.167 0.0
45.634 -14.101 -0.171 0.0
46.117 -14.171 -0.174 0.0
46.572 -14.151 -0.178 0.0
47.061 -14.138 -0.181 0.0
47.603 -14.139 -0.186 0.0
48.104 -14.123 -0.189 0.0
48.625 -14.111 -0.193 0.0
49.178 -14.104 -0.197 0.0
49.712 -14.173 -0.202 0.09
38.432 -10.69 -0.109 0.3
38.458 -10.567 -0.109 0.43
38.705 -10.505 -0.11 0.0
38.898 -10.426 -0.112 0.0
51.271 -13.579 -0.212 0.0
51.288 -13.497 -0.212 0.0
54.481 -14.156 -0.238 0.0
55.161 -14.148 -0.243 0.0
55.816 -14.13 -0.248 0.0
56.514 -14.118 -0.253 0.0
56.948 -14.037 -0.257 0.0
57.934 -14.087 -0.264 0.0
58.652 -14.165 -0.27 0.0
59.453 -14.161 -0.276 0.0
60.2 -14.14 -0.282 0.0
61.031 -14.133 -0.288 0.0
61.849 -14.118 -0.294 0.0
62.652 -14.095 -0.3 0.0
63.591 -14.097 -0.308 0.0
63.931 -14.067 -0.31 0.0
65.31 -14.156 -0.321 0.0
66.236 -14.139 -0.328 0.0
67.196 -14.124 -0.335 0.0
68.192 -14.11 -0.343 0.0
69.2 -14.092 -0.351 0.0
70.3 -14.087 -0.359 0.0
70.795 -14.071 -0.363 0.0
72.348 -14.144 -0.375 0.0
73.473 -14.125 -0.384 0.0
74.65 -14.108 -0.393 0.0
75.886 -14.096 -0.403 0.0
77.201 -14.09 -0.413 0.0
61.548 -7.959 -0.283 0.0
61.203 -6.452 -0.279 0.0
61.06 -6.243 -0.278 0.0
61.008 -6.044 -0.277 0.0
60.985 -5.848 -0.277 0.0
60.952 -5.748 -0.277 0.0
60.938 -5.554 -0.277 0.0
60.931 -5.36 -0.276 0.0
60.956 -5.17 -0.276 0.0
60.946 -4.976 -0.276 0.0
61.021 -4.789 -0.277 0.0
61.183 -4.609 -0.278 0.0
61.503 -4.536 -0.28 0.0
61.864 -4.367 -0.283 0.0
62.438 -4.211 -0.288 0.0
62.934 -4.046 -0.291 0.0
63.807 -3.901 -0.298 0.0
64.859 -3.761 -0.306 0.0
44.9 -1.959 -0.148 0.0
44.914 -1.819 -0.148 0.0
73.816 -2.541 -0.376 0.0
77.196 -2.295 -0.403 0.0
78.557 12.533 -0.91 0.0
78.085 12.709 -0.903 0.0
78.091 12.836 -0.904 0.0
77.701 13.022 -0.899 0.0
77.49 13.237 -0.896 0.0
77.105 13.421 -0.892 0.0
72.812 12.908 -0.831 0.0
72.547 13.096 -0.828 0.0
72.041 13.238 -0.821 0.0
71.698 13.292 -0.817 0.0
71.657 13.517 -0.817 0.0
71.202 13.663 -0.811 0.0
67.094 13.311 -0.753 0.0
66.987 13.508 -0.752 0.0
73.132 16.311 -0.845 0.0
57.078 13.385 -0.616 0.0
57.063 13.571 -0.617 0.0
72.436 17.957 -0.841 0.0
72.408 18.071 -0.841 0.0
52.856 13.361 -0.559 0.0
52.754 13.511 -0.558 0.0
68.245 19.211 -0.788 0.0
70.084 19.967 -0.816 0.09
70.027 20.189 -0.816 0.17
70.013 20.424 -0.817 0.0
70.006 20.66 -0.818 0.0
64.833 19.464 -0.743 0.0
40.618 13.235 -0.393 0.0
52.624 18.353 -0.576 0.25
52.549 18.512 -0.575 0.23
52.453 18.664 -0.575 0.25
52.364 18.817 -0.574 0.21
52.275 18.971 -0.574 0.2
52.224 19.046 -0.574 0.27
52.089 19.182 -0.573 0.0
54.776 20.368 -0.614 0.0
34.941 13.108 -0.318 0.11
34.815 13.186 -0.316 0.22
34.738 13.281 -0.316 0.27
34.633 13.366 -0.315 0.0
37.146 16.458 -0.364 0.0
36.82 16.452 -0.36 0.0
36.998 16.671 -0.363 0.12
36.778 16.711 -0.361 0.2
36.62 16.778 -0.359 0.29
36.248 16.677 -0.354 0.12
35.947 16.675 -0.35 0.42
35.838 16.762 -0.349 0.23
35.625 16.798 -0.347 0.23
35.543 16.896 -0.346 0.24
35.583 17.053 -0.348 0.2
35.566 17.182 -0.348 0.16
35.648 17.291 -0.35 0.41
35.596 17.404 -0.35 0.23
35.639 17.564 -0.351 0.18
35.6 17.684 -0.352 0.41
35.566 17.807 -0.352 0.23
35.604 17.966 -0.353 0.18
35.582 18.095 -0.354 0.39
35.655 18.203 -0.356 0.22
35.626 18.329 -0.356 0.24
36.244 18.792 -0.367 0.2
36.13 18.877 -0.366 0.12
24.855 13.077 -0.188 0.36
24.784 13.139 -0.188 0.34
24.72 13.205 -0.187 0.34
24.706 13.297 -0.188 0.44
35.576 19.233 -0.361 0.26
35.63 19.407 -0.363 0.16
35.534 19.499 -0.363 0.31
35.276 19.503 -0.359 0.14
35.01 19.499 -0.356 0.39
34.893 19.578 -0.355 0.22
34.727 19.628 -0.354 0.21
34.399 19.514 -0.349 0.33
34.206 19.546 -0.347 0.32
34.005 19.574 -0.344 0.33
33.823 19.61 -0.342 0.33
33.644 19.648 -0.341 0.29
33.451 19.676 -0.338 0.33
33.268 19.71 -0.336 0.32
33.107 19.684 -0.334 0.29
32.925 19.716 -0.332 0.34
32.744 19.748 -0.33 0.3
32.559 19.776 -0.328 0.31
32.371 19.801 -0.326 0.32
32.208 19.841 -0.325 0.32
32.033 19.872 -0.323 0.31
31.882 19.847 -0.321 0.32
31.716 19.882 -0.319 0.32
31.54 19.91 -0.317 0.33
31.363 19.936 -0.315 0.33
31.202 19.972 -0.314 0.34
31.033 20.002 -0.312 0.34
30.853 20.023 -0.31 0.3
30.728 20.01 -0.308 0.36
30.553 20.033 -0.307 0.29
30.395 20.066 -0.305 0.21
30.172 20.055 -0.302 0.54
30.107 20.149 -0.302 0.0
29.892 20.141 -0.3 0.0
29.73 20.168 -0.298 0.0
29.61 20.155 -0.297 0.0
29.44 20.174 -0.295 0.0
29.283 20.202 -0.293 0.0
29.125 20.228 -0.292 0.0
29.029 20.297 -0.291 0.1
28.811 20.28 -0.288 0.17
28.674 20.318 -0.287 0.34
28.553 20.299 -0.286 0.34
28.407 20.33 -0.284 0.3
28.324 20.406 -0.284 0.41
28.442 20.627 -0.287 0.0
28.376 20.715 -0.287 0.0
27.789 20.555 -0.279 0.12
27.692 20.551 -0.278 0.49
27.631 20.64 -0.278 0.0
27.767 20.879 -0.281 0.07
26.984 20.555 -0.27 0.35
26.84 20.579 -0.269 0.34
26.685 20.594 -0.267 0.32
26.565 20.634 -0.266 0.3
26.543 20.685 -0.266 0.48
26.645 20.899 -0.269 0.0
26.642 21.032 -0.27 0.0
26.005 20.795 -0.261 0.19
25.869 20.82 -0.26 0.39
26.009 21.068 -0.264 0.0
22.056 18.033 -0.194 0.21
21.882 18.006 -0.192 0.28
21.817 18.068 -0.192 0.39
21.725 18.107 -0.191 0.32
21.653 18.162 -0.191 0.32
21.553 18.194 -0.19 0.29
21.489 18.198 -0.189 0.48
21.49 18.315 -0.19 0.27
21.435 18.385 -0.19 0.37
21.422 18.492 -0.191 0.32
21.39 18.581 -0.192 0.29
21.371 18.683 -0.192 0.47
21.324 18.76 -0.193 0.18
14.945 13.18 -0.074 0.28
14.856 13.184 -0.073 0.51
14.796 13.215 -0.073 0.27
14.727 13.236 -0.072 0.46
14.692 13.289 -0.072 0.36
14.713 13.391 -0.073 0.62
14.731 13.493 -0.074 0.27
21.105 19.407 -0.196 0.35
21.098 19.524 -0.197 0.34
20.931 19.492 -0.195 0.21
20.709 19.407 -0.192 0.33
20.643 19.466 -0.192 0.4
20.507 19.461 -0.191 0.31
20.426 19.506 -0.19 0.39
20.34 19.485 -0.189 0.28
20.262 19.532 -0.189 0.34
20.15 19.547 -0.188 0.3
20.073 19.595 -0.188 0.2
19.903 19.551 -0.186 0.46
19.843 19.615 -0.186 0.32
19.734 19.631 -0.185 0.25
19.627 19.586 -0.183 0.39
19.55 19.632 -0.183 0.28
19.442 19.646 -0.182 0.39
19.379 19.705 -0.182 0.34
19.268 19.716 -0.181 0.34
19.133 19.702 -0.179 0.36
18.996 19.684 -0.178 0.25
18.903 19.71 -0.177 0.21
18.841 19.708 -0.177 0.51
18.716 19.701 -0.175 0.29
18.66 19.765 -0.175 0.31
18.521 19.742 -0.174 0.32
18.419 19.758 -0.173 0.35
18.299 19.752 -0.172 0.25
18.247 19.821 -0.172 0.44
18.363 20.011 -0.175 0.24
18.119 19.869 -0.171 0.25
17.952 19.81 -0.169 0.28
17.875 19.85 -0.169 0.36
17.775 19.864 -0.168 0.34
17.682 19.885 -0.167 0.32
17.537 19.848 -0.166 0.36
17.525 19.896 -0.166 0.25
17.665 20.183 -0.17 0.36
17.84 20.514 -0.176 0.48
17.395 20.129 -0.167 0.25
17.176 20.001 -0.164 0.2
17.434 20.433 -0.171 0.39
17.118 20.19 -0.165 0.19
16.844 19.929 -0.16 0.27
16.888 20.109 -0.163 0.47
16.795 20.127 -0.162 0.12
16.579 19.995 -0.159 0.43
16.446 19.962 -0.157 0.34
16.362 19.987 -0.157 0.25
16.288 20.024 -0.156 0.26
16.542 20.403 -0.163 0.33
16.47 20.445 -0.162 0.2
18.13 22.656 -0.201 0.26
23.908 30.083 -0.333 0.3
15.802 19.998 -0.152 0.2
16.846 21.46 -0.177 0.38
17.959 23.029 -0.204 0.21
17.915 23.123 -0.204 0.21
16.99 21.998 -0.184 0.16
16.536 21.548 -0.175 0.39
16.486 21.624 -0.176 0.26
16.323 21.55 -0.173 0.31
16.136 21.442 -0.171 0.26
16.064 21.487 -0.17 0.44
16.566 22.305 -0.184 0.23
15.274 20.631 -0.154 0.22
15.198 20.663 -0.154 0.46
15.209 20.815 -0.156 0.36
15.12 20.831 -0.155 0.19
15.936 22.102 -0.176 0.46
16.023 22.371 -0.18 0.25
15.509 21.797 -0.169 0.23
14.726 20.764 -0.151 0.23
15.588 22.129 -0.174 0.45
14.947 21.359 -0.16 0.18
14.807 21.301 -0.158 0.29
14.402 20.857 -0.15 0.38
14.294 20.841 -0.149 0.35
14.23 20.887 -0.149 0.35
11.829 17.414 -0.09 0.32
11.733 17.39 -0.088 0.36
11.255 16.793 -0.078 0.27
11.238 16.882 -0.079 0.41
11.18 16.911 -0.079 0.37
11.202 17.059 -0.081 0.44
11.194 17.165 -0.082 0.18
11.152 17.218 -0.082 0.59
10.896 16.881 -0.076 0.32
11.163 17.416 -0.084 0.27
11.251 17.675 -0.088 0.45
10.607 16.777 -0.073 0.36
10.654 16.969 -0.075 0.2
10.432 16.733 -0.071 0.45
10.407 16.81 -0.072 0.36
10.391 16.843 -0.072 0.41
10.189 16.631 -0.068 0.3
9.928 16.32 -0.062 0.32
9.853 16.311 -0.062 0.38
9.874 16.462 -0.064 0.32
9.809 16.471 -0.063 0.39
9.728 16.452 -0.062 0.43
9.567 16.296 -0.059 0.46
9.491 16.224 -0.058 0.34
9.456 16.282 -0.058 0.51
9.369 16.249 -0.057 0.38
9.31 16.265 -0.057 0.36
9.254 16.285 -0.057 0.53
9.237 16.375 -0.058 0.28
9.176 16.388 -0.058 0.58
9.198 16.488 -0.059 0.28
9.094 16.423 -0.058 0.57
9.446 17.188 -0.069 0.44
9.474 17.368 -0.072 0.27
8.973 16.571 -0.059 0.27
8.89 16.541 -0.058 0.3
8.831 16.556 -0.057 0.57
8.948 16.839 -0.062 0.23
8.829 16.741 -0.06 0.57
8.956 17.115 -0.065 0.19
8.758 16.864 -0.061 0.28
8.634 16.752 -0.059 0.4
8.57 16.758 -0.058 0.42
8.481 16.712 -0.057 0.29
8.418 16.654 -0.056 0.48
8.375 16.698 -0.056 0.41
8.343 16.765 -0.057 0.33
8.377 16.967 -0.06 0.52
8.152 16.643 -0.054 0.39
8.278 17.036 -0.06 0.3
8.46 17.552 -0.068 0.18
8.286 17.259 -0.063 0.59
8.443 17.731 -0.07 0.26
8.38 17.741 -0.069 0.34
8.337 17.794 -0.07 0.46
8.226 17.703 -0.068 0.16
7.766 16.849 -0.054 0.56
7.703 16.851 -0.054 0.27
7.634 16.839 -0.054 0.57
7.613 16.864 -0.054 0.17
7.589 16.951 -0.055 0.59
7.817 17.612 -0.065 0.31
7.958 18.085 -0.071 0.21
7.449 17.07 -0.056 0.31
7.364 17.02 -0.054 0.51
7.312 17.046 -0.054 0.29
7.267 17.016 -0.054 0.57
7.536 17.801 -0.065 0.4
7.774 18.53 -0.076 0.32
7.737 18.604 -0.077 0.54
7.553 18.323 -0.072 0.25
7.014 17.163 -0.054 0.32
6.951 17.162 -0.054 0.38
7.524 18.667 -0.077 0.19
6.558 16.413 -0.042 0.99
6.512 16.446 -0.042 0.99
6.464 16.476 -0.043 0.99
6.42 16.517 -0.043 0.99
6.379 16.565 -0.043 0.99
6.342 16.626 -0.044 0.99
6.292 16.651 -0.044 0.99
6.273 16.68 -0.044 0.99
6.228 16.72 -0.045 0.99
6.216 16.85 -0.046 0.8
6.909 18.92 -0.077 0.45
6.556 18.125 -0.065 0.17
7.021 19.611 -0.086 0.46
6.948 19.599 -0.086 0.29
6.903 19.571 -0.085 0.43
6.828 19.552 -0.085 0.26
6.771 19.589 -0.085 0.57
6.719 19.637 -0.085 0.25
6.678 19.72 -0.086 0.46
6.856 20.46 -0.097 0.32
6.722 20.269 -0.094 0.31
6.7 20.312 -0.094 0.36
6.723 20.599 -0.098 0.35
6.695 20.734 -0.1 0.43
6.757 21.153 -0.106 0.38
6.751 21.367 -0.109 0.25
6.673 21.354 -0.108 0.5
6.718 21.738 -0.113 0.0
12.471 40.659 -0.391 0.1
9.734 32.075 -0.264 0.2
9.608 32.021 -0.263 0.34
9.519 32.091 -0.264 0.43
9.437 32.184 -0.265 0.33
11.865 40.969 -0.392 0.22
9.694 33.852 -0.288 0.22
9.574 33.834 -0.287 0.3
9.542 33.926 -0.288 0.17
8.549 30.757 -0.242 0.17
8.443 30.749 -0.241 0.0
8.352 30.797 -0.242 0.0
8.249 30.798 -0.241 0.0
8.143 30.789 -0.241 0.0
9.059 34.708 -0.297 0.0
9.062 34.945 -0.3 0.0
9.804 39.341 -0.363 0.3
9.673 39.343 -0.362 0.1
9.462 39.009 -0.357 0.0
9.167 38.317 -0.347 0.12
9.094 38.277 -0.346 0.2
8.961 38.251 -0.345 0.0
8.859 38.359 -0.346 0.12
7.864 34.533 -0.291 0.1
7.44 33.146 -0.271 0.0
7.572 34.244 -0.286 0.06
7.403 33.984 -0.282 0.14
8.253 38.187 -0.342 0.21
8.363 39.296 -0.358 0.11
8.357 39.888 -0.366 0.14
7.001 33.924 -0.28 0.11
6.882 33.887 -0.279 0.0
6.8 34.03 -0.281 0.0
9.6 48.898 -0.493 0.09
6.438 33.588 -0.274 0.44
7.351 39.036 -0.351 0.11
7.202 38.918 -0.349 0.17
6.988 38.43 -0.342 0.18
6.895 38.61 -0.344 0.15
6.776 38.643 -0.344 0.0
7.638 44.402 -0.426 0.12
6.35 37.243 -0.324 0.21
6.224 37.206 -0.323 0.38
6.196 37.772 -0.331 0.23
6.08 37.809 -0.331 0.18
5.977 37.928 -0.333 0.43
5.86 37.957 -0.333 0.0
7.603 50.353 -0.508 0.0
6.852 45.851 -0.444 0.0
6.721 45.967 -0.446 0.08
6.713 46.94 -0.459 0.0
6.494 46.448 -0.452 0.12
6.261 45.832 -0.443 0.0
6.192 46.416 -0.451 0.09
5.944 45.646 -0.44 0.21
5.816 45.788 -0.441 0.18
5.786 46.134 -0.446 0.2
5.583 45.67 -0.439 0.18
5.449 45.769 -0.441 0.18
5.357 46.234 -0.447 0.22
5.108 45.323 -0.434 0.26
4.961 45.299 -0.433 0.0
4.891 45.998 -0.443 0.12
5.049 48.222 -0.474 0.0
4.83 47.563 -0.465 0.0
4.682 47.6 -0.465 0.0
4.716 49.546 -0.492 0.06
4.466 48.528 -0.478 0.18
4.347 48.929 -0.483 0.0
4.195 48.964 -0.483 0.0
4.714 56.101 -0.584 0.0
4.541 56.157 -0.584 0.0
4.365 56.169 -0.584 0.0
4.195 56.267 -0.585 0.0
4.01 56.168 -0.584 0.0
3.84 56.28 -0.585 0.0
3.871 59.511 -0.63 0.0
3.981 62.746 -0.676 0.0
3.782 62.728 -0.675 0.0
3.549 62.095 -0.666 0.0
3.367 62.349 -0.67 0.0
3.181 62.567 -0.673 0.0
2.984 62.567 -0.673 0.0
2.774 62.254 -0.668 0.0
2.579 62.291 -0.668 0.0
2.49 62.515 -0.671 0.0
2.294 62.546 -0.672 0.0
2.093 62.399 -0.67 0.0
1.99 65.53 -0.713 0.0
1.796 65.953 -0.719 0.0
1.616 67.118 -0.736 0.0
1.383 66.055 -0.721 0.0
1.275 65.811 -0.717 0.0
1.058 65.169 -0.708 0.0
0.852 65.108 -0.707 0.0
0.649 65.275 -0.71 0.0
0.446 65.626 -0.714 0.0
0.241 65.785 -0.717 0.0
0.034 67.008 -0.734 0.0
-0.073 68.296 -0.752 0.0
-0.289 68.573 -0.756 0.0
-0.317 44.357 -0.416 0.07
-0.456 44.326 -0.416 0.21
-0.592 44.116 -0.413 0.2
-0.734 44.322 -0.416 0.22
-0.861 43.68 -0.407 0.1
-0.998 43.665 -0.407 0.0
-1.061 43.467 -0.404 0.13
-1.196 43.404 -0.403 0.0
-1.357 44.177 -0.414 0.0
-1.475 43.577 -0.406 0.0
-1.604 43.358 -0.403 0.06
-1.722 42.916 -0.397 0.17
-1.864 43.066 -0.399 0.12
-1.948 43.412 -0.404 0.09
-2.096 43.65 -0.407 0.15
-1.99 38.944 -0.341 0.18
-2.11 38.899 -0.341 0.18
-1.66 29.038 -0.202 0.29
-1.667 27.657 -0.183 0.26
-1.664 26.261 -0.163 0.31
-1.664 25.035 -0.146 0.29
-1.626 23.903 -0.13 0.35
-1.626 22.86 -0.116 0.33
-1.625 21.89 -0.102 0.37
-1.626 21.021 -0.09 0.3
-1.627 20.225 -0.079 0.4
-1.628 19.482 -0.068 0.36
-1.597 18.763 -0.058 0.45
-1.599 18.128 -0.05 0.28
-1.64 17.948 -0.047 0.43
-1.696 17.941 -0.047 0.43
-1.754 17.949 -0.047 0.43
-1.81 17.941 -0.047 0.44
-1.869 17.958 -0.048 0.43
-1.926 17.96 -0.048 0.41
-1.953 17.945 -0.047 0.44
-2.008 17.924 -0.047 0.62
-1.651 14.376 0.003 0.29
-1.691 14.327 0.003 0.35
-1.737 14.336 0.003 0.32
-1.78 14.313 0.003 0.48
-1.824 14.297 0.004 0.5
-1.846 14.292 0.004 0.53
-1.892 14.298 0.003 0.49
-1.943 14.336 0.003 0.26
-2.09 15.054 -0.007 0.36
-2.077 14.628 -0.002 0.36
-2.128 14.657 -0.002 0.32
-2.174 14.65 -0.002 0.64
-2.256 14.877 -0.005 0.19
-2.241 14.626 -0.002 0.43
-2.338 14.937 -0.006 0.55
-2.385 14.936 -0.006 0.37
-2.385 14.64 -0.002 0.38
-2.431 14.63 -0.002 0.45
-2.537 14.975 -0.007 0.42
-2.596 15.038 -0.008 0.39
-2.538 14.571 -0.002 0.51
-2.571 14.489 -0.001 0.31
-2.651 14.671 -0.003 0.55
-2.687 14.608 -0.003 0.41
-2.709 14.474 -0.001 0.32
-2.747 14.424 -0.0 0.58
-2.85 14.713 -0.005 0.23
-2.865 14.666 -0.004 0.47
-2.924 14.721 -0.005 0.3
-2.937 14.547 -0.002 0.61
-3.013 14.687 -0.005 0.3
-3.01 14.445 -0.001 0.36
-3.069 14.498 -0.002 0.45
-3.12 14.511 -0.002 0.46
-3.174 14.542 -0.003 0.34
-3.159 14.366 -0.001 0.23
-3.187 14.28 0.0 0.62
-3.277 14.466 -0.002 0.41
-4.127 17.93 -0.052 0.31
-4.192 17.954 -0.053 0.25
-4.25 17.946 -0.053 0.41
-4.31 17.948 -0.053 0.42
-4.34 17.951 -0.053 0.41
-4.4 17.949 -0.053 0.41
-4.461 17.955 -0.054 0.41
-4.521 17.954 -0.054 0.41
-4.577 17.942 -0.054 0.53
-4.641 17.954 -0.054 0.4
-4.698 17.944 -0.054 0.53
-4.731 17.952 -0.055 0.4
-4.79 17.948 -0.055 0.53
-4.852 17.954 -0.055 0.4
-4.909 17.939 -0.055 0.54
-4.971 17.945 -0.055 0.4
-5.028 17.931 -0.055 0.53
-5.093 17.948 -0.056 0.4
-5.152 17.941 -0.056 0.41
-5.185 17.949 -0.056 0.53
-5.247 17.949 -0.057 0.39
-5.304 17.937 -0.057 0.51
-5.37 17.952 -0.057 0.4
-5.428 17.939 -0.057 0.5
-5.49 17.943 -0.057 0.39
-5.547 17.928 -0.057 0.54
-5.587 17.955 -0.058 0.39
-5.644 17.94 -0.058 0.52
-5.695 17.907 -0.058 0.52
-5.73 17.822 -0.057 0.16
-5.829 17.935 -0.059 0.45
-5.883 17.909 -0.059 0.57
-5.887 17.735 -0.056 0.31
-5.863 17.572 -0.054 0.3
-5.864 17.393 -0.052 0.32
-5.868 17.226 -0.05 0.33
-5.873 17.064 -0.047 0.34
-5.874 16.897 -0.045 0.28
-5.882 16.75 -0.043 0.35
-5.879 16.575 -0.041 0.29
-5.881 16.417 -0.039 0.29
-5.861 16.282 -0.037 0.41
-5.863 16.128 -0.035 0.32
-5.869 15.99 -0.033 0.29
-5.866 15.829 -0.031 0.37
-5.869 15.687 -0.029 0.32
-5.875 15.552 -0.027 0.34
-5.886 15.435 -0.026 0.3
-5.9 15.401 -0.026 0.45
-5.961 15.414 -0.026 0.29
-6.007 15.39 -0.026 0.52
-6.07 15.408 -0.027 0.28
-6.119 15.391 -0.027 0.51
-6.183 15.41 -0.027 0.28
-6.25 15.435 -0.028 0.74
-6.316 15.458 -0.029 0.41
-6.35 15.472 -0.029 0.42
-6.406 15.471 -0.029 0.4
-6.462 15.467 -0.029 0.4
-6.52 15.469 -0.03 0.4
-6.577 15.469 -0.03 0.41
-6.634 15.468 -0.03 0.41
-6.688 15.458 -0.031 0.41
-6.723 15.473 -0.031 0.33
-6.775 15.459 -0.031 0.48
-6.839 15.473 -0.032 0.31
-6.892 15.462 -0.032 0.48
-6.956 15.473 -0.032 0.32
-7.003 15.449 -0.032 0.47
-7.069 15.464 -0.033 0.26
-7.091 15.449 -0.033 0.75
-7.153 15.456 -0.033 0.6
-7.22 15.473 -0.034 0.21
-7.277 15.468 -0.034 0.15
-7.4 15.474 -0.035 0.3
-7.447 15.449 -0.035 0.72
-7.497 15.49 -0.036 0.7
-7.548 15.472 -0.036 0.39
-7.608 15.471 -0.036 0.19
-7.67 15.474 -0.037 0.35
-7.72 15.452 -0.037 0.16
-7.789 15.468 -0.037 0.29
-7.843 15.454 -0.037 0.18
-7.908 15.462 -0.038 0.18
-7.944 15.472 -0.038 0.39
-7.998 15.458 -0.038 0.2
-8.065 15.468 -0.039 0.36
-8.122 15.459 -0.039 0.23
-8.188 15.467 -0.04 0.2
-8.311 15.462 -0.041 0.54
-8.331 15.441 -0.04 0.75
-8.366 15.39 -0.04 0.38
-8.427 15.386 -0.04 0.37
-8.493 15.393 -0.041 0.38
-8.552 15.385 -0.041 0.38
-8.61 15.376 -0.041 0.48
-8.684 15.394 -0.042 0.19
-10.162 17.938 -0.083 0.53
-10.244 17.951 -0.084 0.31
-10.307 17.931 -0.084 0.52
-10.392 17.949 -0.085 0.32
-10.455 17.926 -0.085 0.53
-10.54 17.942 -0.086 0.31
-10.607 17.927 -0.086 0.51
-10.694 17.945 -0.087 0.34
-10.732 17.944 -0.088 0.48
-10.931 18.146 -0.091 0.58
-11.116 18.324 -0.095 0.25
-11.23 18.381 -0.096 0.18
-11.202 18.079 -0.093 0.68
-11.244 18.02 -0.092 0.49
-11.282 18.018 -0.092 0.64
-11.503 18.242 -0.097 0.58
-11.687 18.405 -0.1 0.21
-12.128 18.966 -0.11 0.13
-11.647 18.091 -0.096 0.19
-11.688 18.029 -0.096 0.48
-11.729 17.969 -0.095 0.66
-11.793 17.944 -0.095 0.32
-11.826 17.932 -0.096 0.5
-11.918 17.95 -0.096 0.3
-11.989 17.934 -0.097 0.49
-12.076 17.941 -0.098 0.31
-12.149 17.927 -0.098 0.5
-12.241 17.942 -0.099 0.3
-12.31 17.922 -0.099 0.49
-12.37 17.948 -0.1 0.3
-12.446 17.937 -0.1 0.48
-12.533 17.942 -0.101 0.31
-12.604 17.924 -0.102 0.62
-11.012 15.562 -0.062 0.25
-11.043 15.501 -0.061 0.39
-12.85 17.912 -0.103 0.3
-11.124 15.461 -0.061 0.29
-13.009 17.954 -0.105 0.38
-13.087 17.943 -0.106 0.43
-13.172 17.94 -0.106 0.67
-11.09 15.013 -0.056 0.21
-11.095 14.922 -0.055 0.45
-13.424 17.927 -0.108 0.35
-11.142 14.839 -0.055 0.28
-11.176 14.786 -0.054 0.28
-11.195 14.716 -0.054 0.55
-13.73 17.921 -0.111 0.3
-11.341 14.715 -0.055 0.37
-11.372 14.659 -0.054 0.41
-11.409 14.612 -0.054 0.54
-15.911 20.23 -0.155 0.22
-15.882 20.128 -0.154 0.16
-14.368 18.096 -0.118 0.22
-14.398 18.018 -0.118 0.68
-12.713 15.812 -0.079 0.29
-12.724 15.725 -0.078 0.31
-12.769 15.679 -0.078 0.48
-12.843 15.669 -0.078 0.23
-14.84 18.041 -0.122 0.35
-14.898 17.996 -0.122 0.5
-14.962 17.958 -0.122 0.39
-15.036 17.932 -0.122 0.49
-15.134 17.934 -0.123 0.36
-15.225 17.927 -0.124 0.47
-15.315 17.919 -0.125 0.36
-15.412 17.918 -0.126 0.47
-15.488 17.949 -0.127 0.36
-15.579 17.94 -0.127 0.47
-15.672 17.933 -0.128 0.35
-15.762 17.923 -0.129 0.46
-15.868 17.928 -0.13 0.35
-15.956 17.914 -0.131 0.45
-16.062 17.919 -0.132 0.36
-16.125 17.933 -0.132 0.45
-16.228 17.934 -0.133 0.36
-16.316 17.918 -0.134 0.54
-16.427 17.926 -0.135 0.32
-16.526 17.921 -0.136 0.44
-16.626 17.916 -0.137 0.43
-16.729 17.913 -0.138 0.35
-16.795 17.928 -0.139 0.64
-16.81 17.831 -0.138 0.14
-16.989 17.907 -0.14 0.49
-17.027 17.835 -0.14 0.38
-17.033 17.73 -0.139 0.34
-17.04 17.626 -0.138 0.42
-17.033 17.508 -0.137 0.38
-17.013 17.432 -0.136 0.4
-17.015 17.326 -0.135 0.39
-17.016 17.218 -0.134 0.39
-17.031 17.125 -0.133 0.36
-17.028 17.015 -0.132 0.37
-17.029 16.91 -0.131 0.38
-17.022 16.797 -0.13 0.43
-17.032 16.701 -0.129 0.34
-17.009 16.627 -0.128 0.38
-17.012 16.526 -0.127 0.38
-17.012 16.423 -0.126 0.44
-17.022 16.329 -0.125 0.36
-17.022 16.227 -0.124 0.45
-17.03 16.133 -0.123 0.32
-17.022 16.024 -0.122 0.46
-17.011 15.963 -0.121 0.36
-17.011 15.864 -0.12 0.43
-17.024 15.776 -0.12 0.32
-17.016 15.67 -0.119 0.46
-17.011 15.566 -0.118 0.35
-17.015 15.473 -0.117 0.4
-17.02 15.38 -0.116 0.35
-17.073 15.379 -0.117 0.46
-17.176 15.374 -0.118 0.36
-17.287 15.376 -0.119 0.38
-17.477 15.446 -0.121 0.38
-17.582 15.441 -0.122 0.38
-17.691 15.438 -0.124 0.37
-17.795 15.431 -0.125 0.45
-17.91 15.433 -0.126 0.36
-17.994 15.455 -0.127 0.43
-18.128 15.471 -0.129 0.23
-18.199 15.433 -0.129 0.63
-18.286 15.408 -0.13 0.46
-18.542 15.426 -0.133 0.62
-18.785 15.528 -0.136 0.0
-18.769 15.466 -0.135 0.0
-18.884 15.461 -0.137 0.0
-19.113 15.449 -0.139 0.12
-19.457 15.425 -0.142 0.52
-19.499 15.408 -0.143 0.45
-19.586 15.378 -0.144 0.34
-19.723 15.385 -0.145 0.48
-23.141 17.929 -0.205 0.24
-23.282 17.922 -0.206 0.35
-23.407 17.901 -0.208 0.41
-23.556 17.897 -0.209 0.36
-23.676 17.93 -0.211 0.41
-23.823 17.924 -0.212 0.39
-23.96 17.909 -0.214 0.4
-24.109 17.903 -0.215 0.37
-24.265 17.901 -0.217 0.4
-24.415 17.893 -0.219 0.34
-24.574 17.891 -0.221 0.39
-24.729 17.885 -0.222 0.35
-24.858 17.919 -0.224 0.31
-25.028 17.922 -0.226 0.54
-25.14 17.883 -0.227 0.21
-25.541 18.047 -0.233 0.14
-25.517 17.91 -0.231 0.57
-26.015 18.137 -0.239 0.14
-26.026 18.024 -0.238 0.23
-26.055 17.984 -0.238 0.38
-26.133 17.917 -0.239 0.39
-26.289 17.902 -0.24 0.36
-26.459 17.896 -0.242 0.38
-26.636 17.895 -0.244 0.36
-26.802 17.884 -0.246 0.33
-26.989 17.886 -0.248 0.34
-27.12 17.912 -0.25 0.34
-27.298 17.906 -0.252 0.34
-27.487 17.906 -0.254 0.43
-27.652 17.891 -0.256 0.34
-23.931 15.381 -0.193 0.22
-23.912 15.263 -0.192 0.18
-28.063 17.783 -0.26 0.14
-28.247 17.776 -0.262 0.3
-28.224 17.699 -0.261 0.31
-28.226 17.577 -0.261 0.27
-28.242 17.464 -0.26 0.31
-28.245 17.344 -0.259 0.3
-28.24 17.219 -0.258 0.28
-28.246 17.101 -0.257 0.31
-28.216 17.022 -0.256 0.28
-28.214 16.901 -0.255 0.3
-28.223 16.786 -0.255 0.29
-28.222 16.665 -0.254 0.29
-28.226 16.548 -0.253 0.29
-28.234 16.434 -0.252 0.29
-28.23 16.314 -0.251 0.29
-28.231 16.196 -0.251 0.31
-28.215 16.128 -0.25 0.3
-28.227 16.018 -0.249 0.31
-28.222 15.897 -0.248 0.31
-28.217 15.779 -0.248 0.3
-28.223 15.666 -0.247 0.3
-28.219 15.548 -0.246 0.29
-28.224 15.435 -0.245 0.34
-28.224 15.377 -0.245 0.29
-28.404 15.36 -0.247 0.19
-28.759 15.435 -0.252 0.4
-28.973 15.433 -0.255 0.21
-29.149 15.409 -0.257 0.14
-29.291 15.366 -0.258 0.19
-30.0 15.498 -0.268 0.0
-29.987 15.432 -0.267 0.0
-30.651 15.41 -0.275 0.33
-30.769 15.348 -0.276 0.39
-30.957 15.32 -0.279 0.14
-36.869 18.096 -0.37 0.3
-36.838 18.009 -0.369 0.35
-36.851 17.873 -0.369 0.3
-36.847 17.728 -0.368 0.36
-36.858 17.591 -0.367 0.3
-36.85 17.445 -0.366 0.35
-36.852 17.305 -0.365 0.3
-36.864 17.169 -0.364 0.36
-36.84 17.088 -0.364 0.32
-36.846 16.95 -0.363 0.38
-37.009 16.884 -0.365 0.23
-38.274 17.315 -0.383 0.3
-38.299 17.182 -0.383 0.43
-38.424 17.093 -0.384 0.2
-38.722 17.08 -0.388 0.17
-34.213 15.03 -0.318 0.17
-34.238 14.913 -0.318 0.12
-39.676 17.13 -0.4 0.49
-39.973 17.109 -0.404 0.0
-40.428 17.153 -0.41 0.12
-40.749 17.138 -0.414 0.18
-40.978 17.083 -0.417 0.2
-41.298 17.14 -0.421 0.29
-41.474 17.061 -0.423 0.12
-42.005 17.125 -0.43 0.0
-42.25 17.07 -0.433 0.05
-43.132 17.111 -0.445 0.16
-43.375 17.05 -0.448 0.09
-44.257 17.156 -0.46 0.4
-44.546 17.107 -0.463 0.0
-45.17 17.183 -0.472 0.04
-37.744 14.228 -0.36 0.12
-45.503 16.984 -0.475 0.24
-45.513 16.825 -0.475 0.39
-45.521 16.665 -0.474 0.2
-45.489 16.573 -0.473 0.28
-45.478 16.407 -0.472 0.2
-45.492 16.251 -0.472 0.0
-45.505 16.094 -0.471 0.0
-38.899 13.625 -0.372 0.0
-40.191 13.935 -0.391 0.0
-39.133 13.431 -0.374 0.0
-45.489 15.369 -0.468 0.29
-45.49 15.21 -0.467 0.29
-45.484 15.05 -0.466 0.27
-45.478 14.889 -0.465 0.2
-45.489 14.735 -0.465 0.49
-45.493 14.578 -0.464 0.18
-45.455 14.487 -0.463 0.2
-45.468 14.334 -0.463 0.48
-45.61 14.222 -0.464 0.0
-46.892 14.298 -0.482 0.0
-48.159 14.189 -0.498 0.26
-57.118 16.726 -0.629 0.18
-57.135 16.537 -0.628 0.22
-57.154 16.348 -0.628 0.19
-57.138 16.149 -0.627 0.0
-57.189 15.97 -0.627 0.0
-57.137 15.472 -0.624 0.14
-57.137 15.28 -0.624 0.18
-57.126 15.085 -0.623 0.0
-49.256 12.845 -0.508 0.0
-57.126 14.511 -0.621 0.11
-57.112 14.316 -0.62 0.14
-57.168 14.139 -0.62 0.0
-58.441 14.356 -0.638 0.0
-59.736 14.277 -0.655 0.0
-59.899 14.117 -0.657 0.1
-72.172 16.764 -0.833 0.2
-73.119 16.742 -0.846 0.0
-73.879 16.672 -0.856 0.0
-74.85 16.767 -0.87 0.05
-76.328 16.846 -0.89 0.0
-77.445 16.837 -0.905 0.0
-65.177 13.96 -0.729 0.0
-65.033 13.716 -0.726 0.0
-64.98 13.492 -0.725 0.0
-65.089 13.301 -0.726 0.0
-65.223 13.222 -0.727 0.0
-63.964 12.758 -0.709 0.0
-61.996 12.164 -0.68 0.0
-61.859 11.935 -0.678 0.0
-61.885 11.739 -0.677 0.0
-61.98 11.555 -0.678 0.0
-70.982 11.735 -0.803 0.0
-58.608 -11.337 -0.631 0.0
-58.48 -11.503 -0.63 0.0
-58.214 -11.641 -0.627 0.0
-58.167 -11.821 -0.627 0.0
-53.161 -10.889 -0.555 0.0
-53.15 -11.061 -0.555 0.0
-52.601 -11.119 -0.548 0.0
-58.024 -12.458 -0.626 0.0
-58.575 -12.769 -0.635 0.0
-76.653 -18.876 -0.901 0.0
-76.369 -18.933 -0.897 0.0
-74.833 -18.802 -0.876 0.0
-73.086 -18.607 -0.852 0.0
-71.784 -18.515 -0.834 0.0
-70.918 -18.529 -0.822 0.0
-70.089 -18.548 -0.811 0.0
-68.218 -18.281 -0.784 0.0
-67.46 -18.192 -0.774 0.0
-66.602 -18.184 -0.762 0.0
-65.648 -18.146 -0.749 0.0
-64.699 -18.102 -0.736 0.0
-63.817 -18.071 -0.724 0.0
-62.896 -18.024 -0.712 0.0
-60.506 -17.544 -0.678 0.0
-60.42 -17.725 -0.677 0.0
-60.799 -17.94 -0.683 0.0
-60.125 -17.946 -0.674 0.0
-59.915 -18.089 -0.672 0.0
-59.288 -18.102 -0.663 0.0
-58.559 -18.081 -0.654 0.0
-57.068 -17.816 -0.633 0.0
-57.088 -18.02 -0.634 0.0
-56.429 -17.909 -0.624 0.0
-55.725 -17.878 -0.615 0.0
-55.045 -17.85 -0.606 0.0
-54.34 -17.81 -0.596 0.0
-31.757 -10.619 -0.264 0.24
-31.702 -10.711 -0.264 0.3
-32.447 -11.02 -0.275 0.26
-31.812 -10.916 -0.266 0.13
-31.708 -10.991 -0.265 0.5
-48.656 -17.052 -0.517 0.13
-31.827 -11.257 -0.268 0.0
-31.878 -11.388 -0.269 0.12
-25.388 -9.199 -0.173 0.42
-25.643 -9.383 -0.177 0.38
-25.478 -9.414 -0.175 0.32
-25.319 -9.445 -0.173 0.3
-25.379 -9.559 -0.175 0.22
-25.244 -9.598 -0.173 0.41
-24.854 -9.539 -0.168 0.25
-24.751 -9.544 -0.166 0.3
-24.898 -9.691 -0.169 0.4
-24.789 -9.738 -0.168 0.35
-24.705 -9.795 -0.167 0.35
-24.86 -9.947 -0.17 0.32
-24.991 -10.091 -0.172 0.33
-25.167 -10.254 -0.175 0.34
-25.543 -10.502 -0.182 0.49
-25.477 -10.521 -0.181 0.23
-40.139 -16.74 -0.404 0.35
-39.948 -16.808 -0.402 0.19
-39.38 -16.714 -0.394 0.23
-38.343 -16.559 -0.38 0.43
-38.079 -16.586 -0.377 0.15
-37.778 -16.526 -0.372 0.15
-37.455 -16.525 -0.368 0.14
-37.089 -16.502 -0.363 0.17
-36.747 -16.488 -0.359 0.45
-36.489 -16.51 -0.356 0.2
-36.082 -16.463 -0.35 0.0
-36.19 -16.65 -0.353 0.0
-35.838 -16.624 -0.348 0.0
-35.656 -16.608 -0.346 0.07
-35.497 -16.67 -0.344 0.09
-35.253 -16.69 -0.341 0.15
-34.955 -16.684 -0.337 0.09
-34.649 -16.671 -0.333 0.0
-33.859 -16.421 -0.322 0.0
-34.012 -16.628 -0.325 0.07
-33.781 -16.581 -0.322 0.08
-33.49 -16.569 -0.318 0.14
-33.252 -16.581 -0.315 0.16
-32.962 -16.566 -0.312 0.23
-32.701 -16.563 -0.308 0.25
-32.371 -16.524 -0.304 0.25
-32.17 -16.549 -0.302 0.27
-31.909 -16.478 -0.298 0.19
-31.677 -16.484 -0.295 0.16
-31.398 -16.464 -0.291 0.23
-31.035 -16.398 -0.286 0.18
-30.86 -16.43 -0.285 0.12
-30.51 -16.366 -0.28 0.45
-30.288 -16.37 -0.277 0.21
-29.973 -16.26 -0.272 0.28
-29.664 -16.213 -0.268 0.29
-29.549 -16.271 -0.267 0.31
-29.414 -16.317 -0.266 0.41
-29.248 -16.345 -0.264 0.19
-28.975 -16.312 -0.261 0.29
-28.671 -16.26 -0.256 0.25
-28.387 -16.157 -0.252 0.32
-28.234 -16.187 -0.251 0.28
-27.979 -16.158 -0.247 0.19
-27.86 -16.206 -0.246 0.51
-27.73 -16.247 -0.245 0.25
-27.532 -16.248 -0.243 0.23
-27.323 -16.24 -0.24 0.23
-27.128 -16.182 -0.237 0.21
-26.921 -16.173 -0.235 0.16
-26.735 -16.175 -0.232 0.43
-26.53 -16.166 -0.23 0.21
-26.348 -16.168 -0.228 0.32
-26.129 -16.147 -0.225 0.14
-25.941 -16.143 -0.223 0.42
-25.751 -16.137 -0.22 0.23
-25.59 -16.092 -0.218 0.23
-25.416 -16.094 -0.216 0.32
-25.234 -16.09 -0.214 0.29
-25.062 -16.091 -0.212 0.34
-24.872 -16.08 -0.21 0.25
-24.706 -16.083 -0.208 0.3
-24.513 -16.067 -0.205 0.29
-24.373 -16.029 -0.203 0.25
-24.206 -16.028 -0.201 0.29
-24.019 -16.013 -0.199 0.3
-23.852 -16.011 -0.197 0.23
-23.684 -16.006 -0.195 0.32
-23.447 -15.953 -0.192 0.3
-23.179 -15.877 -0.188 0.23
-23.046 -15.839 -0.186 0.34
-22.895 -15.841 -0.185 0.33
-22.796 -15.879 -0.184 0.29
-22.723 -15.934 -0.183 0.24
-22.569 -15.932 -0.182 0.32
-22.424 -15.935 -0.18 0.36
-22.272 -15.932 -0.178 0.27
-22.131 -15.884 -0.176 0.31
-21.971 -15.874 -0.174 0.33
-21.84 -15.884 -0.173 0.36
-21.69 -15.879 -0.171 0.32
-21.529 -15.865 -0.169 0.21
-21.394 -15.87 -0.168 0.37
-21.255 -15.87 -0.166 0.37
-21.134 -15.831 -0.165 0.32
-20.982 -15.82 -0.163 0.29
-20.841 -15.817 -0.161 0.34
-20.707 -15.818 -0.16 0.31
-20.586 -15.828 -0.158 0.35
-20.432 -15.812 -0.157 0.28
-20.291 -15.805 -0.155 0.3
-20.163 -15.807 -0.154 0.28
-20.045 -15.765 -0.152 0.3
-19.908 -15.758 -0.15 0.34
-19.788 -15.765 -0.149 0.33
-19.638 -15.747 -0.147 0.25
-19.527 -15.758 -0.146 0.39
-19.413 -15.767 -0.145 0.31
-19.276 -15.756 -0.143 0.24
-19.167 -15.718 -0.142 0.35
-19.056 -15.727 -0.141 0.34
-18.921 -15.715 -0.139 0.32
-18.808 -15.722 -0.138 0.32
-18.682 -15.716 -0.137 0.32
-18.535 -15.692 -0.135 0.32
-18.419 -15.693 -0.134 0.32
-18.328 -15.665 -0.132 0.34
-18.198 -15.653 -0.131 0.3
-18.091 -15.661 -0.13 0.36
-17.977 -15.661 -0.129 0.34
-17.856 -15.654 -0.127 0.32
-17.732 -15.644 -0.126 0.32
-17.614 -15.638 -0.125 0.28
-17.543 -15.624 -0.124 0.35
-17.416 -15.61 -0.122 0.32
-17.318 -15.62 -0.121 0.36
-17.182 -15.595 -0.12 0.25
-17.078 -15.599 -0.119 0.33
-16.967 -15.596 -0.117 0.32
-16.858 -15.593 -0.116 0.32
-16.782 -15.572 -0.115 0.34
-16.669 -15.565 -0.114 0.34
-16.563 -15.563 -0.113 0.37
-16.448 -15.552 -0.112 0.28
-16.349 -15.557 -0.111 0.36
-16.247 -15.557 -0.11 0.33
-16.141 -15.552 -0.109 0.37
-16.06 -15.523 -0.108 0.26
-15.96 -15.523 -0.107 0.3
-15.858 -15.522 -0.105 0.38
-15.757 -15.519 -0.104 0.38
-15.658 -15.52 -0.103 0.3
-15.551 -15.511 -0.102 0.22
-15.431 -15.487 -0.101 0.35
-15.274 -15.426 -0.099 0.27
-14.967 -15.164 -0.093 0.27
-14.942 -15.233 -0.094 0.43
-14.87 -15.256 -0.093 0.3
-14.714 -15.19 -0.091 0.45
-14.619 -15.187 -0.09 0.36
-14.587 -15.249 -0.09 0.5
-14.489 -15.243 -0.089 0.4
-14.49 -15.292 -0.09 0.28
-14.376 -15.267 -0.088 0.49
-14.155 -15.127 -0.085 0.27
-14.07 -15.131 -0.084 0.54
-14.126 -15.287 -0.086 0.26
-14.045 -15.296 -0.086 0.47
-13.91 -15.244 -0.084 0.34
-13.837 -15.213 -0.083 0.46
-13.67 -15.124 -0.08 0.34
-13.609 -15.152 -0.08 0.52
-13.57 -15.203 -0.08 0.33
-13.649 -15.39 -0.083 0.31
-13.255 -15.039 -0.075 0.25
-13.153 -15.019 -0.074 0.48
-13.097 -15.002 -0.074 0.41
-12.986 -14.969 -0.072 0.29
-12.907 -14.973 -0.072 0.45
-12.86 -15.014 -0.072 0.36
-12.805 -15.045 -0.071 0.44
-12.692 -15.007 -0.07 0.33
-12.622 -15.019 -0.069 0.48
-12.593 -15.033 -0.069 0.47
-12.594 -15.131 -0.07 0.38
-12.543 -15.166 -0.07 0.28
-12.321 -14.993 -0.066 0.52
-12.27 -15.027 -0.066 0.27
-12.175 -15.006 -0.065 0.52
-12.101 -15.01 -0.065 0.37
-11.988 -14.918 -0.063 0.38
-11.92 -14.929 -0.062 0.6
-11.939 -15.05 -0.064 0.2
-11.784 -14.951 -0.061 0.54
-11.751 -15.005 -0.062 0.24
-11.652 -14.975 -0.06 0.54
-11.583 -14.983 -0.06 0.36
-11.475 -14.94 -0.059 0.4
-11.441 -14.944 -0.058 0.39
-11.361 -14.937 -0.057 0.45
-11.281 -14.929 -0.057 0.31
-11.157 -14.861 -0.055 0.53
-11.106 -14.891 -0.055 0.31
-11.031 -14.887 -0.054 0.55
-10.964 -14.894 -0.054 0.32
-10.886 -14.837 -0.052 0.61
-10.883 -14.931 -0.053 0.21
-10.766 -14.868 -0.052 0.48
-10.678 -14.845 -0.051 0.29
-10.648 -14.901 -0.051 0.52
-10.606 -14.941 -0.051 0.32
-10.533 -14.938 -0.051 0.55
-10.489 -14.925 -0.05 0.25
-10.342 -14.814 -0.048 0.46
-10.261 -14.797 -0.047 0.41
-10.192 -14.796 -0.046 0.44
-10.151 -14.836 -0.046 0.33
-10.077 -14.828 -0.046 0.52
-10.051 -14.89 -0.046 0.33
-10.0 -14.864 -0.046 0.54
-9.917 -14.842 -0.045 0.3
-9.874 -14.878 -0.045 0.47
-9.848 -14.941 -0.045 0.42
-9.748 -14.89 -0.044 0.48
-9.794 -15.065 -0.046 0.35
-9.58 -14.836 -0.042 0.41
-9.487 -14.742 -0.04 0.24
-9.502 -14.868 -0.042 0.48
-9.385 -14.788 -0.04 0.33
-9.336 -14.812 -0.04 0.59
-9.326 -14.901 -0.041 0.38
-9.234 -14.857 -0.04 0.41
-9.16 -14.841 -0.039 0.37
-9.085 -14.824 -0.038 0.47
-9.109 -14.915 -0.039 0.45
-9.137 -15.069 -0.041 0.45
-9.077 -15.075 -0.041 0.32
-9.036 -15.116 -0.041 0.4
-8.964 -15.103 -0.041 0.41
-8.9 -15.101 -0.04 0.27
-8.796 -15.032 -0.039 0.46
-8.792 -15.081 -0.039 0.23
-8.51 -14.701 -0.033 0.45
-8.473 -14.744 -0.033 0.41
-8.439 -14.793 -0.033 0.47
-8.361 -14.763 -0.032 0.28
-8.306 -14.774 -0.032 0.49
-8.205 -14.702 -0.03 0.38
-8.165 -14.683 -0.03 0.38
-8.091 -14.66 -0.029 0.56
-7.97 -14.547 -0.027 0.3
-7.972 -14.661 -0.028 0.48
-7.901 -14.639 -0.028 0.43
-7.836 -14.628 -0.027 0.37
-7.79 -14.653 -0.027 0.45
-7.765 -14.661 -0.027 0.35
-7.722 -14.691 -0.027 0.42
-7.649 -14.664 -0.026 0.57
-7.626 -14.732 -0.027 0.34
-7.515 -14.63 -0.025 0.48
-7.459 -14.634 -0.025 0.46
-7.408 -14.648 -0.025 0.3
-7.356 -14.602 -0.024 0.5
-7.318 -14.64 -0.024 0.34
-7.255 -14.629 -0.023 0.51
-7.203 -14.639 -0.023 0.36
-7.144 -14.636 -0.023 0.46
-7.09 -14.64 -0.022 0.37
-7.048 -14.672 -0.023 0.49
-7.029 -14.692 -0.023 0.37
-6.975 -14.697 -0.022 0.67
-6.954 -14.772 -0.023 0.34
-6.884 -14.743 -0.023 0.55
-6.817 -14.721 -0.022 0.4
-6.781 -14.764 -0.022 0.43
-6.759 -14.84 -0.023 0.46
-6.696 -14.761 -0.022 0.4
-6.602 -14.676 -0.02 0.57
-6.558 -14.702 -0.02 0.39
-6.499 -14.694 -0.02 0.45
-6.425 -14.65 -0.019 0.58
-6.445 -14.822 -0.021 0.28
-6.32 -14.661 -0.018 0.38
-6.282 -14.635 -0.018 0.5
-6.248 -14.685 -0.018 0.39
-6.163 -14.61 -0.017 0.49
-6.145 -14.696 -0.018 0.39
-6.098 -14.713 -0.018 0.47
-6.03 -14.681 -0.017 0.4
-5.966 -14.655 -0.016 0.37
-5.921 -14.675 -0.016 0.46
-5.885 -14.653 -0.016 0.37
-5.819 -14.621 -0.015 0.57
-5.767 -14.625 -0.015 0.39
-5.705 -14.6 -0.014 0.44
-5.66 -14.621 -0.014 0.38
-5.61 -14.628 -0.014 0.46
-5.592 -14.72 -0.015 0.37
-5.544 -14.662 -0.014 0.46
-5.485 -14.645 -0.014 0.66
-5.287 -14.25 -0.007 0.23
-5.223 -14.214 -0.007 0.37
-5.174 -14.219 -0.007 0.32
-5.128 -14.231 -0.006 0.45
-5.076 -14.226 -0.006 0.62
-5.061 -14.255 -0.006 0.41
-5.03 -14.313 -0.007 0.26
-5.173 -14.871 -0.015 0.37
-5.118 -14.862 -0.015 0.47
-5.067 -14.867 -0.015 0.38
-5.014 -14.862 -0.014 0.42
-4.959 -14.855 -0.014 0.47
-4.939 -14.872 -0.014 0.3
-4.883 -14.859 -0.014 0.52
-4.835 -14.87 -0.014 0.38
-4.776 -14.847 -0.013 0.57
-4.73 -14.862 -0.013 0.33
-4.674 -14.849 -0.013 0.54
-4.626 -14.859 -0.013 0.29
-4.598 -14.851 -0.012 0.49
-4.545 -14.845 -0.012 0.34
-4.441 -14.667 -0.009 0.39
-4.356 -14.551 -0.007 0.54
-4.309 -14.561 -0.007 0.41
-4.267 -14.588 -0.007 0.39
-4.217 -14.587 -0.007 0.46
-4.194 -14.594 -0.007 0.46
-4.149 -14.609 -0.007 0.47
-4.101 -14.612 -0.007 0.46
-4.05 -14.61 -0.007 0.57
-4.005 -14.626 -0.007 0.36
-3.934 -14.542 -0.006 0.61
-3.881 -14.529 -0.005 0.38
-3.851 -14.508 -0.005 0.57
-3.806 -14.52 -0.005 0.32
-3.763 -14.544 -0.005 0.45
-3.725 -14.587 -0.005 0.42
-3.677 -14.589 -0.005 0.41
-3.631 -14.598 -0.005 0.43
-3.578 -14.582 -0.005 0.66
-3.557 -14.697 -0.006 0.32
-3.526 -14.671 -0.006 0.5
-3.494 -14.74 -0.007 0.38
-3.454 -14.777 -0.007 0.53
-3.408 -14.789 -0.007 0.34
-3.308 -14.566 -0.004 0.58
-3.257 -14.549 -0.003 0.34
-3.205 -14.534 -0.003 0.45
-3.184 -14.544 -0.003 0.55
-3.141 -14.57 -0.003 0.38
-3.085 -14.529 -0.003 0.48
-3.038 -14.533 -0.003 0.52
-2.992 -14.54 -0.003 0.45
-2.939 -14.514 -0.002 0.43
-2.891 -14.51 -0.002 0.42
-2.868 -14.516 -0.002 0.57
-2.83 -14.56 -0.002 0.32
-2.762 -14.453 -0.001 0.41
-2.702 -14.383 0.0 0.59
-2.66 -14.409 0.0 0.38
-2.608 -14.378 0.001 0.49
-2.592 -14.552 -0.002 0.4
-2.544 -14.414 0.0 0.38
-2.5 -14.432 0.0 0.41
-2.451 -14.416 0.001 0.64
-2.416 -14.487 -0.0 0.32
