# .PCD v.7 - Point Cloud Data file format
VERSION .7
FIELDS x y z intensity
SIZE 4 4 4 4
TYPE F F F F
COUNT 1 1 1 1
WIDTH 1844
HEIGHT 1
VIEWPOINT 0 0 0 1 0 0 0
POINTS 1844
DATA ascii
6.115 -14.627 -0.407 0.38
6.149 -14.645 -0.408 0.29
6.186 -14.604 -0.407 0.47
6.2 -14.511 -0.404 0.32
6.26 -14.524 -0.406 0.39
6.357 -14.622 -0.411 0.5
6.417 -14.635 -0.412 0.24
6.465 -14.618 -0.412 0.54
6.495 -14.624 -0.413 0.28
6.545 -14.613 -0.413 0.48
6.607 -14.627 -0.415 0.29
6.652 -14.604 -0.415 0.49
6.701 -14.59 -0.415 0.36
6.719 -14.51 -0.412 0.44
6.821 -14.608 -0.418 0.48
6.885 -14.626 -0.419 0.29
6.908 -14.615 -0.419 0.49
6.964 -14.613 -0.42 0.33
7.005 -14.582 -0.42 0.48
7.049 -14.557 -0.42 0.4
7.123 -14.592 -0.422 0.29
7.171 -14.573 -0.422 0.55
7.227 -14.572 -0.423 0.28
7.257 -14.575 -0.424 0.66
7.306 -14.559 -0.424 0.37
7.367 -14.566 -0.425 0.32
7.413 -14.543 -0.425 0.48
7.483 -14.566 -0.427 0.2
7.53 -14.546 -0.427 0.59
7.596 -14.561 -0.429 0.18
7.628 -14.565 -0.43 0.48
7.69 -14.573 -0.431 0.34
7.731 -14.54 -0.431 0.47
7.802 -14.563 -0.433 0.36
7.835 -14.514 -0.432 0.57
7.905 -14.535 -0.434 0.31
7.958 -14.522 -0.434 0.51
7.992 -14.531 -0.435 0.33
8.042 -14.514 -0.436 0.65
8.102 -14.513 -0.437 0.36
8.157 -14.505 -0.438 0.28
8.221 -14.512 -0.439 0.38
8.269 -14.49 -0.439 0.48
8.338 -14.505 -0.441 0.18
8.365 -14.499 -0.441 0.64
8.443 -14.528 -0.444 0.27
8.486 -14.498 -0.444 0.55
8.556 -14.513 -0.445 0.23
8.605 -14.491 -0.446 0.59
8.656 -14.472 -0.446 0.42
8.715 -14.469 -0.447 0.28
8.754 -14.481 -0.448 0.46
8.811 -14.472 -0.449 0.38
8.879 -14.482 -0.451 0.26
8.933 -14.467 -0.451 0.44
8.995 -14.466 -0.453 0.33
9.051 -14.455 -0.453 0.42
9.126 -14.472 -0.456 0.25
9.157 -14.471 -0.456 0.45
9.211 -14.456 -0.457 0.44
9.274 -14.454 -0.458 0.37
9.308 -14.408 -0.457 0.41
9.373 -14.409 -0.459 0.44
9.395 -14.344 -0.457 0.39
9.467 -14.354 -0.459 0.53
9.549 -14.429 -0.463 0.4
9.615 -14.431 -0.465 0.38
9.665 -14.407 -0.465 0.38
9.744 -14.426 -0.467 0.22
9.804 -14.417 -0.468 0.59
9.868 -14.414 -0.469 0.28
9.928 -14.405 -0.47 0.52
10.009 -14.424 -0.473 0.31
10.038 -14.418 -0.473 0.49
10.112 -14.428 -0.475 0.28
10.166 -14.407 -0.476 0.5
10.236 -14.411 -0.477 0.29
10.301 -14.406 -0.479 0.52
10.376 -14.414 -0.481 0.3
10.439 -14.406 -0.482 0.45
10.466 -14.396 -0.482 0.44
10.538 -14.4 -0.484 0.41
10.601 -14.391 -0.485 0.38
10.674 -14.395 -0.487 0.41
10.738 -14.387 -0.488 0.42
10.798 -14.372 -0.489 0.34
10.849 -14.346 -0.489 0.5
10.909 -14.378 -0.492 0.29
10.972 -14.368 -0.493 0.52
11.039 -14.362 -0.494 0.37
11.097 -14.343 -0.495 0.45
11.161 -14.333 -0.496 0.41
11.231 -14.329 -0.498 0.38
11.301 -14.325 -0.499 0.45
11.338 -14.326 -0.5 0.4
11.416 -14.331 -0.502 0.39
11.477 -14.315 -0.503 0.44
11.552 -14.317 -0.505 0.32
11.565 -14.241 -0.503 0.33
11.602 -14.196 -0.503 0.34
11.735 -14.266 -0.508 0.54
11.797 -14.295 -0.51 0.32
11.87 -14.292 -0.512 0.39
11.944 -14.289 -0.514 0.3
12.026 -14.296 -0.516 0.41
12.096 -14.287 -0.518 0.36
12.159 -14.27 -0.519 0.44
12.228 -14.261 -0.52 0.38
12.292 -14.29 -0.523 0.41
12.354 -14.271 -0.524 0.39
12.428 -14.265 -0.525 0.43
12.498 -14.255 -0.527 0.35
12.577 -14.254 -0.529 0.4
12.647 -14.243 -0.53 0.45
12.72 -14.235 -0.532 0.36
12.788 -14.221 -0.533 0.44
12.851 -14.246 -0.536 0.31
12.953 -14.269 -0.539 0.41
13.014 -14.246 -0.54 0.38
13.087 -14.236 -0.541 0.4
13.155 -14.219 -0.543 0.4
13.239 -14.22 -0.545 0.33
13.307 -14.203 -0.546 0.55
13.297 -14.147 -0.544 0.33
13.336 -14.1 -0.544 0.32
13.421 -14.101 -0.546 0.34
13.5 -14.095 -0.548 0.36
13.583 -14.093 -0.551 0.28
13.661 -14.084 -0.552 0.38
13.718 -14.099 -0.554 0.38
13.793 -14.087 -0.556 0.38
13.866 -14.073 -0.558 0.39
13.947 -14.067 -0.56 0.39
14.018 -14.05 -0.561 0.43
14.106 -14.049 -0.564 0.51
14.199 -14.052 -0.566 0.2
14.305 -14.025 -0.568 0.57
14.43 -14.059 -0.573 0.36
14.531 -14.068 -0.576 0.38
14.611 -14.057 -0.578 0.26
14.815 -14.164 -0.586 0.31
14.909 -14.164 -0.589 0.41
14.991 -14.153 -0.591 0.36
15.073 -14.185 -0.594 0.31
15.138 -14.157 -0.595 0.28
15.164 -14.091 -0.594 0.41
15.221 -14.056 -0.595 0.49
15.349 -14.085 -0.599 0.45
15.525 -14.156 -0.606 0.31
15.614 -14.148 -0.608 0.34
15.692 -14.174 -0.611 0.25
15.777 -14.161 -0.613 0.39
15.869 -14.153 -0.616 0.3
15.968 -14.151 -0.619 0.29
16.076 -14.158 -0.622 0.36
16.172 -14.152 -0.624 0.39
16.256 -14.135 -0.626 0.32
16.347 -14.169 -0.63 0.32
16.446 -14.165 -0.633 0.4
16.546 -14.16 -0.636 0.32
16.655 -14.163 -0.639 0.32
16.763 -14.164 -0.642 0.29
16.858 -14.154 -0.645 0.36
16.966 -14.154 -0.648 0.37
17.041 -14.171 -0.65 0.37
17.141 -14.163 -0.653 0.43
17.241 -14.155 -0.656 0.29
17.366 -14.166 -0.66 0.46
17.462 -14.153 -0.662 0.29
17.567 -14.147 -0.666 0.36
17.689 -14.154 -0.669 0.34
17.774 -14.176 -0.672 0.33
17.884 -14.172 -0.676 0.31
17.977 -14.154 -0.678 0.23
18.093 -14.153 -0.682 0.39
18.197 -14.142 -0.684 0.36
18.33 -14.154 -0.689 0.38
18.435 -14.142 -0.692 0.3
18.538 -14.175 -0.696 0.36
18.654 -14.171 -0.699 0.35
18.77 -14.166 -0.703 0.34
18.88 -14.156 -0.706 0.24
18.999 -14.152 -0.709 0.32
19.114 -14.144 -0.713 0.34
19.237 -14.142 -0.716 0.27
19.37 -14.146 -0.721 0.39
19.447 -14.156 -0.723 0.26
19.571 -14.152 -0.727 0.32
19.698 -14.15 -0.731 0.37
19.822 -14.145 -0.735 0.31
19.976 -14.16 -0.74 0.38
20.089 -14.145 -0.743 0.26
20.224 -14.145 -0.747 0.32
20.315 -14.161 -0.751 0.36
20.469 -14.173 -0.756 0.4
20.583 -14.156 -0.759 0.16
20.712 -14.149 -0.763 0.45
20.857 -14.152 -0.768 0.14
20.979 -14.139 -0.771 0.28
21.131 -14.145 -0.776 0.17
21.234 -14.165 -0.78 0.21
21.376 -14.163 -0.785 0.21
21.534 -14.171 -0.79 0.18
21.649 -14.149 -0.793 0.27
21.816 -14.16 -0.799 0.24
21.936 -14.14 -0.802 0.16
22.086 -14.139 -0.807 0.4
22.083 -14.088 -0.806 0.34
22.212 -14.072 -0.81 0.2
22.344 -14.057 -0.814 0.31
22.486 -14.048 -0.818 0.27
22.799 -14.144 -0.83 0.22
22.952 -14.139 -0.835 0.26
23.116 -14.14 -0.841 0.28
23.256 -14.175 -0.846 0.37
23.417 -14.172 -0.851 0.32
23.584 -14.173 -0.857 0.3
23.723 -14.155 -0.861 0.3
23.883 -14.148 -0.866 0.36
24.05 -14.145 -0.872 0.31
24.21 -14.137 -0.877 0.32
24.37 -14.179 -0.883 0.29
24.543 -14.176 -0.889 0.3
24.696 -14.162 -0.893 0.29
24.874 -14.16 -0.899 0.31
25.032 -14.146 -0.904 0.29
25.2 -14.136 -0.91 0.36
25.358 -14.12 -0.915 0.27
25.547 -14.12 -0.921 0.35
25.661 -14.13 -0.925 0.32
25.866 -14.138 -0.932 0.25
25.977 -14.093 -0.935 0.43
21.701 -11.69 -0.746 0.26
26.383 -14.098 -0.949 0.24
26.499 -14.054 -0.952 0.23
26.574 -14.04 -0.955 0.39
26.656 -13.976 -0.956 0.25
26.724 -13.905 -0.957 0.25
26.786 -13.83 -0.958 0.18
26.856 -13.759 -0.959 0.39
26.956 -13.704 -0.962 0.21
27.006 -13.623 -0.962 0.24
27.074 -13.604 -0.964 0.2
27.127 -13.524 -0.964 0.12
21.918 -10.847 -0.739 0.14
22.187 -10.807 -0.747 0.32
22.318 -10.784 -0.752 0.16
22.606 -10.748 -0.761 0.38
22.809 -10.8 -0.769 0.0
23.201 -10.808 -0.783 0.0
25.567 -11.809 -0.882 0.04
23.579 -10.804 -0.796 0.0
28.058 -12.744 -0.984 0.0
28.167 -12.687 -0.987 0.0
28.207 -12.652 -0.988 0.12
26.382 -11.735 -0.909 0.27
26.441 -11.662 -0.91 0.24
26.816 -11.727 -0.924 0.14
26.902 -11.664 -0.926 0.23
27.106 -11.651 -0.933 0.16
27.083 -11.541 -0.931 0.27
27.455 -11.648 -0.946 0.31
27.602 -11.608 -0.95 0.26
27.793 -11.585 -0.957 0.37
28.044 -11.586 -0.966 0.27
28.065 -11.492 -0.965 0.29
28.129 -11.415 -0.966 0.36
28.406 -11.424 -0.976 0.34
28.771 -11.518 -0.991 0.32
29.123 -11.552 -1.004 0.29
29.282 -11.509 -1.009 0.36
29.504 -11.489 -1.017 0.34
29.667 -11.445 -1.022 0.28
29.835 -11.402 -1.027 0.27
30.077 -11.386 -1.036 0.37
30.31 -11.42 -1.045 0.28
30.417 -11.351 -1.048 0.2
24.982 -9.239 -0.823 0.0
26.109 -9.561 -0.868 0.0
30.938 -11.214 -1.065 0.0
27.241 -9.781 -0.912 0.13
27.037 -9.612 -0.902 0.31
26.995 -9.549 -0.9 0.18
27.012 -9.46 -0.899 0.16
26.325 -9.128 -0.87 0.19
27.018 -9.272 -0.897 0.16
27.032 -9.182 -0.897 0.17
27.373 -9.202 -0.909 0.42
27.347 -9.097 -0.907 0.23
27.463 -9.088 -0.911 0.21
27.864 -9.124 -0.926 0.3
28.102 -9.103 -0.935 0.39
27.98 -8.967 -0.929 0.22
27.806 -8.815 -0.921 0.29
28.618 -8.973 -0.952 0.27
28.758 -8.918 -0.957 0.25
28.828 -8.84 -0.958 0.3
28.945 -8.826 -0.963 0.32
29.113 -8.777 -0.968 0.27
29.303 -8.734 -0.975 0.33
29.424 -8.67 -0.979 0.26
29.733 -8.659 -0.99 0.28
29.905 -8.607 -0.996 0.25
30.335 -8.628 -1.012 0.27
30.524 -8.629 -1.019 0.3
30.772 -8.595 -1.028 0.31
30.653 -8.458 -1.022 0.21
31.204 -8.504 -1.043 0.45
31.655 -8.52 -1.06 0.21
31.981 -8.5 -1.072 0.3
32.143 -8.435 -1.077 0.27
32.374 -8.441 -1.086 0.27
32.565 -8.382 -1.092 0.16
32.725 -8.313 -1.098 0.17
33.019 -8.277 -1.108 0.09
33.202 -8.212 -1.114 0.09
33.594 -8.197 -1.129 0.09
34.044 -8.193 -1.146 0.09
34.449 -8.233 -1.161 0.08
34.917 -8.229 -1.179 0.08
35.271 -8.195 -1.192 0.09
35.472 -8.124 -1.199 0.0
35.634 -8.043 -1.204 0.0
35.977 -8.002 -1.217 0.0
34.27 -7.454 -1.148 0.0
34.841 -7.463 -1.17 0.0
35.351 -7.456 -1.189 0.0
35.736 -7.42 -1.203 0.0
36.196 -7.397 -1.22 0.0
36.435 -7.326 -1.229 0.0
36.795 -7.278 -1.242 0.0
36.661 -7.192 -1.236 0.0
37.194 -7.175 -1.256 0.0
37.295 -7.073 -1.259 0.0
37.403 -6.972 -1.263 0.0
37.498 -6.867 -1.266 0.0
37.436 -6.735 -1.262 0.0
37.501 -6.625 -1.264 0.0
34.093 -5.915 -1.13 0.0
34.579 -5.943 -1.149 0.0
35.322 -5.956 -1.177 0.0
35.966 -5.948 -1.201 0.0
36.36 -5.895 -1.216 0.0
36.755 -5.841 -1.231 0.0
37.071 -5.771 -1.242 0.0
37.336 -5.692 -1.252 0.0
37.483 -5.654 -1.257 0.0
37.367 -5.517 -1.252 0.0
36.691 -5.3 -1.225 0.11
36.72 -5.186 -1.226 0.09
36.742 -5.072 -1.226 0.0
37.063 -4.997 -1.238 0.0
37.332 -4.914 -1.248 0.0
37.775 -4.912 -1.264 0.0
37.923 -4.81 -1.27 0.0
36.387 -4.384 -1.209 0.0
37.306 -4.375 -1.244 0.0
37.667 -4.297 -1.257 0.0
38.247 -4.241 -1.279 0.0
38.609 -4.22 -1.293 0.0
38.793 -4.116 -1.3 0.0
38.935 -4.008 -1.305 0.0
39.049 -3.896 -1.309 0.0
39.262 -3.792 -1.317 0.0
39.279 -3.669 -1.317 0.0
39.358 -3.552 -1.319 0.0
38.876 -3.447 -1.301 0.0
38.783 -3.316 -1.297 0.0
39.09 -3.219 -1.308 0.0
36.265 -2.873 -1.198 0.0
37.832 -2.877 -1.259 0.0
38.341 -2.794 -1.278 0.0
38.719 -2.699 -1.292 0.0
38.635 -2.632 -1.289 0.0
38.368 -2.493 -1.278 0.0
38.043 -2.352 -1.265 0.0
37.886 -2.223 -1.259 0.0
37.029 -2.057 -1.226 0.0
37.105 -1.944 -1.228 0.07
37.057 -1.825 -1.226 0.0
37.218 -1.774 -1.232 0.0
37.391 -1.664 -1.239 0.0
37.616 -1.556 -1.247 0.0
38.237 -1.461 -1.271 0.0
40.145 -1.406 -1.345 0.0
41.024 -1.307 -1.378 0.0
40.908 -1.175 -1.374 0.0
40.884 -1.11 -1.373 0.0
40.798 -0.98 -1.369 0.0
40.733 -0.85 -1.367 0.0
40.667 -0.721 -1.364 0.0
40.609 -0.592 -1.362 0.0
40.637 -0.465 -1.363 0.0
40.588 -0.337 -1.361 0.0
40.513 -0.273 -1.358 0.0
40.455 -0.145 -1.356 0.0
40.396 -0.018 -1.353 0.0
36.038 0.057 -1.399 0.0
35.986 0.17 -1.397 0.0
35.939 0.283 -1.395 0.0
35.906 0.395 -1.394 0.0
35.861 0.507 -1.392 0.0
35.837 0.62 -1.391 0.0
35.86 0.676 -1.392 0.0
35.922 0.79 -1.394 0.0
35.979 0.905 -1.397 0.0
35.968 1.018 -1.397 0.0
35.973 1.131 -1.397 0.0
35.949 1.243 -1.396 0.0
35.929 1.355 -1.396 0.0
35.917 1.412 -1.395 0.0
35.88 1.523 -1.394 0.0
35.817 1.633 -1.391 0.0
35.778 1.744 -1.39 0.0
35.739 1.855 -1.388 0.0
35.715 1.966 -1.387 0.0
35.71 2.078 -1.387 0.0
35.709 2.134 -1.387 0.0
35.718 2.248 -1.388 0.0
35.693 2.359 -1.387 0.0
35.681 2.471 -1.387 0.0
35.645 2.581 -1.386 0.0
35.617 2.691 -1.385 0.0
35.601 2.802 -1.385 0.0
35.572 2.856 -1.384 0.0
35.549 2.967 -1.383 0.0
35.546 3.079 -1.383 0.0
35.532 3.19 -1.383 0.0
35.53 3.303 -1.383 0.0
35.515 3.414 -1.383 0.0
35.504 3.526 -1.383 0.0
35.499 3.638 -1.384 0.0
35.489 3.693 -1.383 0.0
35.459 3.803 -1.383 0.0
35.447 3.914 -1.383 0.0
35.411 4.023 -1.382 0.0
35.418 4.136 -1.382 0.0
35.337 4.239 -1.379 0.06
35.35 4.354 -1.381 0.2
35.216 4.393 -1.375 0.18
35.214 4.505 -1.375 0.0
35.19 4.615 -1.375 0.0
35.391 4.754 -1.385 0.0
35.487 4.88 -1.39 0.0
35.586 5.008 -1.395 0.0
35.701 5.138 -1.401 0.0
35.797 5.21 -1.405 0.0
35.891 5.338 -1.41 0.0
35.951 5.463 -1.414 0.0
36.027 5.59 -1.418 0.0
36.078 5.714 -1.421 0.0
36.139 5.84 -1.425 0.0
36.227 5.971 -1.429 0.0
36.312 6.044 -1.434 0.0
36.419 6.179 -1.439 0.0
36.504 6.311 -1.444 0.0
36.604 6.447 -1.449 0.0
36.682 6.58 -1.454 0.0
36.775 6.716 -1.459 0.0
36.826 6.845 -1.462 0.0
36.92 6.922 -1.467 0.0
36.986 7.055 -1.471 0.0
37.078 7.193 -1.476 0.0
37.149 7.328 -1.481 0.0
37.245 7.468 -1.486 0.0
37.331 7.607 -1.491 0.0
37.464 7.757 -1.498 0.0
37.588 7.906 -1.505 0.0
37.681 7.987 -1.51 0.0
37.786 8.134 -1.516 0.0
37.837 8.269 -1.519 0.0
37.914 8.411 -1.524 0.0
37.948 8.543 -1.526 0.0
38.081 8.699 -1.534 0.0
38.17 8.845 -1.539 0.0
38.261 8.93 -1.544 0.0
38.34 9.075 -1.549 0.0
38.428 9.223 -1.554 0.0
38.519 9.373 -1.56 0.0
38.569 9.514 -1.563 0.0
38.552 9.638 -1.564 0.0
38.704 9.805 -1.572 0.0
38.704 9.87 -1.573 0.0
37.997 9.818 -1.542 0.0
38.842 10.166 -1.582 0.0
39.071 10.357 -1.594 0.14
38.864 10.433 -1.586 0.23
38.56 10.481 -1.574 0.0
38.291 10.538 -1.563 0.0
38.161 10.566 -1.558 0.0
38.097 10.678 -1.556 0.0
38.079 10.802 -1.557 0.0
37.966 10.899 -1.553 0.0
38.043 11.05 -1.558 0.0
37.973 11.159 -1.557 0.0
37.894 11.266 -1.555 0.0
37.803 11.303 -1.551 0.0
37.653 11.387 -1.546 0.0
37.55 11.485 -1.543 0.0
37.453 11.584 -1.54 0.0
37.401 11.697 -1.539 0.0
37.324 11.802 -1.537 0.0
37.176 11.884 -1.532 0.11
37.024 11.9 -1.526 0.21
36.637 11.903 -1.51 0.2
36.501 11.985 -1.505 0.26
36.438 12.092 -1.504 0.17
36.313 12.177 -1.5 0.4
35.928 12.174 -1.484 0.25
36.179 12.385 -1.497 0.23
36.091 12.419 -1.494 0.21
34.046 11.956 -1.401 0.43
33.907 12.027 -1.397 0.23
33.547 12.019 -1.381 0.19
33.289 12.045 -1.371 0.42
32.938 12.035 -1.356 0.2
32.553 12.011 -1.34 0.28
32.333 11.988 -1.33 0.23
32.146 12.033 -1.323 0.0
31.79 12.014 -1.308 0.0
22.992 8.78 -0.891 0.0
22.733 8.763 -0.88 0.0
22.529 8.766 -0.872 0.0
22.321 8.766 -0.863 0.0
22.164 8.745 -0.856 0.0
21.913 8.726 -0.845 0.0
21.726 8.731 -0.838 0.0
21.558 8.742 -0.831 0.16
21.384 8.75 -0.824 0.2
21.25 8.773 -0.819 0.0
21.057 8.732 -0.81 0.0
20.883 8.738 -0.803 0.0
20.738 8.754 -0.798 0.0
20.563 8.756 -0.79 0.0
20.385 8.757 -0.783 0.0
20.223 8.763 -0.777 0.0
20.093 8.781 -0.772 0.0
19.974 8.804 -0.767 0.0
19.92 8.818 -0.765 0.0
19.967 8.914 -0.769 0.0
19.91 8.963 -0.768 0.0
19.847 9.01 -0.766 0.0
19.826 9.076 -0.766 0.0
19.803 9.141 -0.766 0.0
19.799 9.215 -0.768 0.0
19.825 9.264 -0.77 0.0
19.821 9.338 -0.771 0.0
19.829 9.419 -0.773 0.0
19.832 9.496 -0.774 0.0
19.813 9.564 -0.775 0.0
19.819 9.643 -0.777 0.0
19.835 9.728 -0.779 0.0
19.87 9.784 -0.781 0.0
19.893 9.873 -0.784 0.0
19.922 9.966 -0.787 0.13
19.952 10.059 -0.79 0.09
19.993 10.159 -0.794 0.08
20.123 10.304 -0.802 0.11
25.032 12.96 -1.05 0.39
24.722 12.898 -1.037 0.21
25.126 13.209 -1.059 0.16
23.309 12.349 -0.97 0.39
23.439 12.513 -0.978 0.27
23.558 12.671 -0.986 0.26
22.595 12.246 -0.939 0.26
22.59 12.289 -0.94 0.21
22.553 12.361 -0.94 0.38
22.729 12.551 -0.951 0.3
22.61 12.577 -0.947 0.31
22.544 12.634 -0.946 0.32
22.502 12.704 -0.946 0.48
22.407 12.743 -0.943 0.34
22.236 12.692 -0.935 0.32
22.111 12.713 -0.931 0.29
21.913 12.691 -0.923 0.29
21.804 12.72 -0.919 0.42
21.704 12.753 -0.916 0.3
21.619 12.795 -0.914 0.33
21.501 12.817 -0.91 0.34
21.132 12.687 -0.893 0.25
21.007 12.657 -0.887 0.47
21.349 12.954 -0.907 0.26
21.139 12.918 -0.898 0.32
21.352 13.14 -0.912 0.3
21.297 13.199 -0.911 0.38
21.186 13.222 -0.907 0.27
21.378 13.435 -0.919 0.48
21.235 13.392 -0.913 0.22
21.47 13.634 -0.928 0.37
21.384 13.675 -0.925 0.29
21.434 13.801 -0.93 0.38
21.29 13.803 -0.925 0.34
21.305 13.908 -0.928 0.38
20.63 13.561 -0.894 0.2
20.406 13.461 -0.884 0.38
20.342 13.51 -0.883 0.24
19.982 13.362 -0.866 0.2
19.915 13.408 -0.864 0.34
19.938 13.514 -0.868 0.18
24.414 16.654 -1.111 0.23
24.312 16.696 -1.108 0.2
20.142 13.885 -0.884 0.23
19.949 13.844 -0.876 0.14
19.833 13.857 -0.872 0.5
19.781 13.913 -0.872 0.2
23.687 16.765 -1.087 0.18
23.292 16.596 -1.068 0.23
23.397 16.782 -1.077 0.28
23.233 16.72 -1.07 0.29
23.025 16.68 -1.061 0.21
23.123 16.862 -1.069 0.21
22.723 16.681 -1.05 0.51
22.793 16.842 -1.057 0.24
22.507 16.741 -1.044 0.23
22.163 16.594 -1.028 0.3
22.703 17.053 -1.059 0.2
21.911 16.567 -1.018 0.4
22.097 16.817 -1.031 0.26
21.703 16.625 -1.012 0.29
21.491 16.57 -1.003 0.26
21.484 16.673 -1.006 0.28
21.222 16.577 -0.994 0.34
21.336 16.72 -1.002 0.23
21.032 16.589 -0.988 0.29
20.996 16.668 -0.989 0.29
20.886 16.688 -0.985 0.29
20.729 16.669 -0.979 0.27
20.628 16.695 -0.977 0.27
20.422 16.635 -0.968 0.29
20.292 16.636 -0.963 0.3
20.121 16.549 -0.955 0.3
20.041 16.589 -0.954 0.28
19.868 16.551 -0.947 0.36
19.799 16.599 -0.946 0.27
19.638 16.57 -0.939 0.38
19.561 16.611 -0.938 0.3
19.409 16.587 -0.932 0.36
19.352 16.591 -0.93 0.27
19.197 16.563 -0.924 0.35
19.11 16.594 -0.922 0.3
18.974 16.58 -0.917 0.38
18.879 16.603 -0.915 0.24
18.736 16.581 -0.909 0.39
18.7 16.655 -0.91 0.23
18.529 16.555 -0.902 0.3
18.743 16.852 -0.917 0.32
18.302 16.56 -0.894 0.32
18.594 16.93 -0.915 0.29
18.109 16.594 -0.889 0.39
18.33 16.902 -0.905 0.32
17.855 16.569 -0.88 0.36
17.902 16.665 -0.884 0.19
17.645 16.53 -0.872 0.29
17.525 16.521 -0.868 0.28
17.391 16.499 -0.863 0.36
17.257 16.475 -0.858 0.35
17.158 16.483 -0.855 0.37
17.055 16.489 -0.852 0.41
16.992 16.479 -0.849 0.29
16.922 16.514 -0.848 0.48
16.77 16.47 -0.842 0.34
16.643 16.448 -0.837 0.28
16.524 16.434 -0.833 0.47
16.458 16.472 -0.832 0.36
16.352 16.468 -0.829 0.39
16.287 16.507 -0.828 0.38
16.215 16.485 -0.825 0.36
16.134 16.506 -0.823 0.41
16.034 16.508 -0.82 0.38
15.888 16.461 -0.814 0.34
15.724 16.394 -0.807 0.32
15.657 16.427 -0.806 0.4
15.648 16.521 -0.809 0.36
15.636 16.56 -0.809 0.43
15.629 16.657 -0.812 0.3
15.564 16.693 -0.812 0.51
15.183 16.491 -0.793 0.58
15.077 16.48 -0.79 0.29
14.991 16.49 -0.788 0.28
14.924 16.468 -0.785 0.35
15.015 16.673 -0.794 0.46
14.829 16.572 -0.785 0.34
14.711 16.544 -0.781 0.16
14.608 16.533 -0.778 0.37
14.513 16.529 -0.775 0.37
14.382 16.485 -0.769 0.36
14.406 16.564 -0.773 0.39
14.307 16.555 -0.77 0.3
14.18 16.514 -0.765 0.36
14.063 16.482 -0.76 0.3
13.892 16.386 -0.752 0.35
13.824 16.41 -0.751 0.43
13.751 16.427 -0.749 0.36
13.703 16.475 -0.75 0.4
13.718 16.546 -0.752 0.41
13.581 16.486 -0.746 0.34
13.574 16.584 -0.75 0.38
13.41 16.488 -0.742 0.34
13.349 16.52 -0.741 0.43
13.31 16.577 -0.742 0.3
13.241 16.599 -0.741 0.49
13.249 16.662 -0.743 0.37
13.21 16.72 -0.744 0.38
13.069 16.649 -0.738 0.34
13.202 16.927 -0.751 0.29
13.212 17.051 -0.756 0.41
13.182 17.122 -0.758 0.35
13.155 17.198 -0.759 0.42
13.163 17.265 -0.762 0.41
13.12 17.321 -0.763 0.29
13.127 17.443 -0.767 0.41
13.129 17.561 -0.772 0.38
13.144 17.697 -0.777 0.39
13.177 17.857 -0.783 0.38
13.223 18.038 -0.791 0.43
13.383 18.315 -0.805 0.34
13.55 18.666 -0.822 0.34
13.599 18.857 -0.83 0.26
13.485 18.824 -0.826 0.39
13.557 19.05 -0.836 0.32
13.547 19.164 -0.84 0.34
13.491 19.211 -0.841 0.46
13.475 19.254 -0.842 0.34
13.464 19.366 -0.845 0.37
13.397 19.4 -0.845 0.37
13.352 19.465 -0.846 0.41
13.374 19.629 -0.853 0.37
13.351 19.728 -0.856 0.36
13.385 19.912 -0.864 0.37
13.412 20.088 -0.871 0.39
13.387 20.119 -0.871 0.32
13.37 20.231 -0.875 0.36
13.327 20.305 -0.877 0.36
13.341 20.465 -0.883 0.35
13.313 20.563 -0.886 0.32
13.303 20.69 -0.89 0.36
13.262 20.769 -0.892 0.38
13.296 20.894 -0.898 0.41
13.31 21.062 -0.905 0.36
13.3 21.193 -0.909 0.34
13.346 21.415 -0.919 0.38
13.427 21.696 -0.931 0.32
13.403 21.81 -0.935 0.44
13.555 22.213 -0.954 0.27
13.713 22.629 -0.973 0.47
19.225 31.818 -1.45 0.19
14.859 24.78 -1.082 0.38
19.045 31.973 -1.452 0.0
14.775 24.993 -1.088 0.07
14.533 24.762 -1.073 0.09
14.52 24.918 -1.079 0.16
14.447 24.974 -1.08 0.21
14.407 24.995 -1.08 0.11
18.612 32.51 -1.463 0.15
16.622 29.252 -1.293 0.08
16.512 29.273 -1.291 0.0
19.245 34.361 -1.548 0.0
15.588 28.256 -1.232 0.0
19.355 35.2 -1.583 0.11
15.467 28.351 -1.233 0.0
14.282 26.578 -1.138 0.13
15.383 28.84 -1.25 0.09
16.156 30.517 -1.332 0.0
15.218 28.968 -1.252 0.06
15.394 29.525 -1.277 0.18
15.055 28.988 -1.249 0.1
15.372 29.826 -1.289 0.09
15.367 30.047 -1.297 0.14
14.881 29.326 -1.259 0.19
14.749 29.292 -1.255 0.21
14.609 29.244 -1.25 0.14
14.734 29.726 -1.272 0.0
14.746 29.867 -1.278 0.0
14.801 30.217 -1.293 0.11
14.575 30.235 -1.289 0.0
14.393 30.099 -1.28 0.11
14.437 30.436 -1.295 0.0
21.047 44.706 -1.994 0.0
20.955 44.692 -1.992 0.07
17.582 37.817 -1.651 0.0
20.614 44.693 -1.985 0.09
18.555 40.57 -1.781 0.1
18.582 40.968 -1.797 0.0
17.101 38.024 -1.651 0.12
16.959 38.029 -1.648 0.12
15.587 35.105 -1.505 0.18
15.454 35.101 -1.502 0.2
15.333 35.126 -1.501 0.26
18.383 42.462 -1.854 0.1
14.633 34.107 -1.447 0.0
14.574 34.267 -1.453 0.07
14.435 34.237 -1.449 0.17
14.373 34.393 -1.454 0.21
14.358 34.509 -1.459 0.14
14.332 34.754 -1.468 0.26
14.29 34.961 -1.476 0.19
14.973 36.959 -1.57 0.27
14.912 37.143 -1.577 0.24
17.131 43.051 -1.857 0.16
16.989 43.088 -1.856 0.41
16.938 43.157 -1.858 0.0
19.847 51.026 -2.232 0.04
14.624 37.969 -1.606 0.08
14.459 37.895 -1.6 0.12
14.27 37.757 -1.592 0.13
14.174 37.862 -1.595 0.0
18.037 48.625 -2.103 0.1
5.738 15.595 -0.536 0.12
5.671 15.563 -0.533 0.29
5.619 15.573 -0.533 0.32
5.179 14.5 -0.481 0.28
5.083 14.377 -0.475 0.64
5.006 14.446 -0.476 0.68
4.98 14.445 -0.476 0.46
4.895 14.345 -0.471 0.27
4.838 14.324 -0.469 0.29
4.791 14.334 -0.469 0.34
4.743 14.339 -0.468 0.55
4.703 14.369 -0.469 0.37
4.642 14.336 -0.467 0.57
4.609 14.387 -0.468 0.56
4.626 14.52 -0.474 0.16
4.784 15.176 -0.504 0.18
4.711 15.109 -0.5 0.44
4.733 15.347 -0.511 0.44
4.729 15.509 -0.518 0.33
4.546 15.08 -0.497 0.65
4.576 15.353 -0.509 0.15
4.536 15.306 -0.506 0.62
4.475 15.276 -0.504 0.32
4.488 15.499 -0.514 0.19
12.779 44.481 -1.855 0.11
4.239 14.995 -0.489 0.18
4.379 15.674 -0.52 0.22
4.232 15.337 -0.504 0.37
4.378 15.96 -0.532 0.57
4.023 14.854 -0.481 0.31
4.81 17.961 -0.623 0.59
4.754 17.978 -0.623 0.34
3.789 14.533 -0.464 0.41
3.737 14.52 -0.463 0.59
3.971 15.625 -0.513 0.37
3.67 14.642 -0.468 0.32
3.754 15.072 -0.487 0.5
3.707 15.088 -0.487 0.32
4.358 17.959 -0.618 0.66
3.645 15.245 -0.494 0.38
4.243 17.976 -0.618 0.3
3.517 15.133 -0.487 0.28
3.47 15.144 -0.487 0.52
4.094 17.976 -0.616 0.34
4.031 17.961 -0.615 0.68
3.37 15.259 -0.491 0.21
3.916 17.976 -0.615 0.5
3.859 17.987 -0.615 0.39
3.803 18.001 -0.615 0.45
3.75 18.028 -0.615 0.66
3.752 18.179 -0.622 0.74
3.673 18.087 -0.617 0.38
3.614 18.088 -0.617 0.35
3.554 18.082 -0.616 0.36
3.495 18.083 -0.616 0.31
3.443 18.12 -0.617 0.18
3.375 18.069 -0.614 0.66
3.343 18.055 -0.613 0.68
3.285 18.06 -0.613 0.73
3.241 18.141 -0.616 0.64
3.187 18.166 -0.617 0.33
3.128 18.165 -0.616 0.3
3.065 18.141 -0.615 0.25
2.938 18.079 -0.611 0.45
2.901 18.034 -0.609 0.65
2.839 18.006 -0.607 0.47
2.776 17.977 -0.605 0.53
2.72 17.986 -0.605 0.4
2.66 17.97 -0.604 0.51
2.604 17.983 -0.605 0.39
2.544 17.971 -0.604 0.53
2.517 17.977 -0.604 0.4
2.459 17.981 -0.604 0.41
2.402 17.978 -0.603 0.42
2.344 17.978 -0.603 0.53
2.287 17.981 -0.603 0.4
2.23 17.98 -0.602 0.41
2.172 17.975 -0.602 0.42
2.115 17.98 -0.602 0.41
2.085 17.972 -0.601 0.41
2.03 17.986 -0.601 0.42
1.973 17.988 -0.601 0.43
1.915 17.983 -0.601 0.43
1.858 17.982 -0.6 0.43
1.8 17.97 -0.6 0.53
1.744 17.982 -0.6 0.4
1.716 17.993 -0.6 0.44
1.662 18.02 -0.601 0.75
1.608 18.055 -0.603 0.72
1.551 18.064 -0.603 0.72
1.494 18.056 -0.602 0.73
1.437 18.059 -0.602 0.73
1.38 18.064 -0.602 0.74
1.351 18.052 -0.602 0.75
1.293 18.046 -0.601 0.75
1.233 18.0 -0.599 0.71
1.175 17.99 -0.598 0.4
1.118 17.984 -0.598 0.42
1.062 17.991 -0.598 0.43
1.004 17.968 -0.597 0.64
0.946 17.945 -0.596 0.44
0.913 17.851 -0.591 0.27
0.738 15.461 -0.485 0.48
0.689 15.447 -0.484 0.7
0.641 15.459 -0.485 0.4
0.592 15.451 -0.484 0.54
0.544 15.455 -0.484 0.53
0.495 15.457 -0.484 0.43
0.471 15.454 -0.484 0.53
0.423 15.489 -0.486 0.86
0.375 15.522 -0.487 0.88
0.326 15.517 -0.487 0.5
0.278 15.52 -0.487 0.46
0.229 15.527 -0.487 0.45
0.18 15.526 -0.487 0.51
0.156 15.534 -0.487 0.51
0.107 15.522 -0.487 0.48
0.058 15.531 -0.487 0.54
0.023 21.319 -0.745 0.39
-0.044 21.329 -0.745 0.34
-0.111 21.321 -0.745 0.46
-0.137 15.528 -0.487 0.23
-0.186 15.52 -0.487 0.46
-0.21 15.525 -0.487 0.48
-0.259 15.525 -0.487 0.5
-0.308 15.534 -0.487 0.62
-0.356 15.523 -0.487 0.78
-0.405 15.525 -0.487 0.59
-0.453 15.49 -0.486 0.9
-0.503 15.523 -0.487 0.88
-0.526 15.496 -0.486 0.8
-0.576 15.524 -0.487 0.56
-0.625 15.526 -0.488 0.57
-0.674 15.524 -0.488 0.57
-0.722 15.518 -0.487 0.59
-0.771 15.506 -0.487 0.75
-0.818 15.479 -0.486 0.83
-0.842 15.474 -0.486 0.82
-0.891 15.477 -0.486 0.85
-0.939 15.47 -0.486 0.84
-0.989 15.479 -0.486 0.84
-1.038 15.482 -0.487 0.83
-1.086 15.479 -0.487 0.83
-1.135 15.477 -0.487 0.83
-1.16 15.475 -0.487 0.82
-1.208 15.472 -0.487 0.82
-1.258 15.478 -0.487 0.82
-1.307 15.478 -0.487 0.81
-1.355 15.475 -0.487 0.82
-1.404 15.477 -0.488 0.82
-1.453 15.471 -0.488 0.81
-1.502 15.476 -0.488 0.81
-1.527 15.476 -0.488 0.8
-1.576 15.475 -0.488 0.81
-1.625 15.476 -0.489 0.8
-1.675 15.486 -0.489 0.76
-1.725 15.489 -0.49 0.75
-1.767 15.426 -0.487 0.6
-1.818 15.444 -0.488 0.34
-1.843 15.447 -0.488 0.42
-1.891 15.437 -0.488 0.53
-1.942 15.445 -0.489 0.35
-1.99 15.441 -0.489 0.48
-2.04 15.443 -0.489 0.39
-2.429 17.983 -0.603 0.53
-2.487 17.989 -0.604 0.39
-2.519 18.015 -0.605 0.58
-2.578 18.025 -0.606 0.76
-2.646 18.09 -0.61 0.3
-2.7 18.067 -0.609 0.48
-2.758 18.067 -0.609 0.37
-2.817 18.068 -0.61 0.46
-2.876 18.077 -0.611 0.29
-2.933 18.069 -0.611 0.54
-2.956 18.029 -0.609 0.7
-3.008 17.992 -0.608 0.41
-3.066 17.995 -0.608 0.42
-3.125 17.999 -0.609 0.42
-3.182 17.989 -0.609 0.43
-3.24 17.987 -0.609 0.42
-3.298 17.988 -0.61 0.41
-3.329 17.997 -0.61 0.42
-3.386 17.99 -0.611 0.42
-3.447 17.999 -0.611 0.42
-3.502 17.984 -0.611 0.52
-3.564 17.997 -0.612 0.4
-3.622 17.997 -0.613 0.41
-3.677 17.978 -0.613 0.55
-3.738 17.986 -0.613 0.4
-3.77 17.999 -0.614 0.41
-3.829 17.999 -0.615 0.41
-3.888 17.997 -0.615 0.43
-3.948 18.002 -0.616 0.43
-4.001 17.972 -0.615 0.64
-3.243 14.331 -0.45 0.33
-3.28 14.286 -0.448 0.48
-3.298 14.261 -0.447 0.25
-3.33 14.196 -0.445 0.6
-3.634 15.284 -0.495 0.29
-3.647 15.125 -0.488 0.46
-3.706 15.162 -0.491 0.36
-3.747 15.125 -0.489 0.42
-3.686 14.675 -0.469 0.26
-3.711 14.582 -0.466 0.49
-3.698 14.433 -0.459 0.39
-4.751 18.334 -0.639 0.66
-3.835 14.588 -0.467 0.18
-3.878 14.566 -0.467 0.39
-3.965 14.524 -0.466 0.52
-4.003 14.484 -0.465 0.29
-5.012 18.049 -0.63 0.55
-4.127 14.667 -0.474 0.34
-4.181 14.681 -0.475 0.3
-4.223 14.655 -0.475 0.58
-5.234 17.969 -0.629 0.36
-4.309 14.607 -0.474 0.39
-4.338 14.536 -0.471 0.32
-5.389 17.975 -0.631 0.61
-4.439 14.624 -0.476 0.29
-4.448 14.488 -0.47 0.42
-4.479 14.428 -0.468 0.4
-4.575 14.576 -0.476 0.42
-5.701 17.984 -0.635 0.33
-5.764 17.986 -0.636 0.51
-5.796 17.991 -0.637 0.38
-5.853 17.972 -0.637 0.59
-4.686 14.219 -0.462 0.39
-4.727 14.195 -0.462 0.43
-6.042 17.975 -0.64 0.27
-6.104 17.973 -0.641 0.44
-6.17 17.984 -0.642 0.39
-6.235 17.987 -0.643 0.48
-6.27 17.996 -0.644 0.52
-6.334 17.999 -0.645 0.52
-6.394 17.989 -0.646 0.53
-6.458 17.991 -0.647 0.54
-6.524 17.995 -0.648 0.54
-6.584 17.984 -0.648 0.52
-6.648 17.986 -0.649 0.52
-6.683 17.992 -0.65 0.52
-6.75 17.999 -0.651 0.54
-6.801 17.965 -0.651 0.74
-6.868 17.971 -0.652 0.38
-6.096 15.794 -0.549 0.3
-6.136 15.748 -0.548 0.44
-6.19 15.74 -0.549 0.44
-6.23 15.769 -0.551 0.22
-7.168 17.989 -0.658 0.41
-7.234 17.991 -0.659 0.52
-7.298 17.987 -0.66 0.52
-7.381 18.026 -0.663 0.67
-7.466 18.073 -0.666 0.61
-7.558 18.135 -0.67 0.3
-7.63 18.146 -0.672 0.26
-7.66 18.139 -0.672 0.17
-7.71 18.099 -0.671 0.29
-7.765 18.069 -0.671 0.6
-7.829 18.063 -0.672 0.66
-7.909 18.089 -0.675 0.66
-7.995 18.132 -0.678 0.29
-8.064 18.134 -0.679 0.26
-8.103 18.145 -0.68 0.23
-8.169 18.14 -0.681 0.17
-8.209 18.076 -0.679 0.61
-8.256 18.03 -0.678 0.54
-8.311 18.0 -0.678 0.5
-8.372 17.983 -0.679 0.5
-8.439 17.978 -0.68 0.51
-8.507 17.977 -0.681 0.51
-8.545 17.984 -0.682 0.52
-8.617 17.991 -0.684 0.5
-8.685 17.987 -0.685 0.49
-8.753 17.983 -0.686 0.49
-8.823 17.983 -0.687 0.51
-8.882 17.96 -0.688 0.72
-8.958 17.972 -0.69 0.32
-7.171 14.319 -0.509 0.52
-7.212 14.287 -0.508 0.37
-9.132 17.967 -0.693 0.42
-7.318 14.276 -0.51 0.19
-9.276 17.969 -0.696 0.62
-7.381 14.178 -0.507 0.25
-9.422 17.974 -0.699 0.47
-9.48 18.016 -0.702 0.69
-9.575 18.059 -0.706 0.43
-9.645 18.055 -0.707 0.36
-9.721 18.06 -0.709 0.45
-9.8 18.071 -0.711 0.21
-9.865 18.055 -0.711 0.48
-9.912 18.006 -0.711 0.54
-9.969 17.976 -0.711 0.45
-10.012 17.987 -0.712 0.48
-10.086 17.987 -0.714 0.49
-10.185 18.03 -0.717 0.7
-10.158 17.852 -0.71 0.21
-10.306 17.979 -0.718 0.3
-10.371 17.963 -0.719 0.67
-10.381 17.85 -0.715 0.38
-10.357 17.744 -0.71 0.43
-10.357 17.617 -0.705 0.36
-10.369 17.51 -0.702 0.38
-10.369 17.385 -0.697 0.41
-10.374 17.27 -0.692 0.35
-10.379 17.155 -0.688 0.38
-10.38 17.035 -0.684 0.38
-10.38 16.916 -0.679 0.39
-10.356 16.818 -0.675 0.41
-10.361 16.707 -0.671 0.39
-10.367 16.6 -0.667 0.32
-10.367 16.484 -0.663 0.46
-10.373 16.379 -0.659 0.32
-10.377 16.272 -0.655 0.42
-10.38 16.165 -0.651 0.35
-10.354 16.068 -0.647 0.43
-10.356 15.96 -0.643 0.42
-10.354 15.849 -0.638 0.4
-10.359 15.748 -0.635 0.41
-10.368 15.653 -0.631 0.33
-10.367 15.546 -0.627 0.45
-10.378 15.457 -0.624 0.29
-10.398 15.434 -0.624 0.45
-10.469 15.434 -0.626 0.36
-10.532 15.423 -0.627 0.45
-10.606 15.427 -0.629 0.35
-10.694 15.451 -0.632 0.44
-10.792 15.488 -0.636 0.54
-10.876 15.505 -0.639 0.38
-10.945 15.5 -0.64 0.43
-11.031 15.57 -0.645 0.67
-12.877 18.062 -0.783 0.27
-12.889 17.96 -0.78 0.43
-11.28 15.504 -0.649 0.46
-11.361 15.514 -0.652 0.38
-11.427 15.501 -0.653 0.49
-11.482 15.524 -0.655 0.38
-11.545 15.508 -0.656 0.53
-11.62 15.506 -0.658 0.67
-11.683 15.489 -0.659 0.26
-11.774 15.508 -0.662 0.11
-11.917 15.494 -0.666 0.56
-12.003 15.556 -0.67 0.7
-12.02 15.477 -0.668 0.38
-12.102 15.482 -0.67 0.34
-12.17 15.469 -0.672 0.28
-12.264 15.487 -0.675 0.41
-12.332 15.473 -0.676 0.26
-12.412 15.474 -0.679 0.3
-12.467 15.493 -0.681 0.36
-12.544 15.488 -0.683 0.21
-12.615 15.476 -0.684 0.26
-12.693 15.472 -0.686 0.17
-12.793 15.496 -0.69 0.31
-12.858 15.475 -0.691 0.52
-12.899 15.426 -0.691 0.41
-12.984 15.428 -0.693 0.42
-13.045 15.452 -0.696 0.34
-13.113 15.434 -0.697 0.64
-13.193 15.429 -0.699 0.46
-15.685 18.119 -0.862 0.17
-15.737 18.065 -0.862 0.46
-15.847 18.075 -0.866 0.64
-15.909 18.09 -0.868 0.28
-16.012 18.092 -0.871 0.2
-16.117 18.095 -0.874 0.29
-16.198 18.071 -0.876 0.37
-16.246 18.011 -0.875 0.5
-16.314 17.972 -0.876 0.43
-16.421 17.977 -0.879 0.43
-16.517 17.968 -0.882 0.43
-16.588 17.989 -0.885 0.42
-16.694 17.99 -0.888 0.43
-16.794 17.984 -0.891 0.42
-16.888 17.972 -0.893 0.42
-16.994 17.971 -0.896 0.42
-17.097 17.967 -0.9 0.43
-17.196 17.958 -0.902 0.42
-17.274 17.983 -0.905 0.41
-17.369 17.969 -0.908 0.41
-17.476 17.966 -0.911 0.45
-17.591 17.971 -0.915 0.32
-17.689 17.958 -0.918 0.52
-14.293 14.412 -0.699 0.37
-14.279 14.308 -0.695 0.33
-14.337 14.321 -0.698 0.4
-14.4 14.294 -0.699 0.26
-14.248 14.053 -0.686 0.38
-14.285 14.001 -0.686 0.29
-14.356 13.983 -0.688 0.58
-18.698 18.11 -0.954 0.29
-18.824 18.117 -0.958 0.17
-18.855 18.09 -0.959 0.32
-18.94 18.057 -0.96 0.45
-14.929 14.136 -0.711 0.43
-19.278 18.15 -0.974 0.18
-19.335 18.09 -0.974 0.22
-15.136 14.064 -0.715 0.48
-15.173 14.01 -0.715 0.34
-19.556 17.954 -0.977 0.31
-19.639 17.973 -0.98 0.51
-19.758 17.969 -0.984 0.43
-19.871 17.958 -0.988 0.25
-15.54 13.948 -0.725 0.48
-15.551 13.87 -0.723 0.28
-17.369 15.397 -0.829 0.18
-15.963 14.059 -0.742 0.32
-20.426 17.942 -1.006 0.25
-20.774 18.133 -1.023 0.58
-20.659 17.918 -1.013 0.12
-16.652 14.345 -0.774 0.28
-16.726 14.317 -0.776 0.48
-16.732 14.232 -0.773 0.25
-21.229 17.951 -1.033 0.21
-21.339 17.987 -1.038 0.48
-21.389 17.914 -1.037 0.27
-21.533 17.92 -1.042 0.2
-19.431 16.064 -0.918 0.43
-21.553 17.708 -1.037 0.14
-19.494 15.911 -0.916 0.33
-19.39 15.725 -0.907 0.61
-21.587 17.398 -1.03 0.36
-21.57 17.329 -1.027 0.16
-21.567 17.215 -1.024 0.43
-21.574 17.11 -1.021 0.21
-21.568 16.995 -1.018 0.31
-21.569 16.886 -1.015 0.25
-21.577 16.783 -1.012 0.24
-21.577 16.674 -1.009 0.26
-21.559 16.606 -1.007 0.2
-21.557 16.497 -1.004 0.21
-21.566 16.397 -1.001 0.2
-21.813 16.477 -1.012 0.0
-21.571 16.188 -0.996 0.0
-11.76 8.753 -0.448 0.0
-11.956 8.841 -0.458 0.07
-12.211 9.0 -0.471 0.21
-12.29 9.0 -0.474 0.25
-12.333 8.971 -0.475 0.27
-12.389 8.953 -0.476 0.26
-12.444 8.933 -0.478 0.26
-12.485 8.904 -0.478 0.11
-12.533 8.878 -0.48 0.0
-12.633 8.861 -0.483 0.09
-22.222 15.506 -1.002 0.14
-22.368 15.503 -1.007 0.16
-22.512 15.499 -1.012 0.23
-22.628 15.474 -1.016 0.16
-22.771 15.467 -1.021 0.25
-22.872 15.431 -1.024 0.11
-23.062 15.507 -1.032 0.31
-23.353 15.597 -1.045 0.0
-23.302 15.457 -1.04 0.0
-23.455 15.453 -1.046 0.0
-23.582 15.431 -1.05 0.0
-24.056 15.472 -1.069 0.45
-24.16 15.432 -1.071 0.31
-24.318 15.426 -1.077 0.27
-28.468 17.939 -1.293 0.23
-28.646 17.926 -1.299 0.36
-29.976 18.629 -1.366 0.23
-29.878 18.438 -1.358 0.18
-30.02 18.46 -1.364 0.18
-30.158 18.415 -1.368 0.25
-30.164 18.289 -1.365 0.34
-30.175 18.166 -1.363 0.27
-30.124 18.006 -1.357 0.55
-25.959 15.402 -1.139 0.22
-25.899 15.256 -1.133 0.21
-25.845 15.115 -1.128 0.34
-25.86 15.07 -1.128 0.29
-25.902 14.985 -1.127 0.2
-26.036 14.954 -1.132 0.47
-26.095 14.879 -1.132 0.23
-25.144 14.231 -1.081 0.23
-25.146 14.128 -1.079 0.29
-25.161 14.033 -1.078 0.33
-25.262 14.037 -1.082 0.27
-25.328 13.97 -1.083 0.34
-25.418 13.915 -1.085 0.27
-25.57 13.895 -1.091 0.32
-25.722 13.873 -1.096 0.28
-26.067 13.954 -1.111 0.25
-25.964 13.794 -1.104 0.32
-26.03 13.777 -1.106 0.29
-26.25 13.788 -1.115 0.28
-26.456 13.79 -1.123 0.24
-26.519 13.717 -1.124 0.26
-30.488 15.654 -1.321 0.19
-30.39 15.482 -1.313 0.25
-30.33 15.332 -1.308 0.32
-30.332 15.273 -1.307 0.18
-30.392 15.184 -1.307 0.3
-30.46 15.099 -1.308 0.2
-30.278 14.89 -1.297 0.14
-30.172 14.72 -1.29 0.3
-30.462 14.744 -1.302 0.15
-30.242 14.52 -1.288 0.38
-30.233 14.399 -1.286 0.16
-30.27 14.358 -1.287 0.14
-34.839 16.396 -1.509 0.17
-30.159 14.074 -1.277 0.23
-34.807 16.114 -1.502 0.12
-30.559 14.028 -1.292 0.51
-30.51 13.889 -1.287 0.19
-30.395 13.722 -1.28 0.0
-21.376 9.601 -0.839 0.0
-21.968 9.62 -0.863 0.0
-21.993 9.549 -0.863 0.0
-22.78 9.511 -0.894 0.0
-22.825 9.445 -0.895 0.0
-22.711 9.231 -0.887 0.15
-22.694 9.141 -0.885 0.0
-22.716 9.109 -0.885 0.0
-21.265 8.371 -0.813 0.0
-21.292 8.304 -0.813 0.0
-22.641 8.222 -0.868 0.0
-22.656 8.147 -0.867 0.0
-42.757 14.571 -1.805 0.0
-42.935 14.481 -1.812 0.0
-42.745 14.267 -1.801 0.0
-42.803 14.137 -1.801 0.0
-42.787 14.058 -1.8 0.0
-42.788 13.909 -1.797 0.0
-42.787 13.76 -1.795 0.0
-28.655 8.028 -1.12 0.0
-28.788 7.968 -1.125 0.0
-28.99 7.926 -1.133 0.0
-29.617 7.898 -1.16 0.0
-47.39 12.256 -1.974 0.0
-47.624 12.157 -1.983 0.0
-48.451 12.207 -2.019 0.0
-48.781 12.128 -2.032 0.0
-37.244 8.081 -1.491 0.0
-37.245 7.531 -1.486 0.19
-37.558 7.472 -1.5 0.0
-37.334 7.306 -1.488 0.0
-45.661 7.976 -1.858 0.0
-45.569 7.813 -1.853 0.0
-45.677 7.61 -1.856 0.0
-45.677 7.462 -1.855 0.06
-45.806 7.041 -1.858 0.66
-45.502 6.848 -1.843 0.0
-45.592 6.788 -1.847 0.0
-45.797 6.672 -1.855 0.0
-46.761 6.663 -1.897 0.0
-46.891 6.531 -1.902 0.0
-47.57 6.474 -1.932 0.0
-48.186 6.404 -1.958 0.0
-48.864 6.338 -1.988 0.0
-49.411 6.252 -2.012 0.0
-75.612 4.905 -3.166 0.0
-76.359 4.712 -3.199 0.0
-67.663 0.129 -2.806 0.0
-61.079 -5.079 -2.522 0.0
-61.033 -5.268 -2.521 0.0
-65.089 -10.288 -2.727 0.0
-65.157 -10.508 -2.732 0.0
-65.035 -10.698 -2.728 0.0
-65.034 -10.803 -2.729 0.0
-63.667 -11.607 -2.675 0.0
-62.382 -11.576 -2.618 0.0
-58.529 -11.339 -2.448 0.0
-58.417 -11.508 -2.445 0.0
-57.949 -11.605 -2.425 0.0
-56.92 -11.585 -2.38 0.0
-55.194 -11.416 -2.303 0.0
-54.749 -11.503 -2.285 0.0
-53.982 -11.431 -2.251 0.0
-52.686 -11.33 -2.193 0.0
-52.879 -11.546 -2.204 0.0
-52.452 -11.625 -2.186 0.0
-52.22 -11.746 -2.177 0.0
-51.811 -11.826 -2.16 0.0
-46.331 -10.731 -1.912 0.1
-46.152 -10.766 -1.904 0.0
-46.075 -10.901 -1.902 0.0
-46.13 -11.067 -1.906 0.0
-51.248 -12.462 -2.142 0.0
-51.182 -12.616 -2.141 0.0
-51.187 -12.788 -2.143 0.0
-51.075 -12.931 -2.14 0.0
-50.928 -12.979 -2.134 0.0
-50.791 -13.114 -2.129 0.0
-50.679 -13.255 -2.126 0.0
-50.576 -13.398 -2.123 0.0
-50.088 -13.438 -2.103 0.0
-49.962 -13.572 -2.099 0.0
-49.197 -13.531 -2.066 0.0
-47.078 -13.348 -1.973 0.0
-52.511 -15.242 -2.228 0.0
-52.136 -15.312 -2.213 0.0
-51.619 -15.336 -2.191 0.0
-51.136 -15.368 -2.171 0.0
-50.697 -15.323 -2.152 0.0
-49.978 -15.277 -2.121 0.0
-49.24 -15.222 -2.089 0.13
-48.942 -15.298 -2.077 0.0
-48.101 -15.202 -2.04 0.0
-47.718 -15.246 -2.024 0.0
-47.042 -15.194 -1.995 0.0
-46.853 -15.214 -1.987 0.0
-46.465 -15.25 -1.971 0.0
-43.889 -15.019 -1.86 0.0
-43.479 -15.032 -1.843 0.0
-43.466 -15.18 -1.844 0.0
-43.551 -15.287 -1.849 0.0
-47.574 -16.864 -2.041 0.0
-41.426 -14.835 -1.754 0.0
-47.224 -17.075 -2.03 0.0
-46.953 -17.144 -2.02 0.0
-46.685 -17.213 -2.009 0.0
-46.353 -17.256 -1.996 0.0
-46.218 -17.289 -1.991 0.0
-45.892 -17.331 -1.978 0.0
-45.8 -17.461 -1.976 0.08
-45.622 -17.558 -1.971 0.0
-45.255 -17.58 -1.956 0.0
-44.811 -17.57 -1.937 0.0
-44.378 -17.562 -1.919 0.0
-43.968 -17.48 -1.901 0.0
-43.525 -17.463 -1.882 0.0
-43.068 -17.437 -1.863 0.0
-42.688 -17.439 -1.847 0.0
-42.25 -17.416 -1.829 0.0
-41.847 -17.404 -1.812 0.11
-25.656 -10.775 -1.034 0.16
-25.252 -10.653 -1.015 0.28
-25.139 -10.699 -1.012 0.26
-25.102 -10.776 -1.011 0.37
-25.108 -10.872 -1.013 0.37
-25.149 -10.984 -1.017 0.0
-39.254 -17.276 -1.704 0.13
-38.899 -17.265 -1.689 0.1
-38.572 -17.193 -1.675 0.14
-38.243 -17.191 -1.661 0.09
-37.89 -17.176 -1.647 0.14
-37.543 -17.161 -1.632 0.2
-37.193 -17.143 -1.618 0.24
-36.912 -17.154 -1.607 0.0
-36.574 -17.137 -1.593 0.0
-36.235 -17.117 -1.579 0.0
-35.96 -17.057 -1.567 0.0
-35.649 -17.047 -1.554 0.12
-18.916 -9.206 -0.732 0.21
-18.771 -9.208 -0.726 0.54
-18.737 -9.338 -0.728 0.29
-18.59 -9.302 -0.721 0.54
-18.732 -9.446 -0.73 0.29
-18.526 -9.415 -0.721 0.39
-18.536 -9.494 -0.723 0.34
-18.525 -9.562 -0.724 0.38
-18.454 -9.599 -0.722 0.45
-18.348 -9.617 -0.718 0.34
-18.21 -9.618 -0.712 0.43
-18.214 -9.657 -0.713 0.36
-18.582 -9.926 -0.733 0.33
-18.762 -10.098 -0.744 0.58
-18.595 -10.084 -0.737 0.3
-18.346 -10.023 -0.726 0.16
-18.319 -10.084 -0.726 0.32
-18.408 -10.208 -0.733 0.57
-30.103 -16.736 -1.328 0.29
-29.872 -16.731 -1.319 0.0
-29.628 -16.717 -1.309 0.13
-29.412 -16.717 -1.301 0.15
-29.193 -16.714 -1.293 0.32
-28.953 -16.698 -1.283 0.27
-28.736 -16.694 -1.275 0.27
-28.535 -16.637 -1.266 0.21
-28.324 -16.634 -1.257 0.14
-28.122 -16.635 -1.25 0.26
-27.912 -16.629 -1.241 0.21
-27.697 -16.619 -1.233 0.31
-27.514 -16.627 -1.226 0.17
-27.289 -16.609 -1.217 0.26
-27.094 -16.549 -1.208 0.19
-26.918 -16.558 -1.202 0.2
-26.72 -16.552 -1.194 0.36
-26.523 -16.546 -1.187 0.18
-26.334 -16.543 -1.18 0.36
-26.135 -16.533 -1.172 0.17
-25.962 -16.538 -1.165 0.37
-25.786 -16.483 -1.158 0.22
-25.599 -16.477 -1.15 0.18
-25.432 -16.483 -1.144 0.41
-25.229 -16.465 -1.136 0.16
-25.059 -16.466 -1.13 0.37
-24.883 -16.463 -1.123 0.23
-24.695 -16.451 -1.116 0.16
-24.555 -16.413 -1.11 0.42
-24.379 -16.406 -1.103 0.23
-24.211 -16.404 -1.097 0.26
-24.037 -16.397 -1.091 0.28
-23.89 -16.407 -1.085 0.24
-23.712 -16.395 -1.079 0.29
-23.544 -16.388 -1.072 0.27
-23.376 -16.381 -1.066 0.29
-23.247 -16.345 -1.06 0.32
-23.078 -16.335 -1.054 0.25
-22.909 -16.324 -1.048 0.28
-22.738 -16.31 -1.041 0.2
-22.594 -16.315 -1.036 0.5
-22.442 -16.313 -1.03 0.23
-22.283 -16.304 -1.024 0.23
-22.18 -16.283 -1.02 0.32
-22.014 -16.268 -1.014 0.28
-21.867 -16.266 -1.009 0.33
-21.712 -16.257 -1.003 0.29
-21.577 -16.262 -0.998 0.38
-21.424 -16.253 -0.992 0.33
-21.278 -16.247 -0.987 0.26
-21.157 -16.208 -0.982 0.27
-21.025 -16.212 -0.977 0.3
-20.881 -16.206 -0.972 0.32
-20.743 -16.204 -0.967 0.32
-20.598 -16.195 -0.962 0.29
-20.461 -16.192 -0.957 0.34
-20.322 -16.186 -0.952 0.26
-20.211 -16.149 -0.947 0.23
-20.071 -16.142 -0.942 0.27
-19.947 -16.146 -0.938 0.36
-19.819 -16.145 -0.933 0.32
-19.683 -16.138 -0.928 0.3
-19.547 -16.13 -0.924 0.28
-19.443 -16.146 -0.92 0.32
-19.333 -16.107 -0.916 0.28
-19.193 -16.093 -0.91 0.28
-19.062 -16.085 -0.906 0.3
-18.947 -16.09 -0.902 0.32
-18.819 -16.084 -0.897 0.3
-18.703 -16.087 -0.894 0.24
-18.568 -16.072 -0.889 0.28
-18.446 -16.069 -0.884 0.31
-18.364 -16.048 -0.881 0.33
-18.234 -16.036 -0.876 0.28
-18.108 -16.027 -0.872 0.36
-18.009 -16.04 -0.869 0.34
-17.881 -16.027 -0.864 0.25
-17.792 -16.049 -0.862 0.41
-17.664 -16.035 -0.857 0.25
-17.564 -15.994 -0.853 0.34
-17.459 -15.999 -0.85 0.31
-17.36 -16.009 -0.847 0.34
-17.236 -15.996 -0.842 0.3
-17.113 -15.982 -0.838 0.27
-17.006 -15.982 -0.834 0.3
-16.9 -15.983 -0.831 0.33
-16.724 -15.867 -0.822 0.32
-16.586 -15.835 -0.816 0.3
-16.504 -15.857 -0.814 0.35
-16.38 -15.837 -0.81 0.27
-16.288 -15.848 -0.807 0.34
-16.17 -15.832 -0.803 0.3
-16.123 -15.885 -0.803 0.35
-16.112 -15.925 -0.804 0.34
-15.99 -15.903 -0.799 0.27
-15.879 -15.893 -0.796 0.29
-15.782 -15.896 -0.793 0.34
-15.677 -15.89 -0.789 0.34
-15.576 -15.886 -0.786 0.29
-15.477 -15.885 -0.783 0.35
-15.382 -15.888 -0.78 0.35
-15.304 -15.857 -0.777 0.27
-15.207 -15.857 -0.774 0.36
-15.109 -15.854 -0.77 0.32
-15.011 -15.85 -0.767 0.32
-14.912 -15.845 -0.764 0.33
-14.82 -15.847 -0.761 0.35
-14.725 -15.845 -0.758 0.34
-14.654 -15.818 -0.755 0.29
-14.566 -15.823 -0.753 0.38
-14.461 -15.808 -0.749 0.31
-14.376 -15.815 -0.747 0.37
-14.266 -15.794 -0.743 0.3
-14.187 -15.806 -0.741 0.36
-14.1 -15.809 -0.739 0.36
-14.018 -15.767 -0.735 0.25
-13.934 -15.772 -0.732 0.39
-13.847 -15.773 -0.73 0.3
-13.766 -15.781 -0.728 0.36
-13.684 -15.786 -0.726 0.37
-13.583 -15.77 -0.722 0.25
-13.499 -15.772 -0.72 0.33
-13.439 -15.752 -0.717 0.35
-13.34 -15.736 -0.714 0.29
-13.252 -15.732 -0.711 0.33
-13.169 -15.734 -0.709 0.33
-13.084 -15.732 -0.706 0.35
-13.015 -15.75 -0.705 0.37
-12.927 -15.745 -0.702 0.31
-12.841 -15.741 -0.7 0.28
-12.775 -15.71 -0.697 0.35
-12.685 -15.7 -0.694 0.36
-12.598 -15.693 -0.691 0.33
-12.52 -15.697 -0.689 0.34
-12.438 -15.695 -0.687 0.35
-12.354 -15.69 -0.685 0.32
-12.281 -15.699 -0.683 0.38
-12.217 -15.668 -0.68 0.35
-12.14 -15.67 -0.678 0.33
-12.063 -15.672 -0.676 0.35
-11.974 -15.659 -0.673 0.35
-11.896 -15.658 -0.671 0.4
-11.819 -15.659 -0.669 0.35
-11.737 -15.653 -0.667 0.32
-11.683 -15.631 -0.664 0.41
-11.611 -15.637 -0.663 0.3
-11.54 -15.645 -0.661 0.41
-11.463 -15.642 -0.659 0.31
-11.376 -15.627 -0.656 0.33
-11.309 -15.638 -0.655 0.38
-11.227 -15.628 -0.652 0.29
-11.172 -15.604 -0.65 0.32
-11.098 -15.603 -0.648 0.31
-11.034 -15.616 -0.647 0.47
-10.95 -15.602 -0.644 0.28
-10.879 -15.605 -0.643 0.34
-10.803 -15.6 -0.64 0.37
-10.73 -15.599 -0.639 0.34
-10.683 -15.583 -0.637 0.34
-10.601 -15.569 -0.634 0.33
-10.531 -15.571 -0.632 0.33
-10.46 -15.571 -0.631 0.38
-10.388 -15.57 -0.629 0.36
-10.317 -15.569 -0.627 0.37
-10.246 -15.568 -0.625 0.32
-10.198 -15.548 -0.623 0.39
-10.129 -15.55 -0.622 0.32
-10.057 -15.546 -0.62 0.44
-9.986 -15.542 -0.618 0.36
-9.918 -15.543 -0.616 0.25
-9.851 -15.547 -0.615 0.52
-9.774 -15.533 -0.613 0.33
-9.728 -15.514 -0.611 0.41
-9.661 -15.516 -0.609 0.35
-9.594 -15.516 -0.608 0.32
-9.53 -15.522 -0.607 0.41
-9.455 -15.509 -0.604 0.32
-9.39 -15.511 -0.603 0.32
-9.32 -15.507 -0.601 0.32
-9.251 -15.502 -0.599 0.32
-9.222 -15.507 -0.599 0.41
-9.15 -15.497 -0.597 0.33
-9.083 -15.495 -0.595 0.35
-9.019 -15.497 -0.594 0.34
-8.943 -15.479 -0.592 0.36
-8.88 -15.482 -0.59 0.32
-8.821 -15.491 -0.589 0.38
-8.779 -15.474 -0.588 0.41
-8.71 -15.466 -0.586 0.32
-8.643 -15.461 -0.584 0.31
-8.533 -15.378 -0.579 0.3
-8.365 -15.188 -0.568 0.3
-8.357 -15.286 -0.571 0.6
-8.377 -15.438 -0.578 0.33
-8.346 -15.439 -0.577 0.34
-8.285 -15.441 -0.576 0.38
-8.22 -15.437 -0.574 0.37
-8.163 -15.446 -0.573 0.36
-8.1 -15.444 -0.572 0.33
-8.029 -15.427 -0.57 0.46
-7.97 -15.432 -0.569 0.34
-7.911 -15.436 -0.568 0.34
-7.871 -15.418 -0.566 0.3
-7.809 -15.416 -0.565 0.38
-7.745 -15.41 -0.564 0.36
-7.682 -15.406 -0.562 0.38
-7.618 -15.398 -0.56 0.41
-7.557 -15.396 -0.559 0.33
-7.522 -15.385 -0.558 0.32
-7.469 -15.399 -0.558 0.46
-7.406 -15.392 -0.556 0.35
-7.345 -15.39 -0.555 0.39
-7.285 -15.388 -0.554 0.31
-7.224 -15.384 -0.552 0.38
-7.169 -15.394 -0.552 0.39
-7.108 -15.387 -0.55 0.37
-7.072 -15.373 -0.549 0.38
-7.013 -15.373 -0.548 0.36
-6.948 -15.359 -0.546 0.36
-6.889 -15.355 -0.545 0.39
-6.832 -15.358 -0.544 0.4
-6.773 -15.354 -0.543 0.35
-6.716 -15.357 -0.542 0.43
-6.681 -15.342 -0.541 0.34
-6.626 -15.346 -0.54 0.46
-6.571 -15.352 -0.539 0.31
-6.51 -15.344 -0.538 0.44
-6.453 -15.342 -0.537 0.42
-6.401 -15.355 -0.536 0.21
-6.294 -15.233 -0.529 0.52
-6.258 -15.213 -0.528 0.3
-6.231 -15.284 -0.531 0.62
-6.195 -15.332 -0.532 0.34
-6.097 -15.229 -0.526 0.33
-6.028 -15.194 -0.523 0.61
-5.986 -15.228 -0.524 0.33
-5.932 -15.231 -0.523 0.64
-5.935 -15.31 -0.527 0.4
-5.876 -15.298 -0.525 0.38
-5.822 -15.304 -0.525 0.4
-5.764 -15.294 -0.523 0.38
-5.711 -15.299 -0.523 0.37
-5.656 -15.3 -0.522 0.35
-5.6 -15.295 -0.521 0.4
-5.568 -15.283 -0.52 0.43
-5.522 -15.306 -0.52 0.23
-5.463 -15.292 -0.519 0.55
-5.406 -15.284 -0.517 0.41
-5.349 -15.277 -0.516 0.35
-5.292 -15.267 -0.515 0.36
-5.24 -15.272 -0.515 0.36
-5.185 -15.268 -0.514 0.24
-5.155 -15.259 -0.513 0.31
-5.064 -15.144 -0.507 0.33
-5.013 -15.151 -0.506 0.39
-4.96 -15.149 -0.505 0.63
-4.938 -15.244 -0.509 0.32
-4.842 -15.11 -0.502 0.27
-4.774 -15.062 -0.499 0.53
-4.752 -15.075 -0.499 0.32
-4.684 -15.025 -0.496 0.68
-4.697 -15.233 -0.505 0.36
-4.647 -15.24 -0.505 0.4
-4.592 -15.231 -0.504 0.38
-4.537 -15.223 -0.503 0.33
-4.485 -15.223 -0.502 0.33
-4.455 -15.209 -0.501 0.38
-4.398 -15.191 -0.5 0.31
-4.323 -15.11 -0.495 0.4
-4.263 -15.078 -0.493 0.68
-4.248 -15.206 -0.499 0.34
-4.156 -15.064 -0.491 0.27
-4.075 -14.951 -0.486 0.33
-4.089 -15.095 -0.492 0.43
-4.034 -15.082 -0.491 0.42
-3.99 -15.107 -0.491 0.5
-3.95 -15.146 -0.493 0.26
-3.88 -15.073 -0.489 0.47
-3.835 -15.095 -0.489 0.51
-3.807 -15.183 -0.493 0.36
-3.781 -15.181 -0.492 0.36
-3.663 -14.908 -0.479 0.28
-3.602 -14.863 -0.477 0.59
-3.559 -14.888 -0.477 0.32
-3.517 -14.92 -0.478 0.45
-3.48 -14.974 -0.48 0.45
-3.457 -15.088 -0.485 0.45
-3.426 -15.171 -0.488 0.34
-3.399 -15.162 -0.488 0.41
-3.353 -15.181 -0.488 0.3
-3.3 -15.168 -0.487 0.45
-3.247 -15.153 -0.486 0.42
-3.197 -15.153 -0.485 0.35
-3.146 -15.145 -0.484 0.4
-3.12 -15.141 -0.484 0.33
-3.03 -14.941 -0.474 0.37
-2.983 -14.952 -0.475 0.53
-2.953 -15.048 -0.478 0.23
-2.847 -14.755 -0.465 0.38
-2.794 -14.729 -0.463 0.55
-2.755 -14.775 -0.465 0.32
-2.703 -14.752 -0.463 0.52
-2.742 -15.098 -0.479 0.45
-2.671 -14.973 -0.473 0.38
-2.62 -14.961 -0.472 0.38
-2.563 -14.91 -0.469 0.54
-2.503 -14.842 -0.466 0.36
-2.45 -14.81 -0.464 0.58
-2.422 -14.932 -0.469 0.29
-2.408 -14.997 -0.472 0.53
-2.368 -15.048 -0.474 0.43
-2.325 -15.083 -0.475 0.36
-2.278 -15.09 -0.475 0.36
-2.231 -15.101 -0.475 0.29
-2.183 -15.102 -0.475 0.45
-2.134 -15.099 -0.475 0.39
-2.108 -15.088 -0.474 0.44
-2.058 -15.079 -0.473 0.41
-2.008 -15.066 -0.472 0.39
-1.96 -15.068 -0.472 0.35
-1.913 -15.072 -0.472 0.44
-1.865 -15.074 -0.472 0.36
-1.815 -15.062 -0.471 0.49
-1.791 -15.059 -0.471 0.35
-1.74 -15.031 -0.469 0.38
-1.683 -14.951 -0.466 0.39
-1.634 -14.944 -0.465 0.41
-1.587 -14.941 -0.465 0.38
-1.539 -14.938 -0.464 0.41
-1.492 -14.943 -0.464 0.42
-1.467 -14.935 -0.464 0.37
-1.42 -14.934 -0.464 0.39
-1.372 -14.926 -0.463 0.43
-1.325 -14.933 -0.463 0.36
-1.277 -14.923 -0.463 0.48
-1.23 -14.925 -0.462 0.18
-1.176 -14.835 -0.458 0.47
-1.133 -14.886 -0.46 0.38
-1.103 -14.804 -0.457 0.43
-1.054 -14.778 -0.455 0.43
-1.003 -14.707 -0.452 0.57
-0.962 -14.796 -0.456 0.3
-0.914 -14.781 -0.455 0.48
-0.873 -14.864 -0.459 0.39
-0.849 -14.857 -0.458 0.43
-0.797 -14.76 -0.454 0.49
-0.754 -14.826 -0.457 0.36
-0.701 -14.697 -0.451 0.51
-0.657 -14.747 -0.453 0.39
-0.613 -14.805 -0.455 0.45
-0.567 -14.813 -0.456 0.45
-0.516 -14.692 -0.45 0.41
-0.493 -14.707 -0.451 0.52
-0.447 -14.711 -0.451 0.38
-0.402 -14.752 -0.453 0.41
-0.356 -14.793 -0.455 0.58
-0.308 -14.728 -0.452 0.43
-0.262 -14.695 -0.45 0.43
-0.216 -14.748 -0.452 0.38
-0.193 -14.726 -0.451 0.46
-0.149 -14.969 -0.462 0.45
-0.102 -14.955 -0.462 0.38
-0.055 -14.951 -0.461 0.45
-0.008 -14.955 -0.462 0.34
0.039 -14.949 -0.461 0.38
0.086 -14.945 -0.461 0.44
0.109 -14.927 -0.46 0.21
0.156 -14.917 -0.46 0.55
0.203 -14.938 -0.461 0.32
0.25 -14.935 -0.461 0.36
0.297 -14.932 -0.461 0.4
0.344 -14.927 -0.461 0.37
0.391 -14.924 -0.46 0.42
0.414 -14.924 -0.46 0.33
0.461 -14.942 -0.461 0.27
0.508 -14.943 -0.461 0.42
0.555 -14.927 -0.461 0.38
