# .PCD v.7 - Point Cloud Data file format
VERSION .7
FIELDS x y z intensity
SIZE 4 4 4 4
TYPE F F F F
COUNT 1 1 1 1
WIDTH 1872
HEIGHT 1
VIEWPOINT 0 0 0 1 0 0 0
POINTS 1872
DATA ascii
12.992 -5.918 -1.553 0.28
13.054 -5.896 -1.559 0.29
13.156 -5.893 -1.57 0.27
13.165 -5.847 -1.569 0.29
13.185 -5.807 -1.57 0.24
13.076 -5.734 -1.554 0.32
12.999 -5.652 -1.541 0.31
13.077 -5.637 -1.549 0.36
13.13 -5.611 -1.554 0.38
13.05 -5.529 -1.541 0.18
13.023 -5.469 -1.535 0.39
13.037 -5.427 -1.534 0.34
12.944 -5.341 -1.52 0.34
12.956 -5.322 -1.52 0.27
13.057 -5.315 -1.531 0.35
13.064 -5.271 -1.53 0.23
13.09 -5.233 -1.531 0.47
13.123 -5.199 -1.534 0.38
13.156 -5.164 -1.536 0.28
13.269 -5.16 -1.549 0.36
13.299 -5.147 -1.551 0.34
13.38 -5.13 -1.56 0.27
13.457 -5.111 -1.568 0.27
13.486 -5.074 -1.57 0.32
13.48 -5.023 -1.567 0.43
13.522 -4.99 -1.57 0.29
13.565 -4.958 -1.574 0.35
13.405 -4.876 -1.552 0.0
12.661 -4.517 -1.451 0.06
12.763 -4.508 -1.463 0.23
12.901 -4.511 -1.479 0.21
13.095 -4.533 -1.502 0.28
13.201 -4.523 -1.514 0.2
13.346 -4.548 -1.532 0.43
13.463 -4.541 -1.545 0.25
13.429 -4.483 -1.539 0.21
13.656 -4.51 -1.566 0.36
13.725 -4.485 -1.573 0.19
13.81 -4.465 -1.583 0.3
13.824 -4.422 -1.583 0.16
13.915 -4.426 -1.593 0.45
13.961 -4.393 -1.598 0.35
13.959 -4.344 -1.596 0.32
13.975 -4.301 -1.596 0.3
13.99 -4.258 -1.596 0.31
13.988 -4.209 -1.594 0.28
13.984 -4.16 -1.592 0.23
14.017 -4.146 -1.595 0.33
14.021 -4.099 -1.594 0.3
14.055 -4.061 -1.597 0.32
14.062 -4.015 -1.596 0.3
14.086 -3.974 -1.598 0.28
14.096 -3.929 -1.597 0.27
14.122 -3.889 -1.599 0.26
14.163 -3.852 -1.603 0.32
14.163 -3.828 -1.602 0.29
14.179 -3.785 -1.602 0.29
14.187 -3.739 -1.602 0.3
14.208 -3.697 -1.603 0.27
14.225 -3.654 -1.604 0.32
14.271 -3.618 -1.608 0.34
14.248 -3.565 -1.604 0.38
14.265 -3.545 -1.605 0.27
14.257 -3.495 -1.603 0.3
14.247 -3.446 -1.6 0.31
14.288 -3.408 -1.604 0.23
14.26 -3.354 -1.599 0.0
13.034 -3.025 -1.444 0.12
13.131 -3.004 -1.454 0.23
13.325 -3.026 -1.478 0.26
13.591 -3.041 -1.511 0.3
13.808 -3.043 -1.537 0.31
13.957 -3.03 -1.554 0.3
14.034 -3.001 -1.563 0.23
14.073 -2.963 -1.566 0.29
14.086 -2.919 -1.567 0.34
14.087 -2.896 -1.566 0.27
14.129 -2.859 -1.57 0.25
14.27 -2.84 -1.587 0.23
14.339 -2.807 -1.595 0.38
14.297 -2.752 -1.588 0.26
14.328 -2.712 -1.591 0.38
14.305 -2.661 -1.587 0.26
14.063 -2.593 -1.556 0.35
14.143 -2.562 -1.565 0.27
14.051 -2.5 -1.553 0.32
14.034 -2.452 -1.55 0.32
13.955 -2.393 -1.539 0.35
13.928 -2.343 -1.535 0.36
13.872 -2.289 -1.527 0.31
13.784 -2.252 -1.515 0.27
13.734 -2.2 -1.508 0.38
13.743 -2.157 -1.509 0.36
13.755 -2.115 -1.509 0.32
13.789 -2.076 -1.513 0.33
13.662 -2.013 -1.496 0.38
13.771 -1.985 -1.509 0.25
13.782 -1.964 -1.51 0.35
13.697 -1.908 -1.499 0.3
13.705 -1.866 -1.499 0.32
13.652 -1.815 -1.492 0.42
13.608 -1.766 -1.485 0.28
13.541 -1.714 -1.476 0.27
13.475 -1.663 -1.468 0.32
13.561 -1.651 -1.478 0.37
13.994 -1.659 -1.531 0.21
14.174 -1.635 -1.552 0.29
14.154 -1.587 -1.549 0.33
14.208 -1.548 -1.555 0.45
14.264 -1.509 -1.562 0.31
14.352 -1.472 -1.572 0.45
14.474 -1.462 -1.587 0.32
14.519 -1.42 -1.592 0.29
14.535 -1.376 -1.593 0.32
14.525 -1.329 -1.591 0.3
14.523 -1.283 -1.591 0.3
14.508 -1.235 -1.588 0.29
14.495 -1.188 -1.586 0.3
14.478 -1.164 -1.584 0.26
14.475 -1.118 -1.583 0.28
14.459 -1.071 -1.581 0.28
14.46 -1.026 -1.58 0.28
14.432 -0.978 -1.577 0.2
14.456 -0.934 -1.579 0.44
14.441 -0.888 -1.577 0.22
14.419 -0.864 -1.574 0.17
14.447 -0.82 -1.577 0.43
14.44 -0.774 -1.576 0.23
14.413 -0.727 -1.572 0.19
14.427 -0.682 -1.574 0.41
14.409 -0.636 -1.571 0.23
14.405 -0.591 -1.571 0.19
14.421 -0.546 -1.572 0.42
14.404 -0.523 -1.57 0.23
14.407 -0.477 -1.57 0.25
14.419 -0.432 -1.572 0.24
14.372 -0.386 -1.566 0.18
14.395 -0.341 -1.569 0.45
14.386 -0.296 -1.567 0.25
14.379 -0.251 -1.566 0.27
14.37 -0.228 -1.565 0.28
14.362 -0.183 -1.564 0.29
14.355 -0.137 -1.563 0.27
14.361 -0.092 -1.564 0.27
14.365 -0.047 -1.564 0.29
14.346 -0.002 -1.562 0.29
13.75 0.018 -1.559 0.27
13.749 0.061 -1.559 0.29
13.727 0.104 -1.556 0.3
13.733 0.148 -1.557 0.26
13.727 0.169 -1.556 0.3
13.736 0.212 -1.558 0.26
13.723 0.255 -1.556 0.29
13.711 0.298 -1.555 0.29
13.714 0.341 -1.555 0.28
13.683 0.384 -1.551 0.3
13.666 0.426 -1.549 0.29
13.681 0.448 -1.551 0.26
13.691 0.491 -1.553 0.28
13.678 0.534 -1.551 0.19
13.688 0.577 -1.553 0.43
13.684 0.62 -1.553 0.25
13.694 0.664 -1.554 0.2
13.69 0.707 -1.554 0.41
13.681 0.75 -1.553 0.25
13.69 0.772 -1.554 0.2
13.694 0.815 -1.555 0.39
13.681 0.857 -1.554 0.23
13.676 0.9 -1.554 0.19
13.681 0.944 -1.555 0.39
13.666 0.986 -1.553 0.23
13.653 1.028 -1.552 0.19
13.65 1.049 -1.552 0.4
13.642 1.092 -1.551 0.25
13.637 1.135 -1.551 0.2
13.625 1.177 -1.55 0.42
13.606 1.218 -1.548 0.25
13.588 1.26 -1.546 0.26
13.586 1.302 -1.546 0.29
13.58 1.323 -1.546 0.26
13.57 1.366 -1.545 0.27
13.558 1.407 -1.544 0.28
13.557 1.45 -1.545 0.29
13.537 1.491 -1.543 0.27
13.526 1.533 -1.542 0.29
13.525 1.576 -1.542 0.32
13.509 1.596 -1.541 0.29
13.5 1.638 -1.54 0.3
13.501 1.681 -1.541 0.32
13.485 1.722 -1.539 0.29
13.484 1.765 -1.54 0.32
13.478 1.807 -1.54 0.31
13.472 1.849 -1.54 0.28
13.466 1.87 -1.539 0.29
13.456 1.912 -1.539 0.29
13.448 1.954 -1.539 0.32
13.449 1.997 -1.54 0.29
13.435 2.038 -1.539 0.31
13.431 2.081 -1.539 0.3
13.43 2.124 -1.54 0.29
13.413 2.143 -1.538 0.31
13.404 2.185 -1.538 0.3
13.401 2.227 -1.538 0.3
13.378 2.267 -1.536 0.27
13.371 2.309 -1.536 0.29
13.364 2.351 -1.536 0.29
13.347 2.391 -1.535 0.29
13.339 2.411 -1.534 0.29
13.325 2.452 -1.534 0.29
13.31 2.493 -1.533 0.32
13.296 2.533 -1.532 0.31
13.296 2.577 -1.533 0.3
13.29 2.619 -1.533 0.3
13.274 2.659 -1.532 0.32
13.269 2.68 -1.532 0.31
13.255 2.72 -1.531 0.29
13.237 2.76 -1.53 0.33
13.232 2.802 -1.531 0.32
13.223 2.844 -1.531 0.3
13.208 2.884 -1.53 0.3
13.197 2.925 -1.53 0.32
13.193 2.946 -1.53 0.33
13.174 2.985 -1.528 0.32
13.172 3.028 -1.529 0.32
13.151 3.067 -1.528 0.31
13.143 3.109 -1.528 0.32
13.143 3.152 -1.529 0.31
13.129 3.193 -1.529 0.3
13.115 3.233 -1.528 0.3
13.102 3.252 -1.527 0.31
13.098 3.294 -1.528 0.3
13.08 3.333 -1.527 0.31
13.069 3.374 -1.527 0.29
13.056 3.415 -1.527 0.31
13.044 3.455 -1.527 0.33
13.029 3.495 -1.526 0.28
13.025 3.516 -1.526 0.29
13.003 3.554 -1.525 0.29
13.001 3.598 -1.526 0.29
12.996 3.64 -1.527 0.29
12.967 3.676 -1.525 0.29
12.959 3.718 -1.525 0.31
12.938 3.756 -1.524 0.28
12.934 3.777 -1.524 0.31
12.916 3.816 -1.523 0.29
12.9 3.855 -1.523 0.32
12.894 3.897 -1.524 0.31
12.864 3.932 -1.521 0.29
12.858 3.975 -1.522 0.3
12.834 4.011 -1.52 0.3
12.827 4.032 -1.52 0.3
12.809 4.07 -1.52 0.27
12.796 4.11 -1.52 0.3
12.779 4.149 -1.519 0.21
12.772 4.191 -1.52 0.31
12.723 4.22 -1.515 0.43
12.715 4.261 -1.516 0.32
12.722 4.286 -1.518 0.34
12.701 4.323 -1.517 0.46
12.702 4.368 -1.519 0.31
12.66 4.398 -1.515 0.54
12.641 4.436 -1.514 0.42
12.649 4.484 -1.517 0.32
12.648 4.528 -1.519 0.31
12.647 4.55 -1.52 0.31
12.627 4.588 -1.519 0.27
12.633 4.635 -1.522 0.32
12.609 4.671 -1.52 0.3
12.614 4.718 -1.523 0.29
12.603 4.759 -1.524 0.29
12.607 4.806 -1.526 0.27
12.616 4.832 -1.529 0.24
12.61 4.875 -1.53 0.18
12.606 4.919 -1.531 0.43
12.592 4.959 -1.532 0.25
12.608 5.011 -1.536 0.19
12.588 5.049 -1.535 0.39
12.589 5.096 -1.538 0.19
12.576 5.137 -1.538 0.36
12.576 5.159 -1.539 0.22
12.576 5.206 -1.542 0.2
12.569 5.249 -1.543 0.36
12.563 5.293 -1.544 0.18
12.545 5.332 -1.544 0.36
12.541 5.376 -1.546 0.23
12.531 5.419 -1.547 0.18
12.531 5.443 -1.548 0.39
12.518 5.484 -1.549 0.23
12.506 5.525 -1.549 0.19
12.505 5.572 -1.552 0.39
12.495 5.614 -1.553 0.24
12.477 5.653 -1.553 0.26
12.483 5.68 -1.555 0.27
12.479 5.725 -1.557 0.24
12.475 5.771 -1.559 0.18
12.466 5.814 -1.56 0.45
12.45 5.854 -1.56 0.25
12.431 5.894 -1.56 0.28
12.431 5.941 -1.563 0.29
12.434 5.967 -1.565 0.27
12.426 6.011 -1.566 0.27
12.43 6.061 -1.569 0.26
12.422 6.105 -1.571 0.18
12.411 6.149 -1.572 0.45
12.402 6.193 -1.574 0.25
12.392 6.236 -1.575 0.25
12.39 6.284 -1.578 0.2
12.392 6.31 -1.579 0.41
12.376 6.351 -1.58 0.23
12.37 6.397 -1.582 0.21
12.371 6.447 -1.585 0.38
12.356 6.488 -1.586 0.19
12.351 6.535 -1.588 0.36
12.341 6.58 -1.589 0.2
12.338 6.603 -1.59 0.35
12.328 6.647 -1.592 0.2
12.31 6.688 -1.593 0.34
12.298 6.731 -1.594 0.19
12.277 6.77 -1.594 0.35
12.269 6.816 -1.596 0.18
12.258 6.86 -1.597 0.35
12.265 6.889 -1.6 0.21
12.243 6.928 -1.6 0.25
12.23 6.971 -1.601 0.21
12.222 7.017 -1.603 0.2
12.198 7.054 -1.603 0.37
12.188 7.1 -1.605 0.23
12.181 7.147 -1.607 0.2
12.188 7.177 -1.61 0.41
12.171 7.218 -1.611 0.23
12.163 7.266 -1.613 0.25
12.137 7.302 -1.612 0.29
12.112 7.339 -1.612 0.35
12.099 7.383 -1.614 0.33
12.083 7.425 -1.615 0.3
12.088 7.455 -1.617 0.28
12.088 7.507 -1.621 0.26
12.076 7.552 -1.622 0.27
12.063 7.597 -1.624 0.27
12.045 7.639 -1.625 0.27
12.045 7.692 -1.629 0.27
12.024 7.731 -1.629 0.28
12.03 7.762 -1.632 0.28
12.021 7.81 -1.634 0.25
11.991 7.844 -1.633 0.3
11.975 7.887 -1.635 0.29
11.963 7.933 -1.637 0.27
11.956 7.983 -1.639 0.28
11.934 8.023 -1.64 0.27
11.916 8.065 -1.641 0.27
11.908 8.087 -1.642 0.28
11.892 8.131 -1.643 0.29
11.877 8.175 -1.645 0.28
11.859 8.218 -1.646 0.28
11.841 8.261 -1.647 0.29
11.823 8.304 -1.649 0.29
11.815 8.353 -1.651 0.29
11.808 8.376 -1.652 0.29
11.792 8.42 -1.654 0.29
11.777 8.465 -1.656 0.28
11.761 8.51 -1.657 0.29
11.741 8.552 -1.658 0.29
11.727 8.598 -1.661 0.3
11.714 8.646 -1.663 0.3
11.697 8.662 -1.662 0.27
11.691 8.714 -1.666 0.26
11.671 8.756 -1.667 0.39
11.652 8.799 -1.668 0.3
11.641 8.849 -1.671 0.3
11.617 8.888 -1.671 0.29
11.601 8.934 -1.673 0.29
11.603 8.964 -1.676 0.29
11.592 9.014 -1.679 0.29
11.562 9.049 -1.679 0.28
11.535 9.086 -1.679 0.34
11.527 9.139 -1.682 0.3
11.527 9.198 -1.687 0.29
11.506 9.241 -1.688 0.28
11.502 9.267 -1.69 0.3
11.479 9.308 -1.691 0.3
11.467 9.358 -1.694 0.29
11.444 9.399 -1.695 0.29
11.433 9.45 -1.698 0.29
11.417 9.498 -1.7 0.3
11.391 9.537 -1.701 0.3
11.393 9.569 -1.704 0.28
11.377 9.616 -1.706 0.29
11.357 9.661 -1.708 0.23
11.348 9.715 -1.711 0.41
11.337 9.767 -1.715 0.34
11.31 9.806 -1.715 0.29
11.302 9.861 -1.719 0.3
11.299 9.922 -1.724 0.31
11.3 9.954 -1.727 0.27
11.337 10.05 -1.738 0.26
11.386 10.157 -1.752 0.24
11.382 10.217 -1.757 0.27
11.326 10.232 -1.753 0.48
11.291 10.265 -1.752 0.39
11.226 10.271 -1.747 0.36
11.166 10.248 -1.739 0.25
11.099 10.251 -1.733 0.4
11.032 10.253 -1.727 0.36
10.952 10.243 -1.719 0.45
10.903 10.263 -1.716 0.44
10.848 10.275 -1.712 0.46
10.83 10.323 -1.714 0.34
10.827 10.352 -1.717 0.3
10.794 10.386 -1.717 0.27
10.773 10.431 -1.719 0.38
10.739 10.463 -1.718 0.32
10.706 10.497 -1.718 0.29
10.673 10.531 -1.718 0.29
10.648 10.573 -1.72 0.23
10.622 10.58 -1.718 0.49
10.601 10.625 -1.72 0.28
10.602 10.694 -1.727 0.15
10.485 10.642 -1.711 0.59
10.493 10.718 -1.719 0.38
10.482 10.773 -1.723 0.28
10.459 10.818 -1.725 0.29
10.419 10.845 -1.724 0.26
10.42 10.88 -1.727 0.26
10.394 10.921 -1.729 0.3
10.346 10.939 -1.726 0.26
10.331 10.992 -1.73 0.32
10.283 11.01 -1.727 0.2
10.243 11.036 -1.726 0.32
8.018 8.702 -1.314 0.2
7.968 8.676 -1.307 0.18
7.905 8.661 -1.301 0.17
7.848 8.654 -1.295 0.32
7.793 8.647 -1.29 0.18
7.726 8.628 -1.282 0.35
7.672 8.622 -1.277 0.19
7.619 8.617 -1.272 0.38
7.572 8.591 -1.266 0.25
7.524 8.591 -1.261 0.26
7.473 8.587 -1.257 0.21
7.429 8.591 -1.253 0.16
7.387 8.597 -1.251 0.5
7.434 8.706 -1.265 0.2
7.401 8.724 -1.264 0.14
7.262 8.587 -1.239 0.14
7.226 8.599 -1.237 0.14
7.184 8.604 -1.234 0.32
7.14 8.606 -1.231 0.27
7.109 8.624 -1.23 0.21
7.058 8.617 -1.225 0.23
7.013 8.618 -1.222 0.41
6.979 8.603 -1.218 0.11
6.92 8.586 -1.211 0.09
6.876 8.586 -1.208 0.15
6.838 8.594 -1.205 0.23
6.796 8.597 -1.202 0.18
6.726 8.563 -1.193 0.23
6.694 8.578 -1.192 0.27
6.586 8.496 -1.176 0.53
6.605 8.547 -1.182 0.24
6.578 8.568 -1.182 0.25
6.535 8.568 -1.179 0.29
6.494 8.569 -1.176 0.29
6.455 8.574 -1.173 0.29
6.403 8.561 -1.168 0.28
6.364 8.565 -1.166 0.29
6.333 8.551 -1.162 0.29
6.294 8.555 -1.159 0.29
6.257 8.56 -1.157 0.3
6.219 8.566 -1.155 0.3
6.175 8.561 -1.151 0.3
6.136 8.564 -1.148 0.3
6.092 8.559 -1.145 0.3
6.069 8.556 -1.142 0.3
6.023 8.548 -1.138 0.27
5.993 8.562 -1.137 0.21
5.951 8.559 -1.134 0.48
5.912 8.56 -1.131 0.32
5.873 8.562 -1.129 0.29
5.829 8.554 -1.125 0.3
5.807 8.552 -1.123 0.33
5.77 8.555 -1.121 0.3
5.726 8.547 -1.117 0.3
5.689 8.55 -1.114 0.3
5.652 8.553 -1.112 0.32
5.615 8.556 -1.11 0.33
5.578 8.557 -1.107 0.32
5.537 8.553 -1.104 0.32
5.519 8.555 -1.103 0.35
5.477 8.549 -1.099 0.3
5.44 8.551 -1.097 0.32
5.404 8.553 -1.095 0.33
5.368 8.555 -1.092 0.34
5.335 8.563 -1.091 0.33
5.293 8.555 -1.087 0.32
5.271 8.55 -1.085 0.33
5.235 8.551 -1.083 0.34
5.197 8.55 -1.081 0.35
5.163 8.555 -1.079 0.29
5.129 8.559 -1.077 0.36
5.096 8.565 -1.075 0.3
5.055 8.557 -1.072 0.37
5.035 8.553 -1.07 0.31
4.998 8.552 -1.068 0.36
4.961 8.55 -1.065 0.31
4.931 8.561 -1.064 0.27
4.897 8.564 -1.063 0.48
4.86 8.562 -1.06 0.32
4.826 8.563 -1.058 0.34
4.785 8.554 -1.054 0.3
4.767 8.553 -1.053 0.35
4.727 8.546 -1.05 0.3
4.694 8.548 -1.048 0.37
4.656 8.544 -1.045 0.31
4.628 8.555 -1.045 0.36
4.588 8.547 -1.042 0.31
4.56 8.558 -1.041 0.32
4.536 8.546 -1.038 0.33
4.503 8.549 -1.037 0.36
4.466 8.542 -1.034 0.3
4.434 8.547 -1.032 0.35
4.397 8.542 -1.03 0.34
4.367 8.549 -1.029 0.33
4.333 8.55 -1.027 0.34
4.309 8.536 -1.024 0.33
4.281 8.546 -1.023 0.3
4.246 8.543 -1.021 0.36
4.213 8.544 -1.019 0.32
4.187 8.559 -1.019 0.31
4.153 8.558 -1.017 0.34
4.124 8.567 -1.017 0.35
4.098 8.582 -1.017 0.33
4.078 8.574 -1.015 0.39
4.047 8.578 -1.014 0.37
4.015 8.58 -1.012 0.37
3.982 8.58 -1.011 0.38
3.956 8.596 -1.011 0.37
3.928 8.604 -1.011 0.39
3.892 8.597 -1.008 0.36
3.879 8.605 -1.008 0.33
3.852 8.617 -1.008 0.36
3.821 8.62 -1.007 0.35
3.793 8.63 -1.006 0.34
3.763 8.635 -1.005 0.31
3.733 8.641 -1.005 0.27
3.718 8.682 -1.009 0.3
3.726 8.737 -1.016 0.12
3.681 8.707 -1.01 0.0
3.716 8.868 -1.031 0.12
3.723 8.962 -1.042 0.15
3.695 8.974 -1.042 0.23
3.671 8.996 -1.044 0.23
3.645 9.013 -1.044 0.48
3.625 9.045 -1.047 0.21
3.635 9.109 -1.055 0.0
3.613 9.139 -1.058 0.0
3.599 9.187 -1.063 0.0
3.589 9.247 -1.069 0.0
3.571 9.286 -1.073 0.0
3.559 9.343 -1.08 0.08
3.553 9.415 -1.088 0.17
3.583 9.54 -1.104 0.32
3.596 9.666 -1.12 0.21
3.599 9.765 -1.132 0.28
3.64 9.973 -1.159 0.35
3.666 10.141 -1.18 0.16
4.254 11.988 -1.428 0.46
4.246 12.026 -1.432 0.33
4.202 12.021 -1.429 0.45
4.161 12.025 -1.428 0.41
4.121 12.034 -1.428 0.4
4.098 12.09 -1.433 0.41
4.041 12.044 -1.426 0.43
4.014 12.091 -1.43 0.35
3.974 12.033 -1.422 0.5
3.933 12.036 -1.42 0.41
3.908 12.088 -1.426 0.3
3.866 12.087 -1.424 0.51
3.833 12.116 -1.426 0.36
3.793 12.122 -1.425 0.4
3.754 12.131 -1.425 0.43
3.697 12.082 -1.417 0.41
3.686 12.114 -1.42 0.42
3.645 12.116 -1.419 0.39
3.598 12.095 -1.415 0.46
3.551 12.076 -1.411 0.33
3.523 12.123 -1.415 0.39
3.449 12.01 -1.399 0.49
3.438 12.113 -1.411 0.28
3.417 12.11 -1.41 0.49
3.377 12.115 -1.409 0.36
3.338 12.122 -1.409 0.36
3.303 12.146 -1.411 0.56
3.269 12.172 -1.413 0.33
3.229 12.174 -1.412 0.56
3.189 12.176 -1.411 0.33
3.169 12.178 -1.41 0.44
3.109 12.107 -1.399 0.48
3.078 12.142 -1.403 0.34
3.025 12.093 -1.395 0.44
2.987 12.105 -1.395 0.35
2.944 12.093 -1.393 0.52
2.913 12.131 -1.396 0.36
2.869 12.113 -1.393 0.42
2.86 12.16 -1.398 0.41
2.825 12.183 -1.4 0.39
2.79 12.207 -1.402 0.41
2.72 12.078 -1.384 0.45
2.703 12.178 -1.396 0.39
2.651 12.124 -1.388 0.36
2.625 12.189 -1.395 0.46
2.601 12.171 -1.393 0.34
2.554 12.137 -1.387 0.47
2.53 12.211 -1.396 0.28
2.473 12.131 -1.384 0.6
2.462 12.271 -1.401 0.26
2.416 12.242 -1.397 0.44
2.38 12.265 -1.399 0.4
2.353 12.228 -1.393 0.34
2.325 12.288 -1.4 0.47
2.288 12.303 -1.401 0.43
2.24 12.259 -1.395 0.43
2.219 12.366 -1.408 0.33
2.186 12.406 -1.412 0.48
2.146 12.403 -1.411 0.33
2.119 12.367 -1.406 0.52
2.089 12.423 -1.412 0.29
2.05 12.433 -1.412 0.51
2.016 12.469 -1.416 0.36
1.971 12.436 -1.411 0.35
1.938 12.481 -1.416 0.51
1.914 12.587 -1.429 0.35
1.874 12.589 -1.429 0.5
1.854 12.59 -1.428 0.25
1.797 12.476 -1.413 0.62
1.769 12.562 -1.423 0.27
1.739 12.635 -1.432 0.55
1.73 12.866 -1.461 0.36
1.687 12.856 -1.459 0.29
1.643 12.831 -1.455 0.63
1.617 12.787 -1.449 0.36
1.589 12.886 -1.461 0.43
1.563 13.009 -1.477 0.4
1.547 13.227 -1.504 0.4
1.497 13.155 -1.494 0.32
1.445 13.067 -1.482 0.55
1.422 13.237 -1.503 0.27
1.444 13.64 -1.555 0.53
1.391 13.541 -1.542 0.26
1.512 15.156 -1.749 0.26
1.466 15.179 -1.751 0.27
1.418 15.185 -1.751 0.3
1.372 15.204 -1.753 0.3
1.325 15.224 -1.755 0.29
1.278 15.238 -1.756 0.29
1.255 15.249 -1.758 0.27
1.207 15.251 -1.757 0.25
1.16 15.265 -1.759 0.35
1.114 15.292 -1.762 0.33
1.068 15.323 -1.765 0.22
1.019 15.321 -1.765 0.4
0.972 15.34 -1.767 0.3
0.949 15.357 -1.769 0.29
0.901 15.358 -1.768 0.25
0.854 15.38 -1.771 0.21
0.805 15.371 -1.769 0.42
0.757 15.388 -1.771 0.45
0.71 15.41 -1.774 0.31
0.662 15.42 -1.775 0.25
0.613 15.424 -1.775 0.3
0.588 15.393 -1.771 0.29
0.54 15.405 -1.772 0.5
0.492 15.436 -1.776 0.28
0.444 15.455 -1.778 0.25
0.396 15.468 -1.78 0.46
0.347 15.47 -1.78 0.28
0.299 15.457 -1.778 0.41
0.275 15.469 -1.779 0.32
0.226 15.482 -1.781 0.31
0.178 15.484 -1.781 0.37
0.129 15.487 -1.782 0.28
0.08 15.501 -1.783 0.2
0.032 15.487 -1.782 0.48
-0.017 15.519 -1.786 0.19
-0.041 15.475 -1.78 0.54
-0.09 15.503 -1.784 0.37
-0.139 15.495 -1.783 0.34
-0.187 15.49 -1.782 0.37
-0.236 15.464 -1.779 0.38
-0.284 15.443 -1.776 0.38
-0.332 15.42 -1.773 0.39
-0.38 15.39 -1.77 0.38
-0.404 15.381 -1.769 0.23
-0.451 15.336 -1.763 0.55
-0.499 15.338 -1.764 0.29
-0.547 15.331 -1.763 0.42
-0.596 15.337 -1.764 0.31
-0.644 15.333 -1.764 0.41
-0.69 15.287 -1.758 0.45
-0.713 15.266 -1.755 0.34
-0.759 15.221 -1.75 0.49
-0.806 15.202 -1.748 0.42
-0.854 15.208 -1.749 0.29
-0.899 15.151 -1.742 0.55
-0.945 15.129 -1.739 0.33
-0.99 15.082 -1.734 0.53
-1.012 15.053 -1.73 0.29
-1.06 15.063 -1.732 0.48
-1.105 15.032 -1.728 0.34
-1.151 15.007 -1.726 0.45
-1.198 14.997 -1.725 0.37
-1.243 14.972 -1.722 0.45
-1.288 14.942 -1.719 0.37
-1.308 14.897 -1.713 0.53
-1.355 14.898 -1.714 0.3
-1.4 14.876 -1.712 0.56
-1.444 14.842 -1.708 0.41
-1.489 14.822 -1.706 0.32
-1.527 14.732 -1.695 0.51
-1.579 14.786 -1.703 0.33
-1.626 14.783 -1.703 0.45
-1.652 14.806 -1.706 0.35
-1.702 14.827 -1.709 0.49
-1.744 14.784 -1.705 0.29
-1.794 14.814 -1.709 0.48
-1.843 14.822 -1.711 0.3
-1.893 14.844 -1.715 0.5
-1.936 14.81 -1.711 0.34
-1.966 14.862 -1.718 0.37
-2.013 14.854 -1.718 0.55
-2.068 14.91 -1.726 0.35
-2.113 14.894 -1.725 0.37
-2.163 14.909 -1.727 0.5
-2.213 14.922 -1.73 0.45
-2.264 14.946 -1.734 0.28
-2.289 14.948 -1.735 0.56
-2.332 14.917 -1.732 0.25
-2.381 14.922 -1.733 0.51
-2.439 14.983 -1.742 0.32
-2.477 14.922 -1.735 0.51
-2.525 14.922 -1.736 0.35
-2.576 14.934 -1.739 0.39
-2.624 14.935 -1.74 0.47
-2.655 14.976 -1.746 0.4
-2.708 14.997 -1.75 0.34
-2.771 15.076 -1.761 0.3
-2.805 14.997 -1.752 0.62
-2.9 15.24 -1.785 0.0
-2.898 14.973 -1.751 0.0
-8.093 41.356 -5.19 0.0
-8.158 41.345 -5.19 0.0
-8.292 41.337 -5.192 0.0
-8.426 41.334 -5.195 0.0
-8.559 41.323 -5.197 0.0
-8.692 41.311 -5.199 0.0
-8.831 41.324 -5.205 0.0
-8.962 41.304 -5.206 0.0
-9.033 41.317 -5.209 0.0
-9.169 41.318 -5.213 0.0
-9.3 41.295 -5.214 0.0
-9.442 41.317 -5.221 0.0
-9.572 41.287 -5.221 0.06
-9.694 41.226 -5.217 0.18
-9.852 41.315 -5.232 0.11
-9.983 41.29 -5.233 0.0
-10.014 41.135 -5.215 0.0
-10.132 41.059 -5.209 0.0
-10.253 40.995 -5.205 0.0
-10.375 40.933 -5.201 0.0
-10.489 40.845 -5.194 0.0
-10.52 40.437 -5.144 0.04
-10.566 40.095 -5.103 0.0
-10.56 39.82 -5.069 0.0
-10.572 39.365 -5.013 0.0
-10.58 38.904 -4.957 0.0
-10.594 38.475 -4.904 0.0
-10.594 38.007 -4.847 0.0
-9.85 34.492 -4.388 0.15
-9.899 34.255 -4.361 0.28
-9.849 33.882 -4.313 0.3
-9.896 33.645 -4.286 0.26
-9.963 33.484 -4.268 0.36
-9.987 33.183 -4.232 0.26
-9.981 32.789 -4.184 0.27
-10.043 32.625 -4.166 0.27
-10.132 32.549 -4.16 0.33
-10.158 32.454 -4.15 0.32
-10.243 32.367 -4.142 0.27
-10.255 32.053 -4.105 0.28
-10.278 31.779 -4.072 0.3
-10.272 31.424 -4.029 0.27
-10.267 31.075 -3.986 0.3
-10.297 30.841 -3.959 0.21
-10.23 30.481 -3.913 0.27
-10.245 30.208 -3.88 0.21
-10.175 29.693 -3.815 0.28
-6.046 17.433 -2.161 0.25
-6.094 17.395 -2.158 0.27
-6.159 17.404 -2.162 0.19
-6.208 17.369 -2.16 0.18
-6.275 17.383 -2.164 0.2
-6.304 17.379 -2.165 0.21
-6.341 17.311 -2.159 0.2
-6.405 17.317 -2.162 0.3
-6.452 17.276 -2.159 0.21
-6.516 17.284 -2.163 0.18
-6.575 17.274 -2.165 0.32
-6.642 17.287 -2.169 0.19
-6.654 17.237 -2.164 0.34
-6.719 17.244 -2.168 0.18
-6.764 17.201 -2.165 0.36
-6.829 17.205 -2.168 0.2
-6.861 17.128 -2.161 0.25
-6.901 17.074 -2.156 0.21
-6.974 17.1 -2.163 0.19
-6.975 17.024 -2.154 0.39
-7.023 16.99 -2.152 0.2
-7.05 16.905 -2.143 0.38
-7.102 16.879 -2.143 0.21
-7.152 16.85 -2.142 0.18
-7.186 16.783 -2.136 0.39
-7.233 16.748 -2.134 0.19
-7.235 16.68 -2.126 0.38
-7.29 16.663 -2.127 0.21
-7.319 16.587 -2.119 0.18
-7.35 16.517 -2.113 0.45
-7.399 16.486 -2.112 0.25
-7.449 16.459 -2.111 0.26
-7.49 16.412 -2.108 0.26
-7.539 16.383 -2.107 0.27
-7.562 16.366 -2.106 0.26
-7.606 16.326 -2.104 0.3
-7.643 16.272 -2.1 0.27
-7.694 16.248 -2.1 0.27
-7.742 16.218 -2.099 0.26
-7.786 16.177 -2.097 0.27
-7.819 16.117 -2.092 0.3
-7.861 16.075 -2.089 0.26
-7.875 16.039 -2.086 0.3
-7.92 16.004 -2.084 0.3
-7.961 15.961 -2.082 0.29
-7.999 15.911 -2.078 0.3
-8.045 15.879 -2.077 0.3
-8.092 15.846 -2.076 0.29
-8.137 15.812 -2.075 0.29
-8.155 15.785 -2.073 0.29
-8.2 15.752 -2.072 0.29
-8.237 15.702 -2.068 0.3
-8.277 15.658 -2.066 0.31
-8.315 15.611 -2.063 0.3
-8.351 15.561 -2.059 0.31
-8.385 15.506 -2.055 0.3
-8.397 15.47 -2.052 0.28
-8.437 15.428 -2.05 0.29
-8.475 15.383 -2.047 0.3
-8.514 15.34 -2.045 0.3
-8.553 15.296 -2.042 0.3
-8.584 15.24 -2.038 0.29
-8.622 15.195 -2.035 0.3
-8.638 15.168 -2.033 0.29
-8.673 15.118 -2.03 0.29
-8.709 15.07 -2.027 0.29
-8.736 15.009 -2.022 0.29
-8.765 14.95 -2.017 0.29
-8.805 14.911 -2.015 0.31
-8.839 14.861 -2.012 0.29
-8.867 14.802 -2.008 0.29
-8.866 14.748 -2.001 0.33
-8.888 14.679 -1.995 0.32
-8.903 14.6 -1.988 0.34
-8.955 14.582 -1.989 0.41
-9.006 14.562 -1.991 0.33
-9.046 14.526 -1.989 0.37
-9.095 14.502 -1.99 0.31
-9.121 14.493 -1.991 0.38
-9.156 14.447 -1.988 0.34
-9.193 14.405 -1.986 0.31
-9.233 14.368 -1.985 0.3
-9.27 14.327 -1.983 0.3
-9.311 14.291 -1.982 0.29
-9.356 14.262 -1.982 0.3
-9.365 14.227 -1.979 0.3
-9.409 14.196 -1.979 0.31
-9.451 14.163 -1.978 0.31
-9.49 14.125 -1.977 0.29
-9.531 14.09 -1.976 0.31
-9.568 14.051 -1.975 0.3
-9.606 14.011 -1.973 0.3
-9.625 13.992 -1.973 0.32
-9.668 13.96 -1.973 0.29
-9.715 13.935 -1.973 0.24
-9.764 13.911 -1.974 0.45
-9.825 13.904 -1.978 0.33
-9.869 13.875 -1.978 0.33
-9.915 13.847 -1.979 0.31
-9.967 13.827 -1.981 0.3
-9.988 13.811 -1.981 0.32
-10.038 13.788 -1.982 0.29
-10.103 13.787 -1.987 0.31
-10.152 13.763 -1.988 0.3
-10.199 13.736 -1.989 0.3
-10.244 13.707 -1.989 0.3
-10.287 13.675 -1.989 0.3
-10.318 13.671 -1.991 0.29
-10.358 13.634 -1.991 0.3
-10.408 13.611 -1.992 0.27
-10.458 13.588 -1.994 0.28
-10.498 13.551 -1.993 0.29
-10.546 13.526 -1.994 0.29
-10.593 13.498 -1.995 0.28
-10.652 13.486 -1.999 0.27
-10.678 13.476 -2.0 0.3
-10.732 13.456 -2.002 0.29
-10.776 13.425 -2.002 0.29
-10.833 13.41 -2.006 0.28
-10.88 13.382 -2.007 0.29
-10.93 13.357 -2.008 0.28
-10.99 13.344 -2.012 0.25
-11.01 13.327 -2.012 0.19
-11.06 13.301 -2.013 0.43
-11.097 13.26 -2.012 0.25
-11.144 13.233 -2.013 0.26
-11.196 13.21 -2.015 0.27
-11.247 13.185 -2.017 0.28
-11.284 13.146 -2.016 0.27
-11.307 13.131 -2.017 0.27
-11.349 13.095 -2.017 0.27
-11.396 13.067 -2.018 0.27
-11.438 13.033 -2.018 0.28
-11.486 13.004 -2.02 0.25
-11.532 12.974 -2.021 0.28
-11.569 12.933 -2.02 0.28
-11.602 12.93 -2.023 0.27
-11.655 12.906 -2.025 0.29
-11.691 12.865 -2.024 0.3
-11.741 12.839 -2.026 0.29
-11.787 12.808 -2.027 0.29
-11.828 12.772 -2.027 0.28
-11.879 12.747 -2.029 0.28
-11.928 12.719 -2.031 0.28
-11.955 12.708 -2.032 0.29
-12.01 12.686 -2.035 0.28
-12.069 12.668 -2.039 0.26
-12.113 12.635 -2.039 0.29
-12.159 12.604 -2.041 0.29
-12.2 12.567 -2.041 0.28
-12.251 12.54 -2.043 0.27
-12.283 12.533 -2.045 0.27
-12.331 12.503 -2.047 0.27
-12.384 12.479 -2.049 0.26
-12.433 12.449 -2.051 0.19
-12.475 12.413 -2.051 0.43
-12.519 12.379 -2.052 0.25
-12.564 12.346 -2.053 0.27
-12.619 12.323 -2.057 0.22
-12.643 12.307 -2.057 0.26
-12.693 12.278 -2.059 0.36
-12.727 12.234 -2.059 0.18
-12.777 12.205 -2.061 0.43
-12.827 12.176 -2.063 0.25
-12.885 12.155 -2.066 0.2
-12.9 12.092 -2.062 0.25
-12.938 12.09 -2.065 0.45
-12.999 12.071 -2.069 0.23
-13.06 12.051 -2.074 0.18
-13.102 12.014 -2.074 0.39
-13.143 11.976 -2.075 0.23
-13.201 11.953 -2.078 0.21
-13.246 11.918 -2.08 0.38
-13.279 11.911 -2.082 0.22
-13.318 11.87 -2.082 0.18
-13.366 11.837 -2.084 0.45
-13.413 11.805 -2.086 0.23
-13.468 11.778 -2.089 0.22
-13.511 11.741 -2.09 0.33
-13.553 11.702 -2.091 0.25
-13.569 11.68 -2.091 0.36
-13.62 11.649 -2.093 0.2
-13.665 11.614 -2.094 0.0
-11.708 9.882 -1.76 0.14
-11.675 9.791 -1.75 0.18
-11.66 9.717 -1.742 0.18
-11.645 9.642 -1.734 0.33
-11.613 9.584 -1.726 0.19
-11.62 9.529 -1.723 0.37
-11.597 9.45 -1.714 0.23
-11.581 9.376 -1.706 0.2
-11.514 9.262 -1.691 0.41
-11.598 9.269 -1.7 0.27
-11.597 9.209 -1.695 0.29
-11.607 9.158 -1.692 0.26
-11.597 9.12 -1.688 0.27
-11.605 9.068 -1.684 0.29
-11.602 9.007 -1.679 0.28
-11.609 8.953 -1.676 0.29
-11.619 8.903 -1.673 0.3
-11.622 8.848 -1.669 0.3
-11.639 8.803 -1.667 0.28
-11.629 8.766 -1.663 0.29
-11.652 8.726 -1.663 0.32
-11.698 8.704 -1.666 0.27
-11.719 8.662 -1.665 0.44
-11.752 8.63 -1.666 0.46
-11.76 8.579 -1.663 0.57
-11.794 8.547 -1.664 0.45
-11.822 8.539 -1.666 0.38
-11.866 8.514 -1.669 0.32
-11.91 8.49 -1.671 0.25
-11.981 8.483 -1.678 0.28
-11.933 8.393 -1.667 0.55
-12.081 8.441 -1.686 0.27
-12.125 8.415 -1.688 0.19
-12.236 8.436 -1.702 0.2
-12.3 8.452 -1.709 0.2
-12.342 8.423 -1.712 0.22
-12.432 8.428 -1.722 0.48
-12.536 8.441 -1.734 0.3
-12.59 8.42 -1.738 0.19
-12.671 8.417 -1.746 0.12
-12.76 8.419 -1.756 0.38
-12.793 8.412 -1.759 0.2
-12.864 8.401 -1.766 0.18
-12.954 8.402 -1.775 0.12
-13.028 8.392 -1.783 0.17
-13.123 8.395 -1.793 0.28
-13.215 8.395 -1.803 0.19
-13.29 8.385 -1.81 0.17
-13.37 8.406 -1.821 0.17
-13.462 8.405 -1.83 0.2
-13.545 8.398 -1.839 0.28
-13.644 8.401 -1.85 0.26
-13.735 8.397 -1.86 0.26
-13.837 8.4 -1.871 0.25
-13.938 8.402 -1.882 0.11
-14.011 8.416 -1.891 0.17
-14.119 8.421 -1.903 0.22
-14.219 8.42 -1.914 0.19
-14.353 8.439 -1.93 0.22
-14.465 8.444 -1.943 0.18
-14.627 8.477 -1.963 0.1
-14.653 8.431 -1.963 0.09
-14.668 8.409 -1.963 0.12
-14.749 8.332 -1.967 0.54
-14.977 8.4 -1.997 0.14
-15.014 8.359 -1.998 0.39
-15.101 8.345 -2.007 0.11
-16.388 8.992 -2.191 0.15
-16.417 8.941 -2.191 0.29
-16.418 8.908 -2.19 0.27
-16.436 8.851 -2.188 0.18
-16.444 8.789 -2.185 0.44
-16.458 8.73 -2.183 0.25
-16.478 8.674 -2.182 0.28
-16.509 8.624 -2.183 0.24
-16.518 8.563 -2.18 0.29
-16.525 8.534 -2.179 0.22
-16.521 8.466 -2.175 0.43
-16.527 8.404 -2.172 0.25
-16.542 8.346 -2.17 0.28
-16.565 8.292 -2.17 0.27
-16.575 8.232 -2.168 0.27
-16.592 8.176 -2.166 0.26
-16.594 8.145 -2.165 0.27
-16.609 8.087 -2.163 0.26
-16.629 8.032 -2.163 0.26
-16.645 7.976 -2.161 0.25
-16.681 7.929 -2.163 0.25
-16.688 7.868 -2.16 0.18
-16.714 7.816 -2.161 0.43
-16.705 7.78 -2.157 0.25
-16.718 7.722 -2.156 0.2
-16.73 7.664 -2.154 0.42
-16.736 7.603 -2.152 0.25
-16.758 7.55 -2.151 0.2
-16.765 7.49 -2.149 0.41
-16.767 7.427 -2.146 0.23
-16.775 7.399 -2.146 0.23
-16.758 7.329 -2.14 0.25
-16.761 7.268 -2.137 0.32
-16.795 7.22 -2.139 0.28
-16.815 7.166 -2.138 0.4
-16.816 7.104 -2.135 0.2
-16.82 7.043 -2.133 0.23
-16.836 6.988 -2.132 0.2
-16.829 6.954 -2.13 0.22
-16.856 6.903 -2.13 0.18
-16.843 6.836 -2.126 0.13
-16.853 6.779 -2.124 0.18
-16.851 6.716 -2.121 0.28
-16.87 6.663 -2.12 0.27
-16.889 6.609 -2.12 0.27
-16.894 6.58 -2.119 0.26
-16.905 6.523 -2.118 0.25
-16.909 6.464 -2.116 0.27
-16.925 6.409 -2.115 0.26
-16.932 6.351 -2.114 0.11
-16.926 6.288 -2.11 0.16
-16.937 6.232 -2.109 0.28
-16.918 6.195 -2.105 0.19
-16.925 6.137 -2.103 0.17
-16.914 6.073 -2.099 0.31
-16.918 6.014 -2.097 0.2
-16.913 5.953 -2.094 0.34
-16.914 5.893 -2.092 0.19
-16.916 5.834 -2.089 0.35
-16.916 5.805 -2.088 0.2
-16.915 5.745 -2.085 0.33
-16.927 5.69 -2.085 0.2
-16.921 5.629 -2.081 0.23
-16.916 5.568 -2.078 0.21
-16.929 5.514 -2.078 0.23
-16.928 5.454 -2.075 0.2
-16.95 5.403 -2.076 0.21
-16.934 5.368 -2.073 0.21
-16.944 5.313 -2.072 0.21
-16.981 5.266 -2.075 0.17
-16.96 5.201 -2.069 0.13
-16.959 5.142 -2.067 0.17
-16.958 5.084 -2.065 0.12
-16.964 5.028 -2.064 0.17
-16.964 4.999 -2.063 0.12
-16.976 4.945 -2.062 0.17
-16.974 4.886 -2.06 0.29
-16.971 4.827 -2.057 0.2
-16.976 4.771 -2.056 0.18
-16.972 4.713 -2.053 0.32
-16.968 4.654 -2.051 0.18
-16.959 4.594 -2.048 0.35
-16.964 4.567 -2.048 0.19
-16.94 4.504 -2.043 0.38
-16.935 4.445 -2.04 0.23
-16.947 4.392 -2.04 0.22
-16.905 4.324 -2.032 0.18
-16.903 4.267 -2.03 0.34
-16.928 4.217 -2.032 0.34
-16.921 4.187 -2.03 0.44
-16.946 4.137 -2.032 0.31
-17.009 4.095 -2.038 0.39
-17.012 4.04 -2.037 0.31
-17.029 3.987 -2.037 0.3
-17.06 3.938 -2.04 0.29
-17.084 3.887 -2.042 0.29
-17.104 3.863 -2.043 0.29
-17.137 3.814 -2.046 0.29
-17.167 3.764 -2.048 0.28
-17.196 3.714 -2.051 0.26
-17.221 3.663 -2.052 0.29
-17.242 3.611 -2.054 0.28
-17.261 3.558 -2.055 0.26
-17.282 3.535 -2.057 0.26
-17.305 3.483 -2.058 0.27
-17.339 3.433 -2.061 0.2
-17.35 3.378 -2.061 0.43
-17.358 3.323 -2.061 0.25
-17.367 3.269 -2.061 0.27
-17.385 3.215 -2.062 0.29
-17.393 3.16 -2.062 0.27
-17.406 3.135 -2.063 0.27
-17.427 3.082 -2.064 0.27
-17.442 3.028 -2.065 0.25
-17.458 2.974 -2.066 0.27
-17.481 2.922 -2.067 0.28
-17.478 2.865 -2.066 0.28
-17.505 2.813 -2.068 0.29
-17.515 2.786 -2.069 0.29
-17.531 2.733 -2.07 0.27
-17.552 2.679 -2.071 0.28
-17.564 2.625 -2.072 0.28
-17.58 2.571 -2.073 0.28
-17.592 2.516 -2.074 0.3
-17.6 2.461 -2.074 0.29
-17.609 2.434 -2.074 0.29
-17.629 2.38 -2.076 0.28
-17.65 2.327 -2.078 0.27
-17.665 2.272 -2.079 0.27
-17.68 2.218 -2.08 0.26
-17.706 2.165 -2.082 0.27
-17.721 2.11 -2.083 0.25
-17.728 2.082 -2.084 0.26
-17.758 2.03 -2.087 0.25
-17.777 1.975 -2.088 0.19
-17.781 1.919 -2.088 0.43
-17.802 1.865 -2.09 0.25
-17.832 1.811 -2.093 0.25
-17.832 1.755 -2.092 0.18
-17.847 1.7 -2.094 0.44
-17.844 1.671 -2.093 0.25
-17.857 1.616 -2.094 0.27
-18.128 1.583 -2.128 0.41
-18.117 1.525 -2.126 0.25
-18.146 1.47 -2.129 0.2
-18.158 1.414 -2.13 0.42
-18.165 1.357 -2.13 0.25
-18.183 1.301 -2.132 0.26
-18.195 1.244 -2.133 0.19
-18.224 1.189 -2.136 0.25
-18.256 1.162 -2.14 0.27
-18.14 1.097 -2.125 0.54
-18.298 1.049 -2.145 0.2
-18.321 0.993 -2.147 0.23
-18.338 0.936 -2.149 0.21
-18.357 0.879 -2.151 0.22
-18.362 0.822 -2.151 0.19
-18.377 0.793 -2.153 0.31
-18.387 0.736 -2.154 0.21
-18.377 0.678 -2.153 0.2
-18.393 0.62 -2.154 0.31
-18.407 0.563 -2.156 0.19
-18.389 0.505 -2.153 0.32
-18.398 0.447 -2.154 0.2
-18.387 0.418 -2.153 0.35
-18.386 0.36 -2.153 0.2
-18.364 0.302 -2.15 0.38
-18.36 0.244 -2.149 0.24
-18.373 0.187 -2.151 0.2
-18.391 0.129 -2.153 0.4
-18.404 0.071 -2.154 0.25
-18.406 0.042 -2.155 0.25
-18.427 -0.015 -2.157 0.26
-18.455 -0.073 -2.161 0.23
-18.451 -0.131 -2.161 0.18
-18.45 -0.189 -2.161 0.42
-18.45 -0.247 -2.161 0.25
-18.471 -0.306 -2.163 0.2
-18.484 -0.335 -2.165 0.39
-18.501 -0.393 -2.167 0.22
-18.509 -0.452 -2.169 0.24
-18.512 -0.51 -2.169 0.2
-18.528 -0.568 -2.171 0.23
-18.534 -0.627 -2.172 0.21
-18.546 -0.686 -2.174 0.31
-18.557 -0.744 -2.176 0.21
-18.558 -0.774 -2.176 0.18
-18.564 -0.832 -2.177 0.3
-18.563 -0.891 -2.178 0.21
-18.562 -0.949 -2.178 0.19
-18.565 -1.008 -2.179 0.22
-18.55 -1.065 -2.177 0.2
-18.554 -1.124 -2.178 0.17
-18.554 -1.153 -2.178 0.39
-18.563 -1.212 -2.18 0.24
-18.582 -1.272 -2.183 0.16
-18.576 -1.331 -2.183 0.43
-18.602 -1.391 -2.186 0.25
-18.609 -1.45 -2.188 0.2
-18.606 -1.509 -2.188 0.4
-18.61 -1.539 -2.189 0.23
-18.67 -1.603 -2.197 0.27
-18.786 -1.672 -2.213 0.28
-18.786 -1.731 -2.214 0.2
-18.757 -1.788 -2.211 0.4
-18.424 -1.815 -2.168 0.22
-17.962 -1.827 -2.11 0.17
-17.556 -1.815 -2.058 0.44
-17.438 -1.858 -2.044 0.25
-17.446 -1.914 -2.045 0.22
-17.605 -1.988 -2.067 0.2
-17.733 -2.058 -2.084 0.42
-17.817 -2.125 -2.096 0.26
-17.877 -2.189 -2.104 0.38
-17.802 -2.236 -2.095 0.28
-17.804 -2.265 -2.096 0.33
-17.873 -2.331 -2.106 0.28
-17.98 -2.402 -2.121 0.32
-18.09 -2.474 -2.136 0.33
-18.085 -2.531 -2.136 0.3
-18.171 -2.602 -2.148 0.38
-18.2 -2.664 -2.153 0.3
-18.194 -2.692 -2.153 0.33
-18.171 -2.748 -2.151 0.32
-18.249 -2.818 -2.162 0.24
-18.265 -2.879 -2.166 0.18
-18.111 -2.913 -2.147 0.44
-17.857 -2.93 -2.115 0.23
-17.895 -2.994 -2.121 0.19
-17.616 -3.005 -2.086 0.39
-17.218 -2.965 -2.035 0.23
-16.9 -2.966 -1.995 0.0
-18.381 -3.283 -2.189 0.09
-18.296 -3.327 -2.179 0.23
-18.237 -3.376 -2.173 0.29
-18.281 -3.443 -2.18 0.28
-18.316 -3.51 -2.186 0.29
-18.321 -3.54 -2.187 0.28
-18.319 -3.6 -2.188 0.22
-18.255 -3.647 -2.182 0.38
-18.199 -3.695 -2.176 0.4
-18.187 -3.752 -2.176 0.26
-18.249 -3.825 -2.185 0.33
-18.208 -3.876 -2.182 0.34
-18.237 -3.912 -2.186 0.34
-18.223 -3.969 -2.186 0.31
-18.167 -4.017 -2.18 0.29
-18.182 -4.08 -2.184 0.27
-18.084 -4.118 -2.173 0.37
-18.011 -4.161 -2.165 0.22
-17.959 -4.208 -2.16 0.23
-17.912 -4.227 -2.154 0.37
-17.958 -4.297 -2.162 0.19
-17.813 -4.322 -2.145 0.31
-17.748 -4.365 -2.138 0.2
-17.653 -4.401 -2.128 0.13
-17.67 -4.464 -2.132 0.16
-17.55 -4.493 -2.118 0.3
-17.368 -4.476 -2.095 0.17
-17.158 -4.479 -2.069 0.35
-16.921 -4.475 -2.039 0.23
-16.675 -4.466 -2.009 0.0
-16.504 -4.476 -1.988 0.0
-17.581 -4.885 -2.134 0.28
-17.491 -4.919 -2.125 0.34
-17.449 -4.937 -2.12 0.24
-17.37 -4.974 -2.112 0.27
-17.332 -5.022 -2.109 0.39
-17.27 -5.063 -2.102 0.31
-17.083 -5.067 -2.08 0.25
-17.002 -5.101 -2.071 0.36
-16.866 -5.118 -2.055 0.34
-16.932 -5.167 -2.065 0.31
-16.937 -5.227 -2.068 0.28
-16.866 -5.263 -2.06 0.36
-16.805 -5.302 -2.054 0.31
-16.878 -5.383 -2.066 0.3
-16.842 -5.43 -2.064 0.31
-16.798 -5.475 -2.06 0.27
-16.803 -5.505 -2.062 0.45
-17.096 -5.661 -2.104 0.29
-17.05 -5.705 -2.1 0.22
-17.077 -5.774 -2.106 0.37
-17.179 -5.868 -2.122 0.31
-16.947 -5.848 -2.094 0.42
-16.866 -5.88 -2.085 0.24
-16.868 -5.911 -2.087 0.25
-16.846 -5.962 -2.086 0.33
-16.752 -5.989 -2.076 0.19
-16.64 -6.008 -2.063 0.36
-16.485 -6.01 -2.045 0.19
-16.338 -6.015 -2.027 0.36
-16.201 -6.023 -2.011 0.19
-16.051 -5.996 -1.992 0.38
-15.866 -5.984 -1.97 0.19
-15.72 -5.986 -1.952 0.37
-15.578 -5.988 -1.935 0.0
-15.445 -5.993 -1.92 0.15
-16.991 -6.652 -2.134 0.21
-16.913 -6.682 -2.127 0.24
-16.798 -6.698 -2.114 0.33
-16.799 -6.729 -2.115 0.24
-16.768 -6.778 -2.114 0.42
-16.798 -6.852 -2.121 0.29
-16.749 -6.893 -2.117 0.31
-16.694 -6.932 -2.113 0.29
-16.656 -6.977 -2.11 0.39
-16.66 -7.041 -2.114 0.27
-16.685 -7.082 -2.119 0.42
-16.637 -7.124 -2.115 0.28
-16.686 -7.206 -2.125 0.27
-16.698 -7.274 -2.13 0.32
-16.629 -7.306 -2.124 0.29
-16.581 -7.347 -2.12 0.29
-16.491 -7.37 -2.111 0.25
-16.456 -7.385 -2.108 0.49
-16.364 -7.406 -2.098 0.25
-16.172 -7.381 -2.074 0.2
-16.135 -7.425 -2.072 0.36
-16.097 -7.469 -2.07 0.2
-16.017 -7.493 -2.062 0.18
-15.918 -7.508 -2.052 0.21
-15.812 -7.488 -2.038 0.19
-15.707 -7.5 -2.027 0.23
-15.567 -7.493 -2.01 0.19
-15.469 -7.506 -2.0 0.22
-15.351 -7.508 -1.986 0.18
-15.238 -7.513 -1.974 0.13
-15.081 -7.495 -1.955 0.18
-14.97 -7.498 -1.942 0.12
-14.863 -7.474 -1.928 0.0
-14.754 -7.478 -1.916 0.0
-14.67 -7.493 -1.908 0.04
-15.678 -8.068 -2.056 0.13
-15.599 -8.09 -2.048 0.21
-15.542 -8.123 -2.044 0.37
-15.476 -8.15 -2.038 0.29
-15.356 -8.118 -2.022 0.28
-15.324 -8.162 -2.021 0.25
-15.228 -8.173 -2.011 0.5
-15.178 -8.208 -2.008 0.29
-15.093 -8.223 -1.999 0.31
-15.055 -8.264 -1.997 0.36
-14.987 -8.288 -1.991 0.36
-14.901 -8.271 -1.98 0.3
-14.799 -8.276 -1.969 0.36
-14.7 -8.281 -1.959 0.33
-14.596 -8.284 -1.947 0.3
-14.489 -8.283 -1.935 0.35
-14.387 -8.285 -1.924 0.34
-14.287 -8.288 -1.913 0.33
-14.209 -8.272 -1.904 0.32
-14.109 -8.274 -1.893 0.32
-14.023 -8.283 -1.884 0.29
-13.944 -8.296 -1.876 0.35
-13.894 -8.325 -1.872 0.27
-13.856 -8.362 -1.871 0.33
-13.799 -8.387 -1.866 0.4
-13.746 -8.384 -1.86 0.41
-13.685 -8.406 -1.855 0.39
-13.649 -8.443 -1.853 0.38
-13.619 -8.483 -1.853 0.39
-13.538 -8.493 -1.845 0.41
-13.431 -8.484 -1.833 0.45
-13.337 -8.484 -1.822 0.36
-13.32 -8.532 -1.824 0.39
-13.339 -8.573 -1.829 0.39
-13.282 -8.596 -1.824 0.39
-13.233 -8.624 -1.821 0.38
-13.153 -8.63 -1.813 0.38
-13.082 -8.643 -1.806 0.4
-13.022 -8.662 -1.801 0.34
-12.97 -8.687 -1.797 0.38
-12.907 -8.674 -1.79 0.37
-12.878 -8.713 -1.789 0.41
-12.806 -8.724 -1.783 0.41
-12.764 -8.754 -1.78 0.35
-12.717 -8.78 -1.777 0.48
-12.6 -8.758 -1.763 0.39
-12.556 -8.786 -1.761 0.3
-12.405 -8.711 -1.739 0.43
-12.417 -8.777 -1.745 0.35
-12.394 -8.819 -1.746 0.5
-12.381 -8.869 -1.749 0.36
-12.338 -8.897 -1.746 0.37
-12.302 -8.93 -1.745 0.41
-12.127 -8.861 -1.722 0.43
-12.135 -8.897 -1.725 0.39
-12.174 -8.984 -1.736 0.36
-12.136 -9.015 -1.734 0.44
-12.0 -8.973 -1.717 0.34
-11.992 -9.026 -1.72 0.36
-12.008 -9.097 -1.727 0.39
-11.94 -9.105 -1.721 0.3
-12.017 -9.223 -1.738 0.41
-11.955 -9.205 -1.731 0.37
-11.984 -9.288 -1.74 0.34
-11.922 -9.3 -1.735 0.37
-11.802 -9.266 -1.72 0.34
-11.759 -9.292 -1.718 0.43
-11.739 -9.337 -1.719 0.43
-11.673 -9.344 -1.713 0.35
-11.641 -9.348 -1.71 0.39
-11.568 -9.35 -1.703 0.41
-11.516 -9.368 -1.699 0.39
-11.462 -9.384 -1.695 0.46
-11.139 -9.179 -1.647 0.25
-11.413 -9.464 -1.697 0.43
-11.245 -9.385 -1.674 0.33
-11.349 -9.502 -1.694 0.39
-11.209 -9.445 -1.675 0.42
-11.158 -9.463 -1.672 0.4
-11.127 -9.496 -1.672 0.34
-11.044 -9.486 -1.663 0.39
-11.019 -9.525 -1.664 0.41
-10.928 -9.506 -1.653 0.45
-10.857 -9.475 -1.644 0.34
-10.742 -9.434 -1.629 0.41
-10.637 -9.401 -1.616 0.4
-10.558 -9.391 -1.608 0.31
-10.523 -9.419 -1.607 0.48
-10.601 -9.549 -1.625 0.39
-10.647 -9.651 -1.639 0.31
-10.712 -9.74 -1.652 0.43
-10.597 -9.697 -1.638 0.32
-10.577 -9.74 -1.64 0.41
-10.471 -9.703 -1.627 0.29
-10.479 -9.772 -1.633 0.39
-10.325 -9.69 -1.612 0.32
-10.148 -9.584 -1.586 0.44
-10.293 -9.782 -1.617 0.31
-10.178 -9.704 -1.599 0.36
-10.078 -9.669 -1.587 0.41
-9.953 -9.61 -1.57 0.32
-9.951 -9.668 -1.575 0.42
-9.951 -9.729 -1.581 0.36
-10.132 -9.968 -1.619 0.27
-10.088 -9.987 -1.616 0.43
-10.022 -9.953 -1.607 0.31
-9.88 -9.874 -1.587 0.31
-9.818 -9.874 -1.582 0.42
-9.742 -9.86 -1.573 0.45
-9.839 -10.02 -1.597 0.23
-9.73 -9.972 -1.583 0.47
-9.649 -9.951 -1.573 0.46
-9.609 -9.942 -1.569 0.46
-9.811 -10.214 -1.612 0.26
-9.795 -10.262 -1.615 0.4
-9.569 -10.088 -1.579 0.19
-9.342 -9.912 -1.543 0.34
-9.341 -9.973 -1.548 0.39
-9.339 -10.034 -1.554 0.45
-9.421 -10.154 -1.572 0.19
-9.266 -10.051 -1.549 0.34
-9.224 -10.068 -1.547 0.52
-9.308 -10.224 -1.569 0.3
-9.202 -10.171 -1.555 0.32
-8.961 -9.969 -1.515 0.27
-9.111 -10.199 -1.55 0.39
-10.187 -11.435 -1.759 0.21
-9.023 -10.198 -1.542 0.19
-8.693 -9.888 -1.485 0.23
-8.466 -9.692 -1.447 0.53
-8.739 -10.067 -1.506 0.17
-8.924 -10.345 -1.548 0.36
-8.954 -10.445 -1.56 0.31
-9.911 -11.594 -1.752 0.32
-9.877 -11.628 -1.752 0.23
-9.832 -11.649 -1.75 0.33
-9.775 -11.655 -1.746 0.27
-9.742 -11.691 -1.747 0.31
-9.694 -11.707 -1.745 0.31
-9.652 -11.732 -1.744 0.29
-9.607 -11.753 -1.742 0.21
-8.412 -10.329 -1.504 0.45
-9.539 -11.782 -1.74 0.33
-9.49 -11.797 -1.737 0.27
-9.452 -11.825 -1.737 0.31
-9.402 -11.839 -1.734 0.31
-9.356 -11.858 -1.733 0.34
-9.314 -11.881 -1.732 0.32
-9.289 -11.888 -1.73 0.33
-9.234 -11.893 -1.726 0.25
-9.196 -11.922 -1.726 0.32
-9.148 -11.937 -1.724 0.3
-9.102 -11.955 -1.722 0.24
-9.062 -11.98 -1.722 0.36
-9.005 -11.983 -1.718 0.31
-7.521 -10.048 -1.406 0.43
-8.895 -11.954 -1.706 0.29
-8.847 -11.967 -1.704 0.45
-8.803 -11.987 -1.703 0.37
-8.75 -11.994 -1.7 0.48
-8.725 -12.039 -1.702 0.25
-8.67 -12.042 -1.699 0.45
-8.614 -12.004 -1.69 0.39
-8.571 -12.023 -1.689 0.43
-8.513 -12.023 -1.685 0.42
-8.459 -12.027 -1.681 0.41
-8.407 -12.032 -1.678 0.43
-8.344 -12.023 -1.672 0.41
-8.269 -11.995 -1.664 0.39
-8.227 -11.975 -1.659 0.39
-8.17 -11.972 -1.654 0.38
-8.113 -11.969 -1.65 0.43
-8.058 -11.968 -1.646 0.45
-8.0 -11.964 -1.641 0.38
-7.968 -11.997 -1.643 0.4
-7.925 -12.014 -1.641 0.43
-7.886 -12.037 -1.641 0.43
-7.847 -12.02 -1.637 0.45
-7.78 -12.0 -1.63 0.45
-7.732 -12.007 -1.627 0.36
-7.717 -12.067 -1.633 0.29
-7.641 -12.032 -1.624 0.51
-7.618 -12.08 -1.627 0.43
-7.544 -12.046 -1.619 0.41
-7.533 -12.07 -1.62 0.38
-7.454 -12.028 -1.611 0.37
-7.439 -12.088 -1.616 0.43
-7.391 -12.095 -1.614 0.29
-7.338 -12.094 -1.61 0.37
-7.389 -12.263 -1.632 0.23
-7.252 -12.123 -1.607 0.48
-7.299 -12.245 -1.624 0.3
-7.269 -12.282 -1.626 0.3
-7.213 -12.275 -1.622 0.32
-7.112 -12.192 -1.606 0.25
-7.032 -12.142 -1.595 0.36
-7.047 -12.257 -1.609 0.18
-6.836 -11.978 -1.565 0.45
-6.855 -12.054 -1.574 0.32
-6.781 -12.012 -1.565 0.32
-6.729 -12.009 -1.561 0.52
-6.881 -12.369 -1.611 0.27
-6.666 -12.073 -1.565 0.29
-6.835 -12.469 -1.619 0.32
-6.667 -12.256 -1.585 0.28
-6.673 -12.312 -1.592 0.26
-6.53 -12.141 -1.564 0.32
-6.644 -12.444 -1.605 0.29
-6.629 -12.511 -1.612 0.29
-6.555 -12.466 -1.602 0.29
-6.546 -12.543 -1.61 0.3
-6.494 -12.541 -1.607 0.31
-6.373 -12.355 -1.579 0.26
-6.238 -12.188 -1.552 0.22
-6.401 -12.602 -1.609 0.29
-6.358 -12.615 -1.607 0.29
-6.311 -12.621 -1.605 0.31
-6.255 -12.607 -1.601 0.3
-6.212 -12.621 -1.6 0.3
-6.195 -12.636 -1.601 0.3
-6.107 -12.556 -1.586 0.26
-6.108 -12.659 -1.598 0.32
-6.062 -12.665 -1.597 0.29
-6.025 -12.69 -1.597 0.31
-5.979 -12.696 -1.596 0.31
-5.938 -12.713 -1.595 0.3
-5.912 -12.71 -1.594 0.31
-5.865 -12.712 -1.591 0.29
-5.818 -12.716 -1.589 0.29
-5.782 -12.743 -1.59 0.32
-5.736 -12.747 -1.588 0.3
-5.693 -12.759 -1.588 0.27
-5.648 -12.766 -1.586 0.29
-5.608 -12.784 -1.586 0.31
-5.559 -12.727 -1.577 0.27
-5.541 -12.796 -1.584 0.3
-5.5 -12.811 -1.584 0.32
-5.459 -12.827 -1.584 0.33
-5.414 -12.831 -1.582 0.29
-5.376 -12.853 -1.583 0.31
-5.332 -12.863 -1.582 0.3
-5.317 -12.884 -1.583 0.3
-5.271 -12.888 -1.582 0.31
-5.227 -12.895 -1.58 0.31
-5.187 -12.913 -1.581 0.31
-5.145 -12.924 -1.58 0.31
-5.103 -12.936 -1.579 0.32
-5.058 -12.943 -1.578 0.34
-5.036 -12.947 -1.578 0.34
-4.991 -12.952 -1.576 0.34
-4.951 -12.969 -1.576 0.34
-4.909 -12.981 -1.576 0.34
-4.864 -12.985 -1.574 0.34
-4.821 -12.993 -1.573 0.3
-4.778 -13.003 -1.572 0.36
-4.755 -13.005 -1.572 0.34
-4.71 -13.008 -1.57 0.28
-4.198 -11.715 -1.392 0.44
-4.623 -13.023 -1.568 0.33
-4.579 -13.028 -1.567 0.34
-4.533 -13.029 -1.565 0.29
-4.492 -13.041 -1.565 0.36
-4.473 -13.052 -1.565 0.3
-4.427 -13.053 -1.564 0.35
-4.384 -13.061 -1.563 0.34
-4.342 -13.071 -1.562 0.3
-4.3 -13.081 -1.562 0.41
-4.24 -13.04 -1.554 0.25
-4.206 -13.074 -1.557 0.28
-4.166 -13.089 -1.558 0.33
-4.141 -13.082 -1.556 0.33
-4.094 -13.076 -1.553 0.31
-4.052 -13.087 -1.553 0.34
-4.006 -13.085 -1.551 0.35
-3.963 -13.089 -1.55 0.34
-3.92 -13.096 -1.549 0.34
-3.897 -13.095 -1.548 0.35
-3.853 -13.097 -1.547 0.34
-3.807 -13.092 -1.545 0.3
-3.764 -13.097 -1.544 0.39
-3.722 -13.106 -1.543 0.25
-3.678 -13.107 -1.542 0.38
-3.633 -13.105 -1.54 0.28
-3.592 -13.118 -1.54 0.33
-3.568 -13.112 -1.539 0.34
-3.526 -13.121 -1.538 0.34
-3.483 -13.125 -1.537 0.34
-3.436 -13.114 -1.535 0.34
-3.393 -13.117 -1.534 0.34
-3.349 -13.118 -1.532 0.28
-3.308 -13.127 -1.532 0.4
-3.276 -13.088 -1.526 0.25
-3.242 -13.125 -1.53 0.34
-3.197 -13.124 -1.528 0.29
-3.158 -13.139 -1.529 0.35
-3.11 -13.124 -1.526 0.34
-3.065 -13.118 -1.524 0.3
-3.025 -13.132 -1.524 0.29
-3.005 -13.139 -1.525 0.35
-2.961 -13.138 -1.523 0.31
-2.92 -13.146 -1.523 0.34
-2.877 -13.147 -1.522 0.34
-2.835 -13.152 -1.521 0.34
-2.791 -13.149 -1.52 0.35
-2.747 -13.146 -1.518 0.3
-2.727 -13.154 -1.519 0.32
-2.685 -13.159 -1.518 0.34
-2.641 -13.156 -1.517 0.3
-2.599 -13.158 -1.516 0.35
-2.557 -13.166 -1.516 0.3
-2.511 -13.149 -1.513 0.35
-2.471 -13.161 -1.513 0.35
-2.449 -13.161 -1.513 0.3
-2.407 -13.162 -1.512 0.36
-2.365 -13.166 -1.512 0.29
-2.322 -13.167 -1.511 0.36
-2.279 -13.163 -1.509 0.3
-2.239 -13.178 -1.51 0.42
-1.921 -11.549 -1.298 0.2
-2.172 -13.159 -1.507 0.36
-2.128 -13.154 -1.505 0.34
-2.086 -13.155 -1.504 0.34
-2.042 -13.142 -1.502 0.33
-2.002 -13.158 -1.503 0.34
-1.958 -13.146 -1.501 0.34
-1.917 -13.154 -1.501 0.33
-1.894 -13.144 -1.499 0.29
-1.853 -13.15 -1.499 0.42
-1.8 -13.075 -1.489 0.21
-1.769 -13.149 -1.498 0.39
-1.722 -13.111 -1.492 0.22
-1.683 -13.136 -1.495 0.35
-1.641 -13.134 -1.494 0.29
-1.619 -13.13 -1.493 0.35
-1.578 -13.131 -1.492 0.31
-1.536 -13.132 -1.492 0.36
-1.493 -13.127 -1.491 0.3
-1.451 -13.12 -1.489 0.36
-1.409 -13.121 -1.489 0.3
-1.368 -13.121 -1.488 0.37
-1.326 -13.125 -1.488 0.3
-1.304 -13.116 -1.486 0.36
-1.263 -13.118 -1.486 0.3
-1.221 -13.114 -1.485 0.36
-1.178 -13.102 -1.483 0.3
-1.138 -13.113 -1.484 0.37
-1.096 -13.103 -1.482 0.29
-1.055 -13.108 -1.483 0.36
-1.033 -13.098 -1.481 0.34
-0.99 -13.079 -1.478 0.33
-0.949 -13.084 -1.479 0.34
-0.907 -13.073 -1.477 0.34
-0.866 -13.074 -1.477 0.3
-0.824 -13.065 -1.475 0.35
-0.782 -13.058 -1.474 0.34
-0.762 -13.053 -1.473 0.3
-0.721 -13.059 -1.474 0.36
-0.679 -13.044 -1.471 0.31
-0.638 -13.052 -1.472 0.36
-0.597 -13.05 -1.472 0.3
-0.555 -13.037 -1.47 0.35
-0.514 -13.033 -1.469 0.31
-0.494 -13.034 -1.469 0.35
-0.452 -13.024 -1.467 0.3
-0.411 -13.019 -1.467 0.36
-0.37 -13.024 -1.467 0.31
-0.329 -13.019 -1.466 0.32
-0.289 -13.03 -1.468 0.36
-0.248 -13.027 -1.467 0.3
-0.227 -13.016 -1.466 0.37
-0.186 -13.016 -1.466 0.3
-0.145 -13.009 -1.465 0.36
-0.104 -13.005 -1.464 0.34
-0.063 -13.009 -1.465 0.27
-0.018 -11.74 -1.302 0.43
0.019 -12.992 -1.462 0.32
0.039 -12.99 -1.462 0.31
0.08 -12.997 -1.463 0.32
0.12 -12.977 -1.461 0.34
0.161 -12.971 -1.46 0.34
0.202 -12.966 -1.459 0.33
0.243 -12.97 -1.46 0.33
0.283 -12.975 -1.461 0.39
0.297 -11.78 -1.308 0.23
0.344 -12.965 -1.46 0.37
0.352 -11.759 -1.305 0.3
0.423 -12.884 -1.449 0.3
0.465 -12.906 -1.452 0.3
0.505 -12.897 -1.451 0.26
0.547 -12.944 -1.458 0.34
0.568 -12.956 -1.459 0.34
0.609 -12.948 -1.459 0.34
0.65 -12.95 -1.459 0.3
0.69 -12.94 -1.458 0.36
0.731 -12.943 -1.459 0.34
0.771 -12.937 -1.458 0.34
0.812 -12.929 -1.458 0.35
0.852 -12.928 -1.458 0.34
0.873 -12.927 -1.458 0.34
0.913 -12.916 -1.457 0.35
0.953 -12.913 -1.457 0.35
0.994 -12.918 -1.458 0.33
1.033 -12.895 -1.455 0.3
1.076 -12.915 -1.458 0.42
1.104 -12.76 -1.439 0.21
1.135 -12.892 -1.456 0.35
1.176 -12.889 -1.456 0.29
1.216 -12.879 -1.455 0.39
1.249 -12.802 -1.446 0.25
1.297 -12.877 -1.456 0.36
1.332 -12.814 -1.448 0.31
1.374 -12.831 -1.451 0.33
1.394 -12.823 -1.45 0.27
1.435 -12.83 -1.452 0.38
1.474 -12.81 -1.45 0.27
1.516 -12.819 -1.452 0.36
1.555 -12.805 -1.45 0.3
1.595 -12.8 -1.45 0.35
1.635 -12.796 -1.451 0.32
1.654 -12.78 -1.449 0.32
1.694 -12.773 -1.449 0.38
1.728 -12.722 -1.443 0.31
1.736 -12.483 -1.413 0.2
1.813 -12.75 -1.448 0.34
1.852 -12.735 -1.447 0.33
1.739 -11.685 -1.312 0.18
1.737 -11.549 -1.294 0.38
1.77 -11.521 -1.292 0.17
1.811 -11.545 -1.295 0.3
1.843 -11.514 -1.292 0.57
2.065 -12.66 -1.441 0.21
2.111 -12.692 -1.446 0.16
1.95 -11.486 -1.291 0.52
1.976 -11.528 -1.297 0.26
2.003 -11.473 -1.29 0.56
2.065 -11.611 -1.309 0.25
2.282 -12.616 -1.441 0.34
2.29 -12.437 -1.418 0.27
2.355 -12.567 -1.436 0.29
2.399 -12.583 -1.439 0.29
2.421 -12.591 -1.441 0.3
2.462 -12.591 -1.442 0.32
2.491 -12.532 -1.435 0.28
2.533 -12.536 -1.436 0.3
2.523 -12.285 -1.405 0.27
2.599 -12.458 -1.428 0.28
2.651 -12.514 -1.437 0.31
2.673 -12.517 -1.438 0.31
2.713 -12.511 -1.438 0.34
2.703 -12.279 -1.409 0.26
2.757 -12.34 -1.418 0.27
2.828 -12.473 -1.436 0.32
2.846 -12.371 -1.424 0.27
2.906 -12.455 -1.436 0.31
2.946 -12.448 -1.437 0.31
2.963 -12.433 -1.435 0.3
3.004 -12.434 -1.437 0.32
3.03 -12.37 -1.43 0.31
2.986 -12.025 -1.386 0.3
3.028 -12.031 -1.388 0.31
3.083 -12.091 -1.397 0.24
3.097 -11.987 -1.384 0.32
3.192 -12.278 -1.423 0.27
3.229 -12.26 -1.422 0.18
3.165 -11.863 -1.371 0.5
3.231 -11.962 -1.386 0.29
3.248 -11.875 -1.375 0.24
3.262 -11.779 -1.364 0.38
3.307 -11.797 -1.368 0.36
3.336 -11.83 -1.373 0.51
3.38 -11.842 -1.376 0.21
3.386 -11.725 -1.362 0.61
3.467 -11.865 -1.382 0.24
3.488 -11.799 -1.374 0.29
3.531 -11.809 -1.377 0.5
3.585 -11.854 -1.385 0.22
3.624 -11.917 -1.394 0.45
3.669 -11.928 -1.397 0.45
3.692 -11.871 -1.391 0.48
3.716 -11.816 -1.385 0.33
3.743 -11.772 -1.381 0.45
3.783 -11.77 -1.382 0.36
3.794 -11.679 -1.371 0.42
3.827 -11.718 -1.377 0.36
3.855 -11.678 -1.374 0.39
3.908 -11.714 -1.38 0.4
3.951 -11.723 -1.383 0.46
3.99 -11.716 -1.384 0.31
4.023 -11.692 -1.382 0.57
4.069 -11.708 -1.386 0.39
4.096 -11.725 -1.389 0.27
4.115 -11.66 -1.382 0.55
4.188 -11.75 -1.396 0.3
4.23 -11.752 -1.398 0.41
