# .PCD v.7 - Point Cloud Data file format
VERSION .7
FIELDS x y z intensity
SIZE 4 4 4 4
TYPE F F F F
COUNT 1 1 1 1
WIDTH 1954
HEIGHT 1
VIEWPOINT 0 0 0 1 0 0 0
POINTS 1954
DATA ascii
1.344 -5.736 -1.702 0.0
1.352 -5.73 -1.701 0.0
1.371 -5.732 -1.703 0.0
1.387 -5.716 -1.699 0.0
1.404 -5.708 -1.698 0.0
1.417 -5.687 -1.692 0.0
3.15 -4.938 -1.691 0.0
3.182 -4.954 -1.701 0.0
3.245 -4.899 -1.697 0.0
3.276 -4.911 -1.705 0.0
3.28 -4.884 -1.7 0.0
3.304 -4.887 -1.704 0.0
3.324 -4.883 -1.707 0.0
3.332 -4.861 -1.703 0.0
3.348 -4.868 -1.707 0.0
3.355 -4.845 -1.703 0.0
3.349 -4.805 -1.691 0.0
3.19 -4.459 -1.575 0.0
3.188 -4.442 -1.571 0.0
3.196 -4.424 -1.568 0.0
3.216 -4.422 -1.571 0.0
3.241 -4.427 -1.577 0.0
3.262 -4.426 -1.58 0.06
3.271 -4.409 -1.578 0.04
3.303 -4.424 -1.587 0.07
3.309 -4.403 -1.583 0.15
3.325 -4.41 -1.588 0.04
3.373 -4.443 -1.605 0.14
3.376 -4.419 -1.6 0.05
3.412 -4.437 -1.611 0.16
3.435 -4.438 -1.616 0.2
3.452 -4.43 -1.617 0.1
3.486 -4.445 -1.627 0.16
3.496 -4.444 -1.629 0.05
3.515 -4.439 -1.631 0.17
3.536 -4.437 -1.635 0.19
3.565 -4.443 -1.642 0.09
3.593 -4.45 -1.649 0.16
3.597 -4.427 -1.644 0.05
3.628 -4.451 -1.656 0.16
3.642 -4.439 -1.656 0.2
3.661 -4.434 -1.658 0.09
3.7 -4.451 -1.67 0.15
3.703 -4.427 -1.665 0.05
3.739 -4.441 -1.675 0.17
3.753 -4.429 -1.675 0.19
3.767 -4.418 -1.675 0.09
3.784 -4.423 -1.68 0.09
3.797 -4.411 -1.68 0.09
3.811 -4.399 -1.68 0.08
3.836 -4.4 -1.685 0.08
3.854 -4.393 -1.687 0.09
3.864 -4.376 -1.685 0.09
3.892 -4.38 -1.692 0.09
3.939 -4.419 -1.711 0.19
3.967 -4.422 -1.717 0.2
3.98 -4.408 -1.717 0.24
4.018 -4.423 -1.728 0.19
4.014 -4.39 -1.72 0.06
4.028 -4.378 -1.72 0.18
4.016 -4.337 -1.708 0.19
4.029 -4.338 -1.711 0.09
4.062 -4.346 -1.72 0.17
4.076 -4.333 -1.72 0.21
4.107 -4.338 -1.727 0.2
4.128 -4.334 -1.731 0.14
4.136 -4.315 -1.729 0.32
4.134 -4.286 -1.721 0.24
4.113 -4.25 -1.709 0.13
4.181 -4.293 -1.733 0.29
4.216 -4.302 -1.743 0.22
4.221 -4.281 -1.739 0.17
4.236 -4.269 -1.74 0.21
4.244 -4.25 -1.737 0.46
4.267 -4.246 -1.742 0.39
4.268 -4.234 -1.739 0.26
4.264 -4.203 -1.731 0.18
4.269 -4.182 -1.728 0.26
4.272 -4.159 -1.724 0.24
4.281 -4.142 -1.722 0.19
4.29 -4.124 -1.72 0.27
4.297 -4.105 -1.718 0.2
4.284 -4.08 -1.71 0.05
4.311 -4.08 -1.716 0.18
4.311 -4.055 -1.71 0.2
4.338 -4.054 -1.716 0.1
4.36 -4.049 -1.72 0.17
4.358 -4.021 -1.714 0.21
4.377 -4.014 -1.717 0.1
4.384 -4.007 -1.717 0.18
4.389 -3.987 -1.714 0.11
4.417 -3.987 -1.72 0.18
4.418 -3.963 -1.716 0.23
4.445 -3.962 -1.721 0.17
4.472 -3.961 -1.727 0.24
4.519 -3.977 -1.742 0.23
4.536 -3.966 -1.743 0.26
4.51 -3.932 -1.73 0.26
4.541 -3.934 -1.738 0.29
4.551 -3.917 -1.737 0.2
4.561 -3.901 -1.736 0.32
4.601 -3.91 -1.747 0.2
4.596 -3.881 -1.74 0.15
4.579 -3.854 -1.731 0.33
4.613 -3.858 -1.74 0.22
4.638 -3.855 -1.745 0.23
4.658 -3.846 -1.748 0.36
4.649 -3.815 -1.74 0.29
4.625 -3.771 -1.726 0.3
4.636 -3.755 -1.725 0.3
4.64 -3.747 -1.724 0.3
4.659 -3.738 -1.727 0.28
4.65 -3.707 -1.719 0.21
4.701 -3.723 -1.734 0.28
4.726 -3.719 -1.74 0.21
4.724 -3.693 -1.734 0.26
4.731 -3.675 -1.733 0.34
4.729 -3.662 -1.73 0.25
4.707 -3.622 -1.717 0.14
4.738 -3.622 -1.724 0.21
4.753 -3.609 -1.726 0.14
4.763 -3.593 -1.725 0.29
4.775 -3.579 -1.726 0.23
4.79 -3.566 -1.727 0.2
4.795 -3.547 -1.724 0.29
4.799 -3.538 -1.724 0.22
4.793 -3.511 -1.717 0.27
4.818 -3.506 -1.723 0.28
4.837 -3.496 -1.726 0.29
4.846 -3.48 -1.725 0.28
4.858 -3.466 -1.726 0.3
4.89 -3.465 -1.733 0.38
4.89 -3.454 -1.731 0.29
4.926 -3.456 -1.741 0.3
4.899 -3.414 -1.727 0.16
4.882 -3.379 -1.716 0.31
4.91 -3.376 -1.723 0.25
4.966 -3.391 -1.74 0.25
4.945 -3.354 -1.728 0.12
4.949 -3.346 -1.727 0.18
4.945 -3.321 -1.722 0.32
4.989 -3.327 -1.734 0.24
4.994 -3.308 -1.733 0.31
4.981 -3.277 -1.724 0.0
4.954 -3.237 -1.71 0.0
4.59 -2.971 -1.571 0.0
4.568 -2.937 -1.559 0.04
4.566 -2.915 -1.555 0.04
4.603 -2.918 -1.565 0.14
4.638 -2.92 -1.575 0.11
4.676 -2.923 -1.585 0.17
4.718 -2.929 -1.597 0.22
4.77 -2.95 -1.614 0.17
4.792 -2.943 -1.619 0.25
4.841 -2.952 -1.633 0.18
4.86 -2.943 -1.637 0.23
4.908 -2.951 -1.651 0.17
4.934 -2.945 -1.657 0.25
4.968 -2.944 -1.666 0.18
4.981 -2.941 -1.669 0.25
5.015 -2.94 -1.678 0.22
5.023 -2.923 -1.677 0.11
5.053 -2.919 -1.685 0.18
5.057 -2.901 -1.683 0.21
5.096 -2.902 -1.694 0.18
5.087 -2.875 -1.687 0.06
5.098 -2.871 -1.689 0.16
5.079 -2.839 -1.679 0.11
5.105 -2.833 -1.685 0.18
5.108 -2.814 -1.684 0.05
5.127 -2.803 -1.687 0.16
5.133 -2.785 -1.686 0.1
5.158 -2.778 -1.692 0.17
5.149 -2.763 -1.687 0.23
5.183 -2.76 -1.696 0.16
5.204 -2.75 -1.7 0.24
5.238 -2.747 -1.709 0.23
5.267 -2.741 -1.716 0.19
5.253 -2.713 -1.708 0.26
5.28 -2.706 -1.715 0.21
5.31 -2.711 -1.724 0.3
5.309 -2.689 -1.72 0.27
5.339 -2.683 -1.728 0.29
5.361 -2.673 -1.733 0.3
5.373 -2.658 -1.734 0.34
5.371 -2.636 -1.73 0.25
5.373 -2.616 -1.728 0.31
5.373 -2.606 -1.727 0.35
5.409 -2.602 -1.736 0.27
5.398 -2.576 -1.73 0.39
5.346 -2.531 -1.709 0.28
5.355 -2.515 -1.71 0.26
5.327 -2.481 -1.697 0.27
5.333 -2.464 -1.697 0.24
5.291 -2.435 -1.681 0.31
5.266 -2.403 -1.67 0.29
5.282 -2.39 -1.673 0.24
5.253 -2.357 -1.661 0.26
5.273 -2.346 -1.665 0.36
5.268 -2.324 -1.661 0.32
5.271 -2.306 -1.659 0.26
5.284 -2.292 -1.661 0.29
5.27 -2.276 -1.655 0.29
5.309 -2.273 -1.666 0.25
5.302 -2.25 -1.661 0.27
5.309 -2.234 -1.661 0.32
5.309 -2.214 -1.659 0.24
5.309 -2.195 -1.656 0.28
5.33 -2.184 -1.661 0.22
5.342 -2.179 -1.664 0.25
5.336 -2.157 -1.66 0.26
5.307 -2.126 -1.648 0.32
5.318 -2.111 -1.649 0.32
5.331 -2.097 -1.652 0.31
5.356 -2.087 -1.658 0.25
5.414 -2.09 -1.675 0.34
5.417 -2.082 -1.675 0.27
5.401 -2.056 -1.667 0.29
5.391 -2.033 -1.662 0.29
5.406 -2.019 -1.665 0.29
5.422 -2.005 -1.668 0.27
5.444 -1.994 -1.673 0.25
5.418 -1.966 -1.662 0.14
5.416 -1.955 -1.661 0.31
5.423 -1.939 -1.661 0.24
5.428 -1.921 -1.661 0.26
5.419 -1.899 -1.656 0.32
5.409 -1.876 -1.65 0.27
5.406 -1.856 -1.648 0.16
5.384 -1.83 -1.639 0.29
5.373 -1.817 -1.634 0.2
5.349 -1.79 -1.624 0.23
5.36 -1.775 -1.626 0.18
5.341 -1.75 -1.618 0.24
5.361 -1.738 -1.623 0.18
5.359 -1.719 -1.62 0.23
5.39 -1.71 -1.629 0.17
5.381 -1.698 -1.625 0.24
5.392 -1.683 -1.627 0.21
5.414 -1.671 -1.632 0.18
5.448 -1.663 -1.642 0.28
5.488 -1.656 -1.653 0.24
5.527 -1.649 -1.663 0.18
5.579 -1.645 -1.679 0.26
5.633 -1.651 -1.695 0.23
5.65 -1.637 -1.699 0.26
5.658 -1.62 -1.7 0.27
5.658 -1.601 -1.698 0.28
5.663 -1.583 -1.698 0.26
5.684 -1.569 -1.704 0.24
5.682 -1.55 -1.701 0.18
5.677 -1.539 -1.699 0.29
5.698 -1.525 -1.704 0.24
5.698 -1.506 -1.703 0.18
5.693 -1.486 -1.7 0.26
5.713 -1.471 -1.704 0.2
5.675 -1.443 -1.691 0.25
5.69 -1.428 -1.694 0.2
5.668 -1.413 -1.687 0.12
5.699 -1.401 -1.695 0.18
5.684 -1.379 -1.689 0.12
5.704 -1.365 -1.694 0.18
5.686 -1.342 -1.687 0.12
5.707 -1.328 -1.692 0.21
5.7 -1.307 -1.688 0.17
5.688 -1.295 -1.684 0.26
5.735 -1.287 -1.698 0.19
5.693 -1.259 -1.683 0.23
5.704 -1.242 -1.685 0.16
5.71 -1.225 -1.686 0.25
5.714 -1.207 -1.686 0.18
5.706 -1.187 -1.682 0.24
5.727 -1.181 -1.688 0.18
5.704 -1.158 -1.68 0.24
5.734 -1.145 -1.688 0.19
5.723 -1.125 -1.684 0.21
5.739 -1.109 -1.688 0.18
5.718 -1.086 -1.68 0.25
5.746 -1.073 -1.688 0.19
5.712 -1.057 -1.676 0.23
5.736 -1.043 -1.683 0.16
5.724 -1.023 -1.678 0.05
5.728 -1.005 -1.678 0.18
5.729 -0.986 -1.678 0.11
5.762 -0.973 -1.687 0.18
5.737 -0.951 -1.678 0.11
5.762 -0.936 -1.685 0.17
5.747 -0.924 -1.68 0.21
5.748 -0.906 -1.679 0.1
5.766 -0.89 -1.684 0.18
5.75 -0.869 -1.678 0.2
5.745 -0.85 -1.676 0.1
5.778 -0.836 -1.685 0.16
5.752 -0.814 -1.676 0.05
5.772 -0.808 -1.682 0.16
5.769 -0.789 -1.681 0.05
5.779 -0.772 -1.683 0.15
5.76 -0.751 -1.676 0.05
5.797 -0.737 -1.687 0.16
5.78 -0.717 -1.681 0.05
5.8 -0.7 -1.687 0.15
5.787 -0.69 -1.682 0.05
5.812 -0.674 -1.689 0.16
5.803 -0.655 -1.686 0.19
5.811 -0.637 -1.688 0.18
5.79 -0.616 -1.681 0.09
5.799 -0.599 -1.683 0.09
5.839 -0.584 -1.695 0.15
5.798 -0.571 -1.682 0.05
5.821 -0.555 -1.688 0.17
5.804 -0.535 -1.682 0.05
5.824 -0.518 -1.688 0.16
5.794 -0.497 -1.678 0.05
5.816 -0.481 -1.685 0.16
5.797 -0.461 -1.678 0.05
5.828 -0.454 -1.688 0.14
5.806 -0.434 -1.681 0.05
5.827 -0.417 -1.687 0.17
5.819 -0.398 -1.684 0.2
5.818 -0.38 -1.683 0.1
5.817 -0.362 -1.682 0.09
5.847 -0.345 -1.691 0.14
5.805 -0.334 -1.678 0.05
5.829 -0.316 -1.685 0.16
5.819 -0.298 -1.682 0.2
5.814 -0.279 -1.68 0.1
5.842 -0.262 -1.688 0.17
5.818 -0.243 -1.681 0.22
5.822 -0.224 -1.682 0.1
5.822 -0.215 -1.682 0.19
5.815 -0.197 -1.679 0.1
5.829 -0.179 -1.684 0.18
5.822 -0.16 -1.681 0.11
5.819 -0.142 -1.68 0.18
5.823 -0.124 -1.681 0.11
5.835 -0.106 -1.685 0.2
5.82 -0.096 -1.68 0.11
5.824 -0.078 -1.681 0.09
5.834 -0.06 -1.684 0.18
5.813 -0.041 -1.678 0.21
5.828 -0.023 -1.682 0.17
5.807 -0.005 -1.676 0.24
5.655 0.013 -1.688 0.28
5.656 0.03 -1.689 0.3
5.662 0.048 -1.69 0.29
5.679 0.066 -1.696 0.31
5.654 0.075 -1.688 0.27
5.675 0.093 -1.695 0.32
5.659 0.11 -1.69 0.28
5.665 0.128 -1.692 0.31
5.668 0.146 -1.693 0.3
5.654 0.164 -1.689 0.33
5.671 0.182 -1.694 0.26
5.651 0.19 -1.688 0.28
5.649 0.208 -1.687 0.3
5.66 0.226 -1.691 0.29
5.655 0.244 -1.69 0.29
5.662 0.262 -1.692 0.31
5.659 0.28 -1.692 0.3
5.651 0.297 -1.689 0.26
5.654 0.306 -1.69 0.29
5.659 0.324 -1.692 0.35
5.639 0.341 -1.686 0.21
5.655 0.36 -1.692 0.29
5.64 0.376 -1.687 0.23
5.648 0.395 -1.69 0.11
5.649 0.413 -1.691 0.19
5.646 0.43 -1.69 0.2
5.662 0.44 -1.696 0.26
5.653 0.458 -1.693 0.23
5.663 0.476 -1.697 0.26
5.656 0.494 -1.695 0.3
5.645 0.511 -1.692 0.28
5.651 0.529 -1.695 0.29
5.653 0.547 -1.696 0.26
5.654 0.556 -1.696 0.26
5.654 0.574 -1.697 0.27
5.66 0.593 -1.7 0.28
5.654 0.61 -1.698 0.27
5.652 0.628 -1.698 0.28
5.656 0.646 -1.7 0.28
5.667 0.665 -1.704 0.25
5.634 0.671 -1.694 0.18
5.662 0.692 -1.704 0.29
5.647 0.708 -1.7 0.25
5.644 0.726 -1.7 0.19
5.646 0.744 -1.701 0.27
5.636 0.761 -1.698 0.24
5.647 0.78 -1.703 0.27
5.638 0.788 -1.7 0.25
5.645 0.807 -1.703 0.26
5.631 0.823 -1.7 0.2
5.649 0.844 -1.706 0.27
5.629 0.859 -1.701 0.24
5.614 0.875 -1.696 0.17
5.635 0.896 -1.704 0.28
5.619 0.903 -1.7 0.25
5.631 0.923 -1.704 0.26
5.62 0.939 -1.702 0.2
5.625 0.958 -1.704 0.27
5.624 0.976 -1.705 0.24
5.61 0.992 -1.701 0.26
5.603 1.009 -1.7 0.21
5.618 1.021 -1.706 0.27
5.609 1.037 -1.704 0.25
5.593 1.052 -1.7 0.2
5.604 1.073 -1.704 0.28
5.597 1.09 -1.703 0.25
5.59 1.106 -1.702 0.26
5.586 1.124 -1.702 0.27
5.575 1.131 -1.699 0.28
5.585 1.151 -1.703 0.25
5.572 1.167 -1.7 0.18
5.577 1.186 -1.703 0.28
5.566 1.202 -1.701 0.25
5.568 1.221 -1.703 0.25
5.551 1.235 -1.698 0.28
5.536 1.25 -1.695 0.17
5.545 1.262 -1.698 0.37
5.541 1.279 -1.698 0.37
5.522 1.293 -1.693 0.39
5.529 1.313 -1.697 0.39
5.52 1.329 -1.695 0.39
5.527 1.349 -1.699 0.29
5.524 1.367 -1.7 0.57
5.522 1.375 -1.7 0.3
5.503 1.389 -1.695 0.29
5.508 1.409 -1.698 0.29
5.5 1.425 -1.696 0.29
5.497 1.443 -1.697 0.32
5.494 1.461 -1.698 0.3
5.495 1.479 -1.7 0.34
5.487 1.486 -1.698 0.28
5.49 1.506 -1.7 0.3
5.474 1.52 -1.696 0.3
5.48 1.54 -1.7 0.33
5.465 1.554 -1.696 0.26
5.465 1.573 -1.698 0.3
5.467 1.592 -1.701 0.34
5.459 1.599 -1.699 0.29
5.458 1.617 -1.7 0.28
5.455 1.635 -1.701 0.33
5.448 1.652 -1.7 0.3
5.444 1.669 -1.701 0.3
5.445 1.688 -1.703 0.34
5.445 1.707 -1.704 0.3
5.426 1.71 -1.699 0.28
5.438 1.733 -1.705 0.34
5.424 1.747 -1.702 0.29
5.417 1.764 -1.701 0.29
5.407 1.78 -1.7 0.31
5.411 1.8 -1.703 0.3
5.4 1.815 -1.701 0.3
5.39 1.821 -1.699 0.29
5.397 1.842 -1.703 0.3
5.398 1.861 -1.706 0.32
5.381 1.875 -1.702 0.28
5.372 1.89 -1.701 0.31
5.373 1.91 -1.703 0.3
5.363 1.925 -1.702 0.29
5.375 1.939 -1.707 0.31
5.361 1.953 -1.704 0.26
5.352 1.969 -1.703 0.31
5.356 1.989 -1.707 0.32
5.353 2.008 -1.708 0.3
5.347 2.024 -1.708 0.29
5.337 2.04 -1.707 0.28
5.32 2.043 -1.702 0.3
5.31 2.058 -1.701 0.3
5.316 2.08 -1.705 0.3
5.313 2.098 -1.706 0.31
5.301 2.112 -1.704 0.28
5.292 2.128 -1.704 0.32
5.293 2.148 -1.706 0.3
5.282 2.153 -1.704 0.31
5.279 2.171 -1.705 0.31
5.276 2.189 -1.706 0.29
5.262 2.203 -1.704 0.31
5.255 2.219 -1.704 0.31
5.256 2.239 -1.707 0.29
5.242 2.253 -1.704 0.3
5.249 2.266 -1.708 0.34
5.237 2.28 -1.706 0.28
5.225 2.294 -1.704 0.29
5.216 2.31 -1.704 0.27
5.21 2.327 -1.704 0.32
5.201 2.342 -1.704 0.35
5.197 2.36 -1.705 0.3
5.193 2.378 -1.706 0.29
5.184 2.384 -1.704 0.32
5.175 2.4 -1.704 0.26
5.186 2.425 -1.71 0.34
5.148 2.426 -1.7 0.29
5.162 2.453 -1.707 0.33
5.148 2.466 -1.705 0.29
5.138 2.481 -1.704 0.33
5.145 2.494 -1.708 0.31
5.133 2.509 -1.707 0.27
5.119 2.522 -1.704 0.3
5.111 2.538 -1.704 0.29
5.106 2.555 -1.706 0.33
5.096 2.571 -1.705 0.33
5.094 2.579 -1.706 0.29
5.079 2.592 -1.703 0.31
5.062 2.604 -1.7 0.27
5.069 2.627 -1.706 0.36
5.059 2.642 -1.705 0.28
5.063 2.664 -1.709 0.35
5.039 2.672 -1.704 0.29
5.037 2.681 -1.704 0.33
5.023 2.694 -1.703 0.3
5.027 2.716 -1.707 0.34
5.011 2.728 -1.704 0.32
5.018 2.752 -1.71 0.32
5.001 2.764 -1.707 0.32
4.99 2.778 -1.706 0.27
4.975 2.79 -1.704 0.34
4.972 2.799 -1.704 0.29
4.962 2.814 -1.704 0.3
4.966 2.837 -1.709 0.35
4.951 2.849 -1.706 0.28
4.943 2.865 -1.707 0.31
4.934 2.881 -1.707 0.34
4.925 2.896 -1.707 0.29
4.917 2.902 -1.706 0.29
4.918 2.923 -1.709 0.32
4.897 2.932 -1.705 0.29
4.893 2.95 -1.707 0.3
4.877 2.962 -1.704 0.3
4.876 2.982 -1.707 0.33
4.865 2.996 -1.707 0.31
4.857 3.002 -1.706 0.31
4.859 3.024 -1.71 0.3
4.838 3.032 -1.706 0.29
4.827 3.046 -1.705 0.3
4.813 3.058 -1.703 0.3
4.811 3.079 -1.706 0.3
4.798 3.092 -1.705 0.3
4.801 3.104 -1.708 0.34
4.793 3.12 -1.709 0.32
4.772 3.128 -1.704 0.27
4.78 3.155 -1.711 0.36
4.76 3.163 -1.707 0.29
4.754 3.18 -1.709 0.3
4.756 3.204 -1.714 0.32
4.745 3.207 -1.711 0.28
4.724 3.215 -1.707 0.29
4.718 3.233 -1.709 0.32
4.703 3.244 -1.707 0.29
4.69 3.257 -1.706 0.26
4.694 3.281 -1.711 0.34
4.674 3.289 -1.707 0.3
4.677 3.302 -1.71 0.3
4.665 3.316 -1.71 0.33
4.653 3.329 -1.709 0.29
4.649 3.348 -1.712 0.36
4.63 3.357 -1.709 0.3
4.621 3.373 -1.709 0.3
4.612 3.389 -1.71 0.32
4.616 3.403 -1.714 0.32
4.598 3.411 -1.71 0.28
4.588 3.427 -1.711 0.31
4.581 3.444 -1.712 0.29
4.565 3.455 -1.71 0.27
4.567 3.478 -1.715 0.38
4.554 3.491 -1.715 0.31
4.531 3.496 -1.71 0.25
4.538 3.513 -1.715 0.37
4.519 3.521 -1.712 0.28
4.511 3.538 -1.713 0.31
4.494 3.547 -1.71 0.29
4.498 3.573 -1.717 0.32
4.48 3.582 -1.714 0.31
4.471 3.598 -1.715 0.28
4.463 3.603 -1.714 0.3
4.446 3.613 -1.712 0.3
4.444 3.634 -1.715 0.32
4.428 3.644 -1.714 0.3
4.422 3.663 -1.716 0.32
4.398 3.666 -1.71 0.27
4.399 3.679 -1.714 0.29
4.393 3.698 -1.716 0.33
4.376 3.706 -1.714 0.28
4.37 3.725 -1.716 0.34
4.352 3.734 -1.714 0.29
4.351 3.756 -1.718 0.34
4.326 3.759 -1.712 0.29
4.327 3.772 -1.715 0.31
4.307 3.778 -1.712 0.31
4.288 3.785 -1.709 0.29
4.283 3.805 -1.712 0.34
4.268 3.816 -1.71 0.29
4.263 3.835 -1.714 0.34
4.25 3.847 -1.713 0.31
4.233 3.857 -1.711 0.33
4.239 3.874 -1.716 0.29
4.222 3.883 -1.714 0.34
4.204 3.891 -1.712 0.28
4.194 3.906 -1.712 0.3
4.187 3.924 -1.715 0.34
4.169 3.932 -1.712 0.27
4.157 3.945 -1.712 0.31
4.157 3.958 -1.715 0.31
4.131 3.958 -1.709 0.32
4.123 3.975 -1.711 0.31
4.106 3.984 -1.709 0.29
4.099 4.002 -1.712 0.33
4.088 4.016 -1.712 0.33
4.092 4.045 -1.72 0.34
4.065 4.032 -1.71 0.28
4.052 4.044 -1.71 0.33
4.047 4.065 -1.714 0.33
4.02 4.063 -1.707 0.28
4.01 4.078 -1.709 0.3
4.018 4.113 -1.718 0.38
3.989 4.109 -1.711 0.28
3.984 4.117 -1.712 0.29
3.983 4.141 -1.717 0.34
3.95 4.133 -1.708 0.26
3.948 4.157 -1.713 0.34
3.934 4.168 -1.712 0.29
3.915 4.174 -1.71 0.35
3.899 4.184 -1.709 0.29
3.909 4.207 -1.716 0.33
3.885 4.208 -1.711 0.32
3.873 4.221 -1.712 0.29
3.86 4.234 -1.712 0.34
3.837 4.236 -1.707 0.31
3.832 4.256 -1.711 0.3
3.818 4.268 -1.711 0.29
3.812 4.274 -1.711 0.32
3.796 4.283 -1.71 0.31
3.79 4.304 -1.714 0.3
3.761 4.299 -1.706 0.29
3.764 4.329 -1.714 0.31
3.749 4.339 -1.714 0.29
3.72 4.334 -1.706 0.31
3.735 4.364 -1.717 0.31
3.716 4.37 -1.714 0.28
3.702 4.382 -1.714 0.31
3.693 4.399 -1.717 0.3
3.682 4.414 -1.718 0.32
3.658 4.414 -1.713 0.31
3.651 4.432 -1.716 0.3
3.64 4.434 -1.714 0.27
3.613 4.429 -1.707 0.3
3.611 4.455 -1.714 0.34
3.59 4.457 -1.71 0.28
3.585 4.481 -1.715 0.34
3.571 4.492 -1.715 0.31
3.549 4.493 -1.71 0.29
3.535 4.504 -1.71 0.29
3.538 4.523 -1.716 0.31
3.523 4.532 -1.715 0.3
3.51 4.545 -1.716 0.31
3.491 4.55 -1.714 0.29
3.479 4.564 -1.715 0.3
3.463 4.573 -1.714 0.32
3.445 4.58 -1.712 0.26
3.448 4.599 -1.718 0.26
3.421 4.593 -1.711 0.31
3.413 4.611 -1.714 0.27
3.404 4.629 -1.717 0.28
3.393 4.645 -1.719 0.28
3.375 4.651 -1.717 0.29
3.361 4.663 -1.718 0.32
3.352 4.665 -1.717 0.27
3.338 4.677 -1.717 0.27
3.329 4.695 -1.72 0.26
3.316 4.709 -1.721 0.31
3.297 4.713 -1.719 0.3
3.284 4.726 -1.72 0.27
3.275 4.745 -1.723 0.25
3.266 4.748 -1.723 0.27
3.245 4.749 -1.719 0.27
3.237 4.769 -1.723 0.28
3.225 4.783 -1.724 0.26
3.202 4.782 -1.72 0.27
3.19 4.797 -1.722 0.19
3.183 4.818 -1.726 0.27
3.169 4.83 -1.727 0.23
3.161 4.835 -1.727 0.21
3.149 4.85 -1.729 0.27
3.132 4.856 -1.728 0.24
3.114 4.863 -1.726 0.19
3.107 4.885 -1.731 0.27
3.093 4.897 -1.732 0.21
3.078 4.906 -1.732 0.12
3.068 4.908 -1.731 0.21
3.05 4.914 -1.729 0.2
3.038 4.929 -1.731 0.25
3.024 4.942 -1.732 0.23
3.011 4.954 -1.734 0.21
2.998 4.969 -1.735 0.24
2.977 4.968 -1.732 0.22
2.976 4.984 -1.736 0.18
2.964 5.0 -1.738 0.27
2.945 5.005 -1.737 0.19
2.929 5.012 -1.736 0.24
2.915 5.025 -1.737 0.2
2.903 5.04 -1.74 0.24
2.877 5.033 -1.734 0.22
2.875 5.047 -1.737 0.2
2.866 5.068 -1.742 0.13
2.842 5.062 -1.736 0.21
2.834 5.086 -1.742 0.2
2.82 5.098 -1.743 0.25
2.801 5.102 -1.741 0.18
2.786 5.112 -1.742 0.25
2.784 5.128 -1.746 0.21
2.767 5.135 -1.745 0.12
2.747 5.136 -1.742 0.2
2.731 5.146 -1.743 0.2
2.722 5.168 -1.748 0.24
2.704 5.173 -1.746 0.21
2.689 5.183 -1.747 0.23
2.673 5.192 -1.747 0.21
2.662 5.191 -1.745 0.22
2.647 5.201 -1.746 0.18
2.634 5.216 -1.748 0.24
2.615 5.219 -1.746 0.19
2.601 5.232 -1.748 0.24
2.584 5.239 -1.748 0.19
2.565 5.244 -1.746 0.25
2.559 5.251 -1.748 0.19
2.544 5.262 -1.749 0.25
2.527 5.269 -1.748 0.19
2.513 5.282 -1.75 0.25
2.489 5.274 -1.745 0.21
2.478 5.296 -1.749 0.18
2.467 5.314 -1.753 0.26
2.456 5.313 -1.751 0.23
2.434 5.308 -1.747 0.17
2.426 5.335 -1.754 0.26
2.404 5.332 -1.75 0.19
2.393 5.352 -1.754 0.23
2.371 5.347 -1.75 0.16
2.36 5.368 -1.755 0.26
2.34 5.369 -1.752 0.22
2.332 5.372 -1.752 0.2
2.318 5.388 -1.756 0.24
2.299 5.389 -1.753 0.23
2.281 5.394 -1.752 0.28
2.265 5.403 -1.753 0.18
2.252 5.421 -1.757 0.27
2.232 5.421 -1.754 0.25
2.221 5.419 -1.752 0.18
2.213 5.447 -1.76 0.27
2.189 5.438 -1.754 0.23
2.172 5.443 -1.754 0.18
2.16 5.462 -1.758 0.28
2.137 5.457 -1.754 0.24
2.122 5.469 -1.756 0.26
2.114 5.472 -1.756 0.19
2.103 5.495 -1.761 0.28
2.08 5.487 -1.756 0.23
2.063 5.493 -1.756 0.26
2.043 5.493 -1.754 0.17
2.034 5.522 -1.762 0.29
2.013 5.518 -1.758 0.25
2.006 5.525 -1.759 0.27
1.988 5.531 -1.759 0.27
1.977 5.553 -1.765 0.23
1.951 5.536 -1.757 0.18
1.94 5.562 -1.763 0.29
1.92 5.559 -1.76 0.25
1.902 5.565 -1.76 0.26
1.892 5.563 -1.759 0.21
1.879 5.583 -1.763 0.28
1.862 5.589 -1.763 0.23
1.841 5.586 -1.76 0.27
1.824 5.593 -1.761 0.26
1.808 5.604 -1.763 0.28
1.791 5.612 -1.763 0.26
1.777 5.628 -1.767 0.27
1.765 5.622 -1.764 0.2
1.755 5.651 -1.772 0.29
1.733 5.644 -1.768 0.25
1.714 5.646 -1.767 0.27
1.699 5.658 -1.769 0.29
1.682 5.666 -1.77 0.27
1.658 5.653 -1.763 0.2
1.659 5.688 -1.774 0.3
1.637 5.679 -1.77 0.25
1.618 5.678 -1.768 0.25
1.603 5.694 -1.771 0.27
1.586 5.703 -1.773 0.27
1.566 5.699 -1.77 0.2
1.553 5.724 -1.776 0.29
1.539 5.706 -1.77 0.25
1.521 5.713 -1.77 0.27
1.506 5.728 -1.774 0.26
1.486 5.724 -1.771 0.27
1.468 5.73 -1.771 0.27
1.455 5.752 -1.777 0.23
1.432 5.738 -1.771 0.27
1.425 5.749 -1.774 0.29
1.412 5.774 -1.781 0.25
1.385 5.743 -1.769 0.18
1.371 5.764 -1.774 0.31
1.353 5.768 -1.774 0.25
1.334 5.769 -1.773 0.27
1.318 5.781 -1.776 0.29
1.302 5.794 -1.779 0.28
1.289 5.779 -1.773 0.28
1.272 5.789 -1.775 0.26
1.256 5.802 -1.778 0.27
1.234 5.791 -1.773 0.27
1.219 5.806 -1.777 0.29
1.203 5.821 -1.781 0.29
1.182 5.814 -1.777 0.27
1.172 5.812 -1.776 0.3
1.155 5.821 -1.777 0.25
1.136 5.819 -1.776 0.27
1.12 5.836 -1.78 0.26
1.103 5.845 -1.782 0.31
1.084 5.845 -1.781 0.29
1.067 5.857 -1.784 0.3
1.059 5.863 -1.785 0.29
1.037 5.849 -1.779 0.28
1.018 5.85 -1.779 0.29
1.003 5.869 -1.784 0.27
0.981 5.851 -1.777 0.27
0.963 5.858 -1.778 0.3
0.947 5.878 -1.784 0.26
0.937 5.874 -1.782 0.27
0.918 5.875 -1.781 0.3
0.899 5.872 -1.779 0.27
0.88 5.869 -1.777 0.26
0.861 5.87 -1.777 0.18
0.846 5.897 -1.785 0.3
0.826 5.888 -1.781 0.25
0.809 5.904 -1.785 0.26
0.799 5.9 -1.784 0.27
0.78 5.897 -1.782 0.29
0.761 5.899 -1.782 0.28
0.743 5.905 -1.783 0.26
0.725 5.911 -1.784 0.3
0.707 5.917 -1.785 0.25
0.686 5.901 -1.779 0.18
0.68 5.924 -1.787 0.29
0.66 5.919 -1.784 0.22
0.641 5.917 -1.783 0.28
0.623 5.925 -1.785 0.29
0.604 5.925 -1.784 0.29
0.586 5.927 -1.784 0.26
0.568 5.94 -1.788 0.25
0.56 5.946 -1.79 0.29
0.541 5.95 -1.79 0.3
0.522 5.952 -1.79 0.27
0.503 5.95 -1.789 0.28
0.485 5.951 -1.789 0.29
0.465 5.939 -1.785 0.3
0.447 5.95 -1.788 0.27
0.429 5.961 -1.791 0.27
0.419 5.958 -1.79 0.28
0.401 5.961 -1.79 0.28
0.382 5.957 -1.788 0.27
0.362 5.943 -1.784 0.3
0.344 5.951 -1.786 0.29
0.325 5.96 -1.788 0.25
0.306 5.953 -1.786 0.3
0.298 5.965 -1.79 0.26
0.279 5.961 -1.788 0.31
0.26 5.965 -1.789 0.25
0.241 5.96 -1.787 0.27
0.223 5.978 -1.793 0.29
0.204 5.964 -1.788 0.32
0.185 5.96 -1.787 0.29
0.176 5.974 -1.791 0.26
0.157 5.976 -1.791 0.27
0.138 5.971 -1.79 0.3
0.12 5.979 -1.792 0.26
0.101 5.976 -1.791 0.28
0.082 5.982 -1.793 0.3
0.063 5.974 -1.79 0.3
0.054 5.978 -1.791 0.29
0.035 5.986 -1.794 0.29
0.016 5.986 -1.794 0.29
-0.003 5.984 -1.793 0.3
-0.021 5.982 -1.793 0.28
-0.04 5.98 -1.792 0.29
-0.059 5.984 -1.793 0.3
-0.078 5.986 -1.794 0.27
-0.087 5.985 -1.794 0.27
-0.106 5.983 -1.793 0.29
-0.125 5.979 -1.792 0.3
-0.144 5.99 -1.796 0.28
-0.162 5.974 -1.791 0.29
-0.181 5.981 -1.793 0.28
-0.2 5.979 -1.793 0.28
-0.209 5.982 -1.794 0.28
-0.228 5.989 -1.796 0.27
-0.247 5.981 -1.794 0.26
-0.266 5.984 -1.795 0.31
-0.285 5.981 -1.795 0.29
-0.304 5.986 -1.796 0.3
-0.322 5.985 -1.796 0.29
-0.331 5.975 -1.793 0.32
-0.35 5.976 -1.794 0.28
-0.369 5.98 -1.796 0.26
-0.388 5.981 -1.796 0.3
-0.407 5.98 -1.796 0.32
-0.425 5.963 -1.791 0.27
-0.444 5.966 -1.793 0.27
-0.454 5.973 -1.795 0.27
-0.472 5.966 -1.793 0.29
-0.491 5.964 -1.793 0.29
-0.51 5.974 -1.797 0.29
-0.528 5.963 -1.794 0.27
-0.547 5.965 -1.795 0.28
-0.567 5.967 -1.796 0.28
-0.585 5.961 -1.795 0.26
-0.594 5.96 -1.795 0.29
-0.613 5.957 -1.795 0.29
-0.632 5.958 -1.796 0.28
-0.651 5.958 -1.796 0.29
-0.671 5.968 -1.8 0.27
-0.688 5.954 -1.796 0.28
-0.706 5.946 -1.795 0.3
-0.716 5.951 -1.796 0.29
-0.735 5.945 -1.795 0.28
-0.753 5.944 -1.796 0.28
-0.773 5.946 -1.797 0.29
-0.79 5.936 -1.795 0.29
-0.811 5.946 -1.799 0.27
-0.829 5.942 -1.798 0.29
-0.838 5.939 -1.798 0.29
-0.858 5.944 -1.8 0.27
-0.876 5.937 -1.799 0.26
-0.896 5.942 -1.801 0.28
-0.915 5.945 -1.803 0.28
-0.932 5.93 -1.799 0.3
-0.951 5.929 -1.8 0.29
-0.971 5.936 -1.803 0.26
-0.98 5.93 -1.802 0.28
-0.997 5.92 -1.799 0.29
-1.017 5.922 -1.801 0.29
-1.035 5.913 -1.799 0.27
-1.053 5.908 -1.799 0.29
-1.07 5.896 -1.796 0.28
-1.091 5.905 -1.8 0.29
-1.099 5.9 -1.799 0.28
-1.117 5.894 -1.798 0.27
-1.14 5.913 -1.805 0.26
-1.154 5.885 -1.798 0.18
-1.175 5.895 -1.802 0.3
-1.193 5.889 -1.801 0.25
-1.206 5.859 -1.793 0.16
-1.221 5.884 -1.801 0.29
-1.238 5.872 -1.799 0.24
-1.258 5.876 -1.801 0.26
-1.276 5.87 -1.801 0.27
-1.296 5.873 -1.803 0.28
-1.312 5.856 -1.799 0.29
-1.331 5.856 -1.8 0.27
-1.34 5.852 -1.799 0.3
-1.359 5.851 -1.801 0.26
-1.375 5.836 -1.797 0.27
-1.396 5.845 -1.801 0.33
-1.414 5.838 -1.801 0.29
-1.432 5.832 -1.8 0.29
-1.449 5.822 -1.798 0.28
-1.465 5.81 -1.796 0.25
-1.477 5.821 -1.8 0.27
-1.494 5.81 -1.798 0.32
-1.515 5.813 -1.801 0.26
-1.535 5.816 -1.803 0.3
-1.554 5.814 -1.804 0.28
-1.57 5.8 -1.801 0.29
-1.588 5.795 -1.801 0.29
-1.597 5.793 -1.801 0.27
-1.612 5.775 -1.797 0.3
-1.632 5.777 -1.799 0.29
-1.654 5.787 -1.804 0.27
-1.666 5.759 -1.797 0.28
-1.688 5.769 -1.802 0.28
-1.704 5.756 -1.799 0.27
-1.71 5.743 -1.796 0.29
-1.729 5.739 -1.796 0.27
-1.751 5.746 -1.801 0.27
-1.761 5.717 -1.793 0.18
-1.784 5.726 -1.798 0.3
-1.798 5.708 -1.793 0.25
-1.815 5.7 -1.793 0.26
-1.835 5.702 -1.795 0.27
-1.847 5.706 -1.798 0.28
-1.863 5.697 -1.796 0.28
-1.883 5.694 -1.798 0.29
-1.901 5.69 -1.798 0.27
-1.917 5.679 -1.796 0.27
-1.933 5.667 -1.795 0.3
-1.951 5.663 -1.795 0.31
-1.957 5.651 -1.792 0.28
-1.98 5.659 -1.797 0.27
-1.991 5.633 -1.79 0.2
-2.014 5.641 -1.795 0.29
-2.026 5.621 -1.79 0.25
-2.05 5.632 -1.796 0.28
-2.063 5.613 -1.792 0.25
-2.081 5.607 -1.792 0.28
-2.093 5.612 -1.795 0.27
-2.105 5.591 -1.79 0.25
-2.128 5.599 -1.795 0.27
-2.138 5.571 -1.788 0.19
-2.161 5.578 -1.793 0.29
-2.175 5.563 -1.79 0.25
-2.197 5.568 -1.794 0.29
-2.199 5.547 -1.788 0.26
-2.22 5.549 -1.791 0.28
-2.239 5.547 -1.793 0.27
-2.256 5.538 -1.792 0.27
-2.267 5.515 -1.787 0.27
-2.289 5.521 -1.791 0.27
-2.302 5.503 -1.787 0.26
-2.311 5.499 -1.787 0.2
-2.337 5.513 -1.795 0.27
-2.349 5.492 -1.79 0.25
-2.374 5.503 -1.796 0.24
-2.378 5.466 -1.786 0.29
-2.399 5.467 -1.789 0.25
-2.412 5.449 -1.785 0.19
-2.433 5.474 -1.795 0.29
-2.442 5.447 -1.788 0.24
-2.455 5.43 -1.785 0.2
-2.487 5.457 -1.798 0.28
-2.493 5.423 -1.788 0.24
-2.516 5.429 -1.793 0.23
-2.532 5.42 -1.793 0.22
-2.547 5.407 -1.791 0.27
-2.55 5.391 -1.787 0.24
-2.571 5.391 -1.79 0.2
-2.589 5.385 -1.79 0.27
-2.605 5.375 -1.79 0.23
-2.616 5.355 -1.785 0.2
-2.641 5.364 -1.791 0.27
-2.656 5.352 -1.79 0.25
-2.669 5.358 -1.794 0.25
-2.679 5.334 -1.788 0.22
-2.699 5.332 -1.791 0.25
-2.715 5.322 -1.79 0.22
-2.73 5.31 -1.789 0.21
-2.749 5.307 -1.791 0.24
-2.761 5.29 -1.788 0.18
-2.777 5.299 -1.793 0.27
-2.792 5.288 -1.792 0.18
-2.812 5.285 -1.794 0.25
-2.821 5.262 -1.789 0.23
-2.841 5.26 -1.791 0.21
-2.862 5.26 -1.795 0.25
-2.869 5.232 -1.788 0.23
-2.886 5.225 -1.788 0.18
-2.902 5.235 -1.794 0.26
-2.912 5.213 -1.789 0.19
-2.933 5.214 -1.793 0.24
-2.945 5.196 -1.79 0.23
-2.961 5.185 -1.789 0.2
-2.983 5.187 -1.793 0.25
-3.0 5.178 -1.793 0.22
-3.0 5.16 -1.788 0.21
-3.026 5.167 -1.795 0.25
-3.041 5.156 -1.794 0.21
-3.053 5.138 -1.791 0.23
-3.07 5.13 -1.791 0.23
-3.089 5.125 -1.793 0.21
-3.11 5.124 -1.796 0.24
-3.109 5.104 -1.791 0.23
-3.126 5.096 -1.791 0.21
-3.139 5.081 -1.79 0.24
-3.16 5.08 -1.793 0.18
-3.176 5.07 -1.793 0.24
-3.186 5.05 -1.789 0.22
-3.206 5.046 -1.791 0.21
-3.218 5.048 -1.794 0.24
-3.228 5.03 -1.791 0.21
-3.246 5.023 -1.792 0.12
-3.254 5.0 -1.787 0.21
-3.267 4.986 -1.786 0.16
-3.293 4.992 -1.792 0.27
-3.301 4.969 -1.787 0.19
-3.32 4.965 -1.79 0.23
-3.327 4.958 -1.789 0.22
-3.337 4.94 -1.786 0.22
-3.36 4.94 -1.79 0.24
-3.371 4.922 -1.787 0.23
-3.387 4.913 -1.788 0.18
-3.41 4.913 -1.792 0.28
-3.415 4.886 -1.786 0.23
-3.42 4.878 -1.785 0.18
-3.439 4.872 -1.787 0.28
-3.455 4.863 -1.787 0.23
-3.465 4.844 -1.784 0.26
-3.48 4.833 -1.784 0.26
-3.492 4.817 -1.782 0.18
-3.516 4.819 -1.787 0.27
-3.519 4.791 -1.781 0.25
-3.534 4.796 -1.785 0.2
-3.55 4.786 -1.785 0.26
-3.551 4.755 -1.777 0.25
-3.567 4.746 -1.778 0.16
-3.592 4.748 -1.784 0.28
-3.596 4.723 -1.778 0.25
-3.608 4.707 -1.776 0.27
-3.615 4.702 -1.776 0.27
-3.633 4.695 -1.778 0.29
-3.64 4.673 -1.774 0.28
-3.66 4.669 -1.777 0.25
-3.67 4.651 -1.774 0.3
-3.69 4.646 -1.777 0.27
-3.698 4.627 -1.774 0.27
-3.708 4.624 -1.775 0.27
-3.724 4.614 -1.776 0.3
-3.742 4.606 -1.777 0.29
-3.754 4.592 -1.776 0.29
-3.769 4.581 -1.777 0.29
-3.779 4.564 -1.774 0.27
-3.786 4.543 -1.771 0.29
-3.799 4.544 -1.774 0.29
-3.812 4.531 -1.773 0.31
-3.828 4.52 -1.774 0.3
-3.837 4.502 -1.771 0.27
-3.863 4.505 -1.777 0.32
-3.86 4.472 -1.769 0.27
-3.875 4.462 -1.77 0.29
-3.896 4.457 -1.773 0.31
-3.891 4.438 -1.767 0.27
-3.912 4.433 -1.77 0.34
-3.924 4.419 -1.77 0.27
-3.936 4.404 -1.768 0.3
-3.946 4.387 -1.767 0.32
-3.949 4.363 -1.762 0.23
-3.957 4.344 -1.759 0.3
-3.977 4.353 -1.765 0.44
-3.997 4.348 -1.768 0.31
-4.012 4.336 -1.769 0.33
-4.021 4.318 -1.767 0.25
-4.046 4.318 -1.772 0.38
-4.054 4.3 -1.77 0.29
-4.057 4.276 -1.765 0.16
-4.055 4.26 -1.76 0.33
-4.074 4.253 -1.763 0.46
-4.078 4.23 -1.759 0.26
-4.102 4.228 -1.763 0.32
-4.106 4.206 -1.759 0.34
-4.116 4.19 -1.758 0.38
-4.14 4.188 -1.763 0.4
-4.132 4.167 -1.756 0.39
-4.148 4.156 -1.757 0.43
-4.171 4.154 -1.762 0.32
-4.178 4.134 -1.759 0.39
-4.192 4.122 -1.76 0.43
-4.217 4.121 -1.765 0.38
-4.226 4.104 -1.763 0.4
-4.244 4.096 -1.766 0.33
-4.26 4.099 -1.77 0.29
-4.262 4.075 -1.765 0.33
-4.282 4.068 -1.768 0.3
-4.292 4.052 -1.767 0.28
-4.307 4.041 -1.768 0.35
-4.321 4.029 -1.769 0.32
-4.344 4.024 -1.773 0.35
-4.33 3.986 -1.762 0.22
-4.354 3.996 -1.77 0.3
-4.377 3.991 -1.774 0.35
-4.375 3.965 -1.768 0.32
-4.399 3.961 -1.773 0.32
-4.403 3.94 -1.769 0.26
-4.422 3.932 -1.772 0.3
-4.436 3.919 -1.773 0.33
-4.441 3.911 -1.772 0.3
-4.449 3.893 -1.77 0.32
-4.459 3.878 -1.77 0.27
-4.484 3.875 -1.775 0.33
-4.492 3.858 -1.773 0.31
-4.501 3.841 -1.772 0.3
-4.528 3.839 -1.778 0.36
-4.518 3.818 -1.771 0.28
-4.53 3.804 -1.771 0.27
-4.546 3.794 -1.773 0.3
-4.558 3.779 -1.773 0.33
-4.575 3.769 -1.775 0.31
-4.588 3.756 -1.776 0.33
-4.597 3.739 -1.774 0.33
-4.608 3.736 -1.777 0.32
-4.623 3.724 -1.778 0.32
-4.632 3.707 -1.777 0.31
-4.646 3.695 -1.778 0.29
-4.651 3.675 -1.775 0.3
-4.667 3.663 -1.777 0.32
-4.678 3.649 -1.777 0.3
-4.685 3.643 -1.777 0.32
-4.698 3.629 -1.778 0.31
-4.705 3.611 -1.776 0.3
-4.736 3.611 -1.784 0.34
-4.734 3.586 -1.779 0.26
-4.743 3.57 -1.778 0.28
-4.758 3.557 -1.779 0.35
-4.77 3.543 -1.78 0.33
-4.774 3.535 -1.779 0.3
-4.781 3.516 -1.777 0.29
-4.806 3.511 -1.783 0.3
-4.8 3.484 -1.776 0.27
-4.821 3.477 -1.781 0.33
-4.832 3.461 -1.781 0.29
-4.856 3.455 -1.785 0.33
-4.842 3.434 -1.778 0.27
-4.862 3.426 -1.782 0.31
-4.869 3.407 -1.78 0.29
-4.887 3.397 -1.783 0.31
-4.893 3.379 -1.781 0.3
-4.902 3.362 -1.781 0.31
-4.917 3.35 -1.782 0.31
-4.918 3.339 -1.781 0.3
-4.927 3.322 -1.78 0.31
-4.939 3.308 -1.781 0.29
-4.96 3.3 -1.785 0.34
-4.961 3.278 -1.781 0.28
-4.968 3.26 -1.78 0.26
-4.98 3.246 -1.781 0.34
-4.99 3.23 -1.781 0.31
-5.008 3.23 -1.785 0.32
-4.999 3.202 -1.778 0.28
-5.014 3.19 -1.78 0.3
-5.025 3.175 -1.781 0.32
-5.04 3.162 -1.782 0.33
-5.052 3.147 -1.783 0.29
-5.068 3.135 -1.785 0.34
-5.066 3.123 -1.783 0.3
-5.079 3.11 -1.784 0.29
-5.086 3.092 -1.783 0.32
-5.092 3.074 -1.782 0.3
-5.107 3.061 -1.784 0.3
-5.11 3.041 -1.781 0.29
-5.124 3.027 -1.783 0.34
-5.126 3.017 -1.782 0.3
-5.137 3.002 -1.782 0.3
-5.151 2.989 -1.784 0.34
-5.164 2.975 -1.785 0.32
-5.165 2.954 -1.782 0.29
-5.184 2.943 -1.786 0.33
-5.195 2.928 -1.787 0.32
-5.196 2.918 -1.785 0.32
-5.2 2.899 -1.784 0.31
-5.204 2.879 -1.782 0.29
-5.212 2.862 -1.781 0.31
-5.234 2.853 -1.786 0.36
-5.228 2.828 -1.781 0.29
-5.252 2.82 -1.786 0.36
-5.25 2.808 -1.784 0.3
-5.262 2.794 -1.785 0.29
-5.267 2.775 -1.784 0.36
-5.283 2.762 -1.786 0.32
-5.288 2.744 -1.785 0.28
-5.302 2.73 -1.787 0.36
-5.302 2.709 -1.784 0.3
-5.31 2.692 -1.784 0.33
-5.321 2.687 -1.786 0.29
-5.333 2.672 -1.787 0.31
-5.335 2.652 -1.785 0.3
-5.343 2.635 -1.785 0.3
-5.353 2.619 -1.785 0.3
-5.364 2.604 -1.787 0.34
-5.373 2.587 -1.787 0.3
-5.37 2.576 -1.784 0.29
-5.378 2.559 -1.784 0.31
-5.398 2.548 -1.788 0.36
-5.392 2.524 -1.784 0.29
-5.416 2.514 -1.789 0.34
-5.415 2.493 -1.786 0.29
-5.421 2.476 -1.785 0.31
-5.43 2.469 -1.787 0.34
-5.443 2.455 -1.789 0.33
-5.442 2.434 -1.786 0.25
-5.46 2.421 -1.79 0.36
-5.468 2.404 -1.79 0.32
-5.463 2.382 -1.785 0.3
-5.479 2.368 -1.788 0.35
-5.484 2.36 -1.789 0.31
-5.506 2.349 -1.794 0.32
-5.496 2.324 -1.788 0.27
-5.528 2.317 -1.796 0.0
-5.551 2.307 -1.802 0.0
-5.766 1.692 -1.801 0.14
-5.782 1.677 -1.805 0.21
-5.781 1.667 -1.804 0.27
-5.777 1.646 -1.801 0.29
-5.782 1.628 -1.801 0.29
-5.789 1.611 -1.801 0.31
-5.8 1.594 -1.803 0.29
-5.803 1.575 -1.802 0.3
-5.817 1.559 -1.805 0.35
-5.801 1.545 -1.799 0.29
-5.824 1.532 -1.805 0.29
-5.818 1.511 -1.802 0.32
-5.821 1.492 -1.801 0.32
-5.838 1.477 -1.805 0.3
-5.819 1.453 -1.798 0.28
-5.838 1.438 -1.802 0.33
-5.854 1.422 -1.806 0.35
-5.832 1.407 -1.798 0.25
-5.857 1.394 -1.805 0.36
-5.869 1.377 -1.807 0.3
-5.865 1.357 -1.805 0.3
-5.871 1.339 -1.805 0.3
-5.866 1.319 -1.802 0.27
-5.874 1.301 -1.804 0.32
-5.878 1.292 -1.804 0.3
-5.862 1.269 -1.798 0.23
-5.866 1.251 -1.798 0.22
-5.884 1.235 -1.802 0.36
-5.888 1.217 -1.802 0.36
-5.888 1.198 -1.801 0.39
-5.9 1.181 -1.804 0.37
-5.901 1.171 -1.804 0.37
-5.907 1.153 -1.804 0.33
-5.933 1.139 -1.812 0.52
-5.938 1.121 -1.812 0.3
-5.94 1.102 -1.812 0.29
-5.942 1.083 -1.811 0.26
-5.954 1.066 -1.814 0.29
-5.939 1.053 -1.809 0.26
-5.95 1.036 -1.811 0.27
-5.964 1.019 -1.815 0.26
-5.966 1.0 -1.814 0.27
-5.969 0.982 -1.814 0.27
-5.981 0.964 -1.817 0.25
-5.982 0.945 -1.816 0.25
-5.974 0.925 -1.813 0.18
-6.006 0.92 -1.823 0.28
-5.98 0.897 -1.813 0.25
-5.974 0.877 -1.81 0.17
-6.016 0.864 -1.823 0.29
-5.994 0.841 -1.815 0.24
-5.997 0.822 -1.815 0.2
-6.022 0.807 -1.823 0.27
-6.002 0.794 -1.816 0.24
-5.992 0.774 -1.812 0.19
-6.034 0.76 -1.824 0.28
-6.017 0.739 -1.818 0.23
-6.008 0.718 -1.815 0.22
-6.039 0.703 -1.824 0.25
-6.018 0.681 -1.816 0.23
-6.02 0.662 -1.816 0.18
-6.046 0.656 -1.824 0.26
-6.01 0.633 -1.812 0.23
-6.029 0.615 -1.818 0.23
-6.042 0.598 -1.821 0.25
-6.025 0.577 -1.815 0.23
-6.021 0.557 -1.813 0.23
-6.051 0.541 -1.823 0.25
-6.026 0.529 -1.814 0.25
-6.018 0.509 -1.811 0.17
-6.05 0.493 -1.821 0.29
-6.019 0.471 -1.81 0.23
-6.032 0.453 -1.814 0.28
-6.033 0.434 -1.814 0.29
-6.025 0.415 -1.811 0.23
-6.033 0.406 -1.813 0.29
-6.04 0.387 -1.815 0.3
-6.021 0.367 -1.809 0.28
-6.031 0.349 -1.812 0.27
-6.04 0.33 -1.814 0.28
-6.022 0.31 -1.808 0.3
-6.036 0.292 -1.812 0.28
-6.035 0.282 -1.812 0.29
-6.024 0.263 -1.808 0.3
-6.044 0.245 -1.814 0.32
-6.031 0.225 -1.81 0.31
-6.019 0.206 -1.805 0.28
-6.029 0.187 -1.809 0.29
-6.039 0.169 -1.812 0.29
-6.028 0.159 -1.808 0.31
-6.04 0.14 -1.812 0.29
-6.04 0.121 -1.812 0.3
-6.037 0.102 -1.81 0.32
-6.037 0.083 -1.81 0.3
-6.035 0.064 -1.81 0.29
-6.041 0.045 -1.812 0.31
-6.045 0.026 -1.813 0.3
-6.055 0.017 -1.816 0.32
-6.043 -0.002 -1.812 0.3
-6.051 -0.021 -1.815 0.29
-6.058 -0.04 -1.817 0.29
-6.052 -0.059 -1.815 0.29
-6.062 -0.078 -1.818 0.32
-6.058 -0.097 -1.817 0.31
-6.059 -0.107 -1.818 0.29
-6.063 -0.126 -1.819 0.31
-6.062 -0.145 -1.819 0.3
-6.062 -0.164 -1.819 0.3
-6.059 -0.183 -1.818 0.26
-6.068 -0.202 -1.821 0.33
-6.062 -0.221 -1.819 0.29
-6.062 -0.231 -1.819 0.28
-6.057 -0.25 -1.818 0.32
-6.056 -0.269 -1.818 0.29
-6.055 -0.288 -1.818 0.28
-6.072 -0.308 -1.824 0.33
-6.057 -0.326 -1.819 0.3
-6.062 -0.345 -1.821 0.29
-6.071 -0.355 -1.824 0.29
-6.064 -0.374 -1.823 0.3
-6.055 -0.393 -1.82 0.28
-6.043 -0.411 -1.816 0.31
-6.058 -0.431 -1.822 0.29
-6.044 -0.449 -1.818 0.29
-6.048 -0.469 -1.819 0.27
-6.067 -0.499 -1.826 0.27
-6.088 -0.52 -1.834 0.27
-6.063 -0.537 -1.826 0.2
-6.082 -0.558 -1.833 0.3
-6.068 -0.566 -1.829 0.25
-6.07 -0.586 -1.83 0.27
-6.074 -0.605 -1.832 0.25
-6.057 -0.623 -1.827 0.22
-6.076 -0.644 -1.834 0.28
-6.064 -0.662 -1.83 0.24
-6.077 -0.683 -1.835 0.24
-6.045 -0.698 -1.826 0.18
-6.072 -0.711 -1.835 0.29
-6.057 -0.729 -1.83 0.25
-6.062 -0.749 -1.833 0.25
-6.041 -0.765 -1.827 0.2
-6.065 -0.788 -1.835 0.28
-6.045 -0.804 -1.83 0.25
-6.046 -0.824 -1.831 0.27
-6.045 -0.833 -1.831 0.25
-6.048 -0.853 -1.833 0.26
-6.038 -0.871 -1.83 0.27
-6.033 -0.89 -1.83 0.27
-6.034 -0.909 -1.831 0.28
-6.02 -0.927 -1.827 0.28
-6.025 -0.947 -1.83 0.27
-6.021 -0.956 -1.829 0.28
-6.022 -0.975 -1.83 0.28
-6.011 -0.993 -1.828 0.26
-6.023 -1.014 -1.833 0.26
-6.012 -1.032 -1.83 0.3
-6.009 -1.051 -1.83 0.26
-6.004 -1.069 -1.83 0.29
-6.014 -1.081 -1.834 0.27
-5.997 -1.097 -1.829 0.28
-5.999 -1.117 -1.831 0.3
-5.992 -1.135 -1.83 0.3
-5.994 -1.155 -1.832 0.28
-5.983 -1.173 -1.829 0.3
-5.977 -1.191 -1.829 0.28
-5.981 -1.211 -1.831 0.29
-5.977 -1.22 -1.83 0.32
-5.986 -1.242 -1.835 0.34
-5.962 -1.256 -1.828 0.28
-5.963 -1.276 -1.83 0.29
-5.974 -1.298 -1.835 0.3
-5.946 -1.312 -1.827 0.31
-5.96 -1.334 -1.833 0.31
-5.964 -1.345 -1.835 0.3
-5.947 -1.361 -1.83 0.29
-5.944 -1.38 -1.831 0.29
-5.951 -1.401 -1.835 0.3
-5.939 -1.418 -1.832 0.3
-5.931 -1.436 -1.831 0.29
-5.947 -1.459 -1.838 0.32
-5.928 -1.465 -1.832 0.3
-5.929 -1.485 -1.834 0.3
-5.937 -1.507 -1.838 0.32
-5.923 -1.523 -1.835 0.3
-5.907 -1.539 -1.832 0.29
-5.911 -1.56 -1.835 0.3
-5.899 -1.576 -1.832 0.32
-5.915 -1.59 -1.838 0.3
-5.917 -1.611 -1.841 0.27
-5.914 -1.63 -1.841 0.15
-5.909 -1.648 -1.841 0.0
-5.917 -1.671 -1.846 0.0
-5.49 -2.157 -1.766 0.1
-5.52 -2.189 -1.779 0.18
-5.521 -2.209 -1.781 0.19
-5.471 -2.209 -1.767 0.43
-5.484 -2.234 -1.773 0.32
-5.484 -2.244 -1.774 0.48
-5.464 -2.256 -1.77 0.4
-5.422 -2.259 -1.758 0.3
-5.411 -2.275 -1.757 0.32
-5.406 -2.292 -1.757 0.36
-5.392 -2.306 -1.755 0.33
-5.4 -2.33 -1.76 0.32
-5.412 -2.355 -1.767 0.34
-5.454 -2.383 -1.783 0.37
-5.431 -2.394 -1.777 0.34
-5.46 -2.427 -1.79 0.34
-5.445 -2.441 -1.788 0.43
-5.43 -2.455 -1.785 0.36
-5.407 -2.465 -1.78 0.34
-5.437 -2.499 -1.793 0.3
-5.433 -2.508 -1.793 0.3
-5.379 -2.503 -1.777 0.44
-5.452 -2.558 -1.805 0.23
-5.484 -2.593 -1.819 0.39
-5.498 -2.621 -1.827 0.4
-5.455 -2.622 -1.815 0.29
-5.481 -2.656 -1.827 0.34
-5.466 -2.67 -1.825 0.4
-5.426 -2.661 -1.812 0.31
-5.431 -2.684 -1.817 0.38
-5.436 -2.708 -1.822 0.3
-5.484 -2.753 -1.842 0.33
-5.486 -2.776 -1.846 0.29
-5.46 -2.784 -1.84 0.37
-5.424 -2.788 -1.83 0.43
-5.426 -2.8 -1.832 0.4
-5.45 -2.833 -1.844 0.45
-5.421 -2.84 -1.837 0.36
-5.386 -2.843 -1.827 0.25
-5.357 -2.85 -1.82 0.23
-5.321 -2.852 -1.81 0.55
-5.316 -2.871 -1.812 0.34
-5.361 -2.906 -1.83 0.44
-5.274 -2.88 -1.801 0.28
-5.263 -2.896 -1.801 0.3
-5.222 -2.895 -1.789 0.34
-5.19 -2.899 -1.781 0.32
-5.159 -2.903 -1.773 0.29
-5.173 -2.932 -1.781 0.31
-5.162 -2.936 -1.779 0.25
-5.182 -2.97 -1.79 0.29
-5.151 -2.974 -1.782 0.28
-5.137 -2.987 -1.78 0.3
-5.105 -2.99 -1.771 0.31
-5.072 -2.992 -1.763 0.34
-5.043 -2.997 -1.756 0.33
-4.997 -2.98 -1.74 0.29
-4.978 -2.99 -1.737 0.34
-4.942 -2.99 -1.727 0.3
-4.915 -2.995 -1.72 0.33
-4.847 -2.975 -1.698 0.3
-4.799 -2.966 -1.684 0.31
-4.776 -2.973 -1.679 0.33
-4.744 -2.974 -1.67 0.28
-4.719 -2.968 -1.662 0.12
-4.701 -2.978 -1.659 0.0
-4.671 -2.98 -1.651 0.0
-5.111 -3.303 -1.826 0.16
-5.12 -3.331 -1.833 0.3
-5.104 -3.344 -1.831 0.34
-5.091 -3.347 -1.828 0.27
-5.1 -3.375 -1.835 0.31
-5.088 -3.39 -1.835 0.48
-5.05 -3.388 -1.824 0.3
-5.06 -3.418 -1.832 0.27
-5.033 -3.423 -1.826 0.33
-4.989 -3.416 -1.813 0.5
-5.006 -3.439 -1.822 0.27
-5.009 -3.465 -1.827 0.35
-5.017 -3.493 -1.835 0.38
-4.992 -3.499 -1.829 0.42
-4.927 -3.477 -1.808 0.23
-4.933 -3.504 -1.815 0.19
-4.931 -3.526 -1.818 0.54
-4.919 -3.53 -1.816 0.33
-4.891 -3.533 -1.809 0.34
-4.886 -3.553 -1.812 0.48
-4.893 -3.582 -1.819 0.39
-4.878 -3.594 -1.817 0.23
-4.872 -3.613 -1.819 0.39
-4.84 -3.613 -1.811 0.37
-4.842 -3.626 -1.814 0.34
-4.798 -3.617 -1.801 0.31
-4.799 -3.642 -1.806 0.39
-4.819 -3.681 -1.819 0.31
-4.817 -3.703 -1.823 0.46
-4.79 -3.706 -1.816 0.38
-4.772 -3.717 -1.814 0.39
-4.756 -3.716 -1.81 0.36
-4.744 -3.731 -1.81 0.31
-4.758 -3.766 -1.82 0.3
-4.782 -3.809 -1.835 0.41
-4.751 -3.809 -1.827 0.29
-4.739 -3.824 -1.827 0.38
-4.715 -3.829 -1.822 0.27
-4.707 -3.847 -1.824 0.35
-4.717 -3.868 -1.83 0.3
-4.714 -3.89 -1.834 0.41
-4.714 -3.914 -1.839 0.42
-4.7 -3.928 -1.838 0.36
-4.676 -3.933 -1.834 0.3
-4.662 -3.946 -1.833 0.36
-4.652 -3.964 -1.834 0.32
-4.652 -3.976 -1.837 0.36
-4.654 -4.003 -1.843 0.27
-4.656 -4.03 -1.849 0.43
-4.626 -4.029 -1.841 0.31
-4.607 -4.039 -1.839 0.33
-4.575 -4.036 -1.83 0.35
-4.539 -4.03 -1.821 0.52
-4.557 -4.059 -1.831 0.34
-4.553 -4.08 -1.835 0.27
-4.511 -4.069 -1.823 0.36
-4.493 -4.078 -1.82 0.36
-4.477 -4.09 -1.819 0.32
-4.462 -4.101 -1.818 0.32
-4.45 -4.117 -1.818 0.32
-4.432 -4.113 -1.813 0.29
-4.418 -4.126 -1.813 0.37
-4.416 -4.15 -1.818 0.35
-4.389 -4.151 -1.812 0.29
-4.378 -4.166 -1.812 0.32
-4.36 -4.176 -1.81 0.3
-4.357 -4.199 -1.815 0.35
-4.352 -4.207 -1.815 0.36
-4.34 -4.222 -1.816 0.3
-4.344 -4.253 -1.824 0.33
-4.319 -4.254 -1.818 0.27
-4.317 -4.28 -1.824 0.4
-4.311 -4.3 -1.827 0.33
-4.289 -4.306 -1.823 0.28
-4.278 -4.308 -1.821 0.39
-4.276 -4.333 -1.826 0.4
-4.226 -4.309 -1.81 0.34
-4.207 -4.317 -1.807 0.35
-4.193 -4.33 -1.807 0.3
-4.174 -4.338 -1.805 0.33
-4.149 -4.339 -1.799 0.24
-4.154 -4.371 -1.808 0.24
-4.159 -4.39 -1.813 0.32
-4.137 -4.395 -1.81 0.52
-4.113 -4.397 -1.805 0.3
-4.094 -4.404 -1.802 0.27
-4.104 -4.443 -1.814 0.42
-4.092 -4.458 -1.815 0.38
-4.057 -4.448 -1.805 0.48
-4.051 -4.456 -1.805 0.43
-4.035 -4.466 -1.804 0.46
-3.986 -4.44 -1.788 0.32
-3.959 -4.439 -1.782 0.2
-3.951 -4.457 -1.784 0.27
-3.911 -4.441 -1.772 0.25
-3.915 -4.473 -1.781 0.27
-3.892 -4.46 -1.773 0.25
-3.866 -4.46 -1.767 0.32
-3.85 -4.469 -1.766 0.3
-3.828 -4.472 -1.762 0.29
-3.805 -4.474 -1.758 0.3
-3.783 -4.476 -1.754 0.36
-3.761 -4.479 -1.75 0.42
-3.739 -4.468 -1.743 0.34
-3.723 -4.476 -1.742 0.36
-3.695 -4.472 -1.735 0.41
-3.674 -4.475 -1.731 0.36
-3.661 -4.488 -1.732 0.36
-3.628 -4.476 -1.722 0.35
-3.605 -4.477 -1.718 0.38
-3.596 -4.479 -1.717 0.38
-3.569 -4.474 -1.71 0.32
-3.549 -4.478 -1.707 0.35
-3.53 -4.483 -1.704 0.34
-3.504 -4.479 -1.698 0.32
-3.491 -4.492 -1.699 0.33
-3.466 -4.489 -1.693 0.32
-3.435 -4.463 -1.681 0.2
-3.412 -4.463 -1.676 0.28
-3.382 -4.453 -1.668 0.23
-3.367 -4.462 -1.667 0.2
-3.347 -4.465 -1.664 0.24
-3.323 -4.462 -1.659 0.1
-3.311 -4.475 -1.66 0.0
-3.27 -4.449 -1.645 0.0
-3.257 -4.446 -1.642 0.0
-3.243 -4.457 -1.642 0.0
-3.224 -4.459 -1.639 0.0
-3.203 -4.46 -1.636 0.0
-3.188 -4.468 -1.635 0.0
-3.181 -4.489 -1.639 0.0
-3.184 -4.522 -1.648 0.0
-3.363 -4.822 -1.76 0.12
-3.368 -4.861 -1.771 0.34
-3.326 -4.834 -1.756 0.36
-3.315 -4.851 -1.759 0.29
-3.295 -4.853 -1.756 0.29
-3.29 -4.879 -1.762 0.43
-3.279 -4.88 -1.76 0.42
-3.26 -4.884 -1.757 0.37
-3.218 -4.854 -1.742 0.29
-3.196 -4.855 -1.738 0.45
-3.196 -4.887 -1.747 0.36
-3.203 -4.932 -1.76 0.27
-3.192 -4.949 -1.763 0.33
-3.182 -4.951 -1.762 0.38
-3.169 -4.964 -1.763 0.36
-3.148 -4.966 -1.76 0.5
-3.145 -4.995 -1.767 0.32
-3.127 -5.001 -1.766 0.36
-3.107 -5.005 -1.763 0.3
-3.089 -5.011 -1.762 0.31
-3.071 -5.018 -1.761 0.27
-3.061 -5.018 -1.759 0.39
-3.032 -5.006 -1.751 0.34
-3.011 -5.008 -1.748 0.34
-2.993 -5.014 -1.747 0.37
-2.984 -5.033 -1.751 0.38
-2.974 -5.052 -1.754 0.41
-2.972 -5.068 -1.759 0.52
-2.954 -5.073 -1.757 0.28
-2.933 -5.074 -1.754 0.38
-2.907 -5.066 -1.748 0.25
-2.905 -5.099 -1.756 0.32
-2.871 -5.076 -1.745 0.34
-2.856 -5.087 -1.745 0.46
-2.85 -5.114 -1.752 0.37
-2.847 -5.127 -1.755 0.41
-2.817 -5.111 -1.746 0.36
-2.78 -5.083 -1.732 0.31
-2.766 -5.095 -1.734 0.34
-2.75 -5.104 -1.734 0.39
-2.743 -5.129 -1.74 0.36
-2.722 -5.128 -1.736 0.36
-2.721 -5.145 -1.741 0.44
-2.692 -5.13 -1.732 0.25
-2.687 -5.159 -1.74 0.27
-2.651 -5.13 -1.726 0.44
-2.616 -5.101 -1.713 0.35
-2.599 -5.109 -1.713 0.33
-2.594 -5.138 -1.72 0.36
-2.606 -5.181 -1.734 0.38
-2.587 -5.184 -1.732 0.35
-2.554 -5.16 -1.721 0.39
-2.541 -5.173 -1.723 0.43
-2.512 -5.157 -1.714 0.35
-2.484 -5.139 -1.705 0.29
-2.493 -5.198 -1.723 0.32
-2.503 -5.24 -1.737 0.4
-2.451 -5.174 -1.71 0.31
-2.431 -5.175 -1.708 0.39
-2.423 -5.2 -1.714 0.35
-2.406 -5.206 -1.714 0.29
-2.394 -5.223 -1.717 0.29
-2.379 -5.233 -1.718 0.31
-2.354 -5.223 -1.712 0.36
-2.35 -5.235 -1.715 0.35
-2.337 -5.249 -1.717 0.45
-2.312 -5.238 -1.71 0.4
-2.307 -5.271 -1.72 0.43
-2.307 -5.317 -1.733 0.32
-2.276 -5.291 -1.721 0.36
-2.257 -5.292 -1.72 0.41
-2.224 -5.238 -1.7 0.33
-2.202 -5.233 -1.695 0.47
-2.211 -5.3 -1.716 0.28
-2.182 -5.277 -1.706 0.18
-2.145 -5.234 -1.689 0.48
-2.14 -5.269 -1.698 0.42
-2.133 -5.299 -1.706 0.33
-2.119 -5.29 -1.702 0.41
-2.117 -5.332 -1.714 0.29
-2.097 -5.331 -1.712 0.48
-2.073 -5.318 -1.705 0.37
-2.078 -5.38 -1.724 0.35
-2.063 -5.393 -1.726 0.35
-2.042 -5.389 -1.723 0.38
-2.039 -5.405 -1.727 0.32
-2.035 -5.447 -1.739 0.4
-2.018 -5.453 -1.739 0.41
-2.0 -5.456 -1.738 0.36
-1.963 -5.41 -1.72 0.4
-1.928 -5.366 -1.703 0.3
-1.912 -5.374 -1.704 0.36
-1.928 -5.445 -1.727 0.29
-1.915 -5.462 -1.731 0.37
-1.903 -5.484 -1.736 0.32
-1.884 -5.485 -1.734 0.35
-1.859 -5.467 -1.726 0.23
-1.851 -5.5 -1.735 0.35
-1.83 -5.497 -1.732 0.31
-1.816 -5.484 -1.727 0.3
-1.799 -5.487 -1.726 0.35
-1.788 -5.513 -1.733 0.39
-1.768 -5.509 -1.73 0.32
-1.758 -5.54 -1.738 0.32
-1.739 -5.539 -1.736 0.33
-1.701 -5.479 -1.714 0.25
-1.694 -5.489 -1.717 0.4
-1.682 -5.508 -1.721 0.35
-1.646 -5.454 -1.701 0.34
-1.623 -5.44 -1.695 0.46
-1.612 -5.466 -1.702 0.38
-1.6 -5.487 -1.707 0.3
-1.579 -5.481 -1.704 0.39
-1.567 -5.471 -1.7 0.33
-1.547 -5.465 -1.696 0.29
-1.528 -5.466 -1.695 0.3
-1.504 -5.445 -1.686 0.41
-1.493 -5.472 -1.693 0.41
-1.48 -5.491 -1.698 0.36
-1.469 -5.518 -1.706 0.34
-1.463 -5.531 -1.709 0.38
-1.447 -5.541 -1.711 0.27
-1.431 -5.553 -1.714 0.3
-1.409 -5.539 -1.707 0.22
-1.393 -5.549 -1.709 0.25
-1.377 -5.557 -1.71 0.29
-1.347 -5.513 -1.695 0.28
-1.337 -5.51 -1.693 0.41
-1.324 -5.531 -1.698 0.27
-1.31 -5.548 -1.703 0.26
-1.286 -5.526 -1.694 0.41
-1.27 -5.534 -1.695 0.34
-1.249 -5.523 -1.69 0.39
-1.231 -5.527 -1.69 0.33
-1.219 -5.553 -1.698 0.45
-1.216 -5.579 -1.706 0.32
-1.201 -5.594 -1.709 0.32
-1.183 -5.596 -1.709 0.35
-1.162 -5.583 -1.703 0.27
-1.145 -5.592 -1.705 0.26
-1.129 -5.603 -1.707 0.3
-1.123 -5.618 -1.712 0.34
-1.111 -5.651 -1.721 0.34
-1.098 -5.677 -1.729 0.28
-1.076 -5.66 -1.722 0.29
-1.052 -5.628 -1.71 0.33
-1.031 -5.618 -1.706 0.29
-1.017 -5.636 -1.711 0.23
-1.001 -5.65 -1.715 0.48
-0.994 -5.663 -1.718 0.29
-0.977 -5.672 -1.72 0.39
-0.955 -5.647 -1.711 0.3
-0.935 -5.64 -1.708 0.28
-0.918 -5.647 -1.709 0.35
-0.901 -5.656 -1.711 0.3
-0.886 -5.672 -1.715 0.36
-0.877 -5.677 -1.717 0.34
-0.866 -5.723 -1.731 0.34
-0.845 -5.705 -1.724 0.23
-0.829 -5.722 -1.729 0.31
-0.806 -5.687 -1.717 0.48
-0.779 -5.626 -1.696 0.32
-0.772 -5.702 -1.72 0.29
-0.764 -5.716 -1.724 0.38
-0.744 -5.703 -1.719 0.27
-0.725 -5.694 -1.715 0.31
-0.708 -5.706 -1.718 0.34
-0.692 -5.718 -1.721 0.29
-0.674 -5.724 -1.723 0.37
-0.655 -5.72 -1.721 0.32
-0.647 -5.725 -1.722 0.33
-0.628 -5.715 -1.718 0.28
-0.608 -5.706 -1.715 0.32
-0.591 -5.716 -1.717 0.3
-0.572 -5.704 -1.713 0.47
-0.556 -5.729 -1.72 0.33
-0.538 -5.725 -1.718 0.32
-0.525 -5.691 -1.707 0.31
-0.508 -5.693 -1.707 0.29
-0.49 -5.7 -1.709 0.27
-0.472 -5.7 -1.709 0.29
-0.455 -5.711 -1.712 0.29
-0.436 -5.701 -1.708 0.3
-0.417 -5.689 -1.704 0.3
-0.4 -5.7 -1.707 0.29
-0.39 -5.691 -1.704 0.27
-0.373 -5.7 -1.706 0.33
-0.357 -5.731 -1.716 0.21
-0.339 -5.725 -1.714 0.37
-0.318 -5.688 -1.701 0.34
-0.301 -5.706 -1.707 0.32
-0.287 -5.769 -1.727 0.28
-0.277 -5.762 -1.724 0.3
-0.258 -5.731 -1.714 0.29
-0.24 -5.728 -1.713 0.32
-0.22 -5.692 -1.701 0.22
-0.202 -5.695 -1.702 0.3
-0.185 -5.711 -1.707 0.35
-0.176 -5.705 -1.705 0.26
-0.158 -5.713 -1.707 0.29
-0.14 -5.725 -1.711 0.27
-0.121 -5.684 -1.698 0.34
-0.103 -5.673 -1.694 0.27
-0.085 -5.677 -1.695 0.34
-0.068 -5.675 -1.695 0.37
-0.051 -5.75 -1.718 0.38
-0.042 -5.765 -1.723 0.31
-0.024 -5.761 -1.722 0.25
-0.006 -5.792 -1.732 0.38
0.012 -5.775 -1.726 0.31
0.031 -5.771 -1.725 0.31
0.049 -5.75 -1.718 0.29
0.066 -5.727 -1.711 0.28
0.076 -5.74 -1.715 0.29
0.094 -5.73 -1.712 0.53
0.111 -5.709 -1.706 0.27
0.13 -5.752 -1.72 0.18
0.148 -5.765 -1.724 0.52
0.166 -5.755 -1.721 0.33
0.184 -5.728 -1.712 0.36
0.194 -5.779 -1.729 0.27
0.211 -5.729 -1.713 0.25
0.228 -5.703 -1.705 0.29
0.246 -5.703 -1.705 0.3
0.264 -5.702 -1.705 0.28
0.281 -5.699 -1.704 0.29
0.299 -5.696 -1.704 0.29
0.308 -5.702 -1.706 0.3
0.326 -5.697 -1.704 0.3
0.344 -5.688 -1.702 0.3
0.362 -5.691 -1.703 0.32
0.383 -5.75 -1.723 0.27
0.401 -5.74 -1.72 0.23
0.421 -5.765 -1.728 0.27
0.431 -5.78 -1.733 0.31
0.444 -5.708 -1.71 0.25
0.458 -5.657 -1.695 0.37
0.479 -5.699 -1.709 0.42
0.5 -5.739 -1.722 0.25
0.522 -5.782 -1.736 0.3
0.535 -5.715 -1.715 0.31
0.547 -5.751 -1.727 0.28
0.561 -5.709 -1.714 0.28
0.579 -5.707 -1.714 0.27
0.6 -5.732 -1.723 0.24
0.619 -5.741 -1.726 0.3
0.636 -5.73 -1.723 0.35
0.648 -5.677 -1.707 0.31
0.654 -5.645 -1.697 0.36
0.668 -5.613 -1.687 0.31
0.692 -5.668 -1.706 0.26
0.713 -5.684 -1.712 0.27
0.729 -5.673 -1.709 0.22
0.749 -5.687 -1.714 0.23
0.768 -5.693 -1.717 0.0
0.776 -5.68 -1.713 0.0
0.8 -5.729 -1.729 0.0
0.814 -5.692 -1.718 0.0
0.829 -5.672 -1.713 0.0
0.855 -5.726 -1.731 0.0
0.874 -5.731 -1.734 0.0
0.889 -5.71 -1.728 0.0
2.6 -5.017 -1.687 0.0
2.618 -5.012 -1.688 0.0
2.635 -5.007 -1.689 0.0
2.715 -5.062 -1.717 0.0
2.73 -5.052 -1.716 0.0
2.737 -5.027 -1.71 0.02
2.766 -5.043 -1.719 0.12
2.785 -5.039 -1.721 0.04
2.807 -5.042 -1.725 0.18
2.808 -5.026 -1.721 0.26
2.822 -5.014 -1.72 0.26
2.838 -5.005 -1.72 0.25
2.865 -5.016 -1.727 0.3
2.883 -5.01 -1.728 0.35
2.893 -4.991 -1.724 0.23
2.915 -4.994 -1.729 0.23
2.935 -5.011 -1.737 0.45
2.943 -4.988 -1.732 0.29
2.966 -4.99 -1.736 0.26
