# .PCD v.7 - Point Cloud Data file format
VERSION .7
FIELDS x y z intensity
SIZE 4 4 4 4
TYPE F F F F
COUNT 1 1 1 1
WIDTH 1922
HEIGHT 1
VIEWPOINT 0 0 0 1 0 0 0
POINTS 1922
DATA ascii
9.507 2.345 -1.613 0.27
9.494 2.373 -1.611 0.29
9.486 2.403 -1.611 0.28
9.488 2.42 -1.613 0.3
9.469 2.446 -1.61 0.3
9.465 2.477 -1.611 0.28
9.448 2.504 -1.609 0.29
9.445 2.536 -1.61 0.29
9.437 2.565 -1.61 0.26
9.418 2.592 -1.608 0.31
9.423 2.625 -1.611 0.3
9.419 2.64 -1.611 0.29
9.403 2.667 -1.609 0.3
9.393 2.696 -1.609 0.28
9.375 2.723 -1.607 0.31
9.377 2.756 -1.609 0.27
9.369 2.785 -1.609 0.3
9.366 2.8 -1.61 0.31
9.34 2.825 -1.607 0.27
9.343 2.858 -1.609 0.31
9.336 2.887 -1.609 0.31
9.325 2.916 -1.609 0.3
9.304 2.942 -1.607 0.27
9.301 2.973 -1.608 0.32
9.296 2.987 -1.608 0.31
9.292 3.019 -1.609 0.3
9.277 3.046 -1.608 0.29
9.269 3.076 -1.608 0.31
9.25 3.102 -1.606 0.3
9.242 3.131 -1.607 0.29
9.234 3.161 -1.607 0.28
9.233 3.177 -1.608 0.28
9.223 3.206 -1.608 0.32
9.218 3.237 -1.609 0.29
9.199 3.262 -1.607 0.3
9.183 3.289 -1.606 0.3
9.18 3.321 -1.607 0.26
9.17 3.349 -1.607 0.28
9.161 3.379 -1.608 0.29
9.148 3.391 -1.606 0.3
9.137 3.419 -1.606 0.29
9.123 3.447 -1.606 0.28
9.108 3.474 -1.605 0.27
9.097 3.502 -1.605 0.29
9.094 3.534 -1.606 0.29
9.073 3.559 -1.604 0.29
9.084 3.58 -1.608 0.27
9.064 3.604 -1.606 0.3
9.042 3.628 -1.604 0.29
9.041 3.661 -1.606 0.26
9.026 3.688 -1.605 0.28
9.014 3.717 -1.605 0.28
9.001 3.744 -1.605 0.28
8.986 3.754 -1.603 0.28
8.987 3.788 -1.606 0.27
8.975 3.816 -1.606 0.27
8.961 3.844 -1.605 0.28
8.952 3.873 -1.606 0.28
8.931 3.897 -1.604 0.28
8.91 3.921 -1.602 0.27
8.913 3.939 -1.604 0.29
8.886 3.961 -1.601 0.29
8.886 3.995 -1.604 0.3
8.871 4.022 -1.603 0.28
8.855 4.048 -1.603 0.31
8.839 4.074 -1.602 0.31
8.817 4.098 -1.6 0.3
8.807 4.11 -1.6 0.26
8.787 4.134 -1.598 0.22
8.781 4.165 -1.6 0.32
8.752 4.185 -1.596 0.4
8.744 4.215 -1.597 0.33
8.727 4.241 -1.597 0.37
8.717 4.27 -1.597 0.38
8.707 4.282 -1.597 0.37
8.697 4.311 -1.597 0.48
8.692 4.343 -1.599 0.31
8.677 4.369 -1.599 0.31
8.649 4.389 -1.596 0.53
8.66 4.429 -1.601 0.36
8.656 4.461 -1.603 0.3
8.649 4.475 -1.603 0.29
8.634 4.501 -1.603 0.27
8.611 4.524 -1.601 0.29
8.6 4.553 -1.602 0.27
8.593 4.583 -1.603 0.29
8.585 4.614 -1.604 0.28
8.577 4.645 -1.606 0.27
8.568 4.657 -1.606 0.17
8.576 4.697 -1.61 0.29
8.551 4.718 -1.608 0.25
8.546 4.75 -1.61 0.19
8.543 4.784 -1.613 0.27
8.534 4.814 -1.614 0.19
8.532 4.848 -1.616 0.25
8.521 4.86 -1.616 0.19
8.523 4.896 -1.619 0.25
8.507 4.923 -1.619 0.19
8.5 4.955 -1.621 0.12
8.485 4.981 -1.621 0.19
8.479 5.014 -1.623 0.11
8.473 5.047 -1.625 0.2
8.476 5.066 -1.627 0.1
8.453 5.089 -1.626 0.2
8.452 5.124 -1.629 0.11
8.431 5.148 -1.628 0.2
8.426 5.182 -1.63 0.11
8.403 5.204 -1.629 0.2
8.399 5.238 -1.631 0.11
8.397 5.255 -1.633 0.18
8.389 5.287 -1.635 0.11
8.392 5.326 -1.639 0.18
8.365 5.346 -1.637 0.23
8.349 5.372 -1.637 0.19
8.333 5.399 -1.637 0.22
8.325 5.431 -1.639 0.19
8.319 5.446 -1.639 0.21
8.315 5.481 -1.642 0.18
8.293 5.504 -1.641 0.24
8.282 5.534 -1.643 0.18
8.273 5.565 -1.644 0.24
8.254 5.59 -1.644 0.18
8.248 5.624 -1.646 0.25
8.239 5.637 -1.646 0.18
8.228 5.667 -1.648 0.25
8.224 5.703 -1.651 0.19
8.205 5.728 -1.651 0.24
8.188 5.755 -1.651 0.18
8.191 5.795 -1.655 0.25
8.162 5.813 -1.653 0.22
8.156 5.848 -1.656 0.17
8.158 5.869 -1.658 0.26
8.14 5.894 -1.658 0.23
8.116 5.916 -1.657 0.18
8.129 5.965 -1.664 0.27
8.095 5.979 -1.661 0.23
8.09 6.015 -1.664 0.18
8.084 6.05 -1.667 0.26
8.065 6.055 -1.665 0.23
8.052 6.086 -1.666 0.2
8.056 6.129 -1.671 0.25
8.029 6.148 -1.669 0.23
8.016 6.178 -1.671 0.2
8.017 6.219 -1.675 0.25
7.988 6.237 -1.673 0.19
7.994 6.261 -1.677 0.24
7.982 6.293 -1.679 0.19
7.959 6.315 -1.678 0.24
7.954 6.353 -1.681 0.19
7.943 6.385 -1.683 0.12
7.92 6.407 -1.683 0.18
7.912 6.442 -1.686 0.22
7.911 6.462 -1.688 0.2
7.885 6.482 -1.686 0.12
7.889 6.527 -1.692 0.18
7.855 6.54 -1.689 0.05
7.838 6.569 -1.69 0.18
7.833 6.606 -1.693 0.11
7.8 6.62 -1.69 0.2
7.8 6.642 -1.693 0.1
7.787 6.672 -1.695 0.18
7.772 6.702 -1.696 0.2
7.746 6.723 -1.695 0.09
7.732 6.753 -1.697 0.18
7.729 6.793 -1.701 0.2
7.7 6.811 -1.699 0.1
7.685 6.819 -1.698 0.19
7.68 6.858 -1.702 0.11
7.667 6.89 -1.704 0.18
7.644 6.912 -1.704 0.21
7.628 6.942 -1.705 0.09
7.607 6.967 -1.705 0.18
7.593 6.998 -1.707 0.2
7.583 7.011 -1.708 0.1
7.565 7.039 -1.709 0.19
7.555 7.073 -1.711 0.2
7.535 7.1 -1.712 0.19
7.513 7.123 -1.712 0.22
7.506 7.162 -1.716 0.19
7.481 7.183 -1.715 0.21
7.468 7.216 -1.718 0.19
7.454 7.225 -1.717 0.23
7.442 7.259 -1.72 0.2
7.414 7.277 -1.718 0.23
7.399 7.308 -1.72 0.19
7.381 7.336 -1.722 0.24
7.355 7.356 -1.721 0.18
7.347 7.395 -1.725 0.25
7.338 7.409 -1.725 0.17
7.321 7.439 -1.727 0.24
7.302 7.466 -1.728 0.19
7.283 7.493 -1.729 0.24
7.265 7.522 -1.731 0.19
7.249 7.553 -1.733 0.25
7.228 7.579 -1.733 0.23
7.219 7.593 -1.734 0.2
7.202 7.623 -1.736 0.25
7.18 7.648 -1.737 0.22
7.164 7.679 -1.739 0.21
7.147 7.709 -1.74 0.25
7.12 7.729 -1.74 0.24
7.105 7.761 -1.742 0.18
7.101 7.781 -1.744 0.26
7.07 7.796 -1.742 0.23
7.056 7.83 -1.745 0.17
7.036 7.858 -1.747 0.26
7.013 7.882 -1.747 0.23
6.984 7.899 -1.746 0.18
6.976 7.94 -1.751 0.26
6.964 7.951 -1.751 0.23
6.934 7.967 -1.749 0.18
6.919 8.001 -1.752 0.26
6.9 8.03 -1.754 0.23
6.866 8.041 -1.751 0.18
6.854 8.079 -1.755 0.26
6.827 8.098 -1.754 0.23
6.816 8.111 -1.755 0.18
6.798 8.142 -1.757 0.27
6.775 8.166 -1.758 0.23
6.743 8.18 -1.756 0.18
6.734 8.221 -1.761 0.26
6.707 8.24 -1.76 0.23
6.687 8.269 -1.762 0.19
6.667 8.298 -1.764 0.27
6.652 8.305 -1.763 0.25
6.634 8.337 -1.766 0.2
6.619 8.372 -1.769 0.27
6.588 8.386 -1.767 0.24
6.564 8.41 -1.768 0.2
6.547 8.443 -1.771 0.27
6.519 8.462 -1.77 0.25
6.509 8.477 -1.771 0.19
6.498 8.518 -1.776 0.28
6.464 8.529 -1.774 0.24
6.44 8.552 -1.775 0.2
6.423 8.586 -1.778 0.28
6.392 8.6 -1.776 0.25
6.369 8.627 -1.778 0.2
6.363 8.646 -1.78 0.26
6.339 8.671 -1.781 0.25
6.318 8.699 -1.783 0.26
6.292 8.722 -1.783 0.26
6.27 8.748 -1.785 0.24
6.241 8.766 -1.784 0.18
6.226 8.803 -1.788 0.3
6.214 8.816 -1.789 0.25
6.185 8.834 -1.789 0.25
6.16 8.857 -1.789 0.26
6.14 8.887 -1.792 0.26
6.11 8.903 -1.791 0.2
6.103 8.953 -1.798 0.27
6.069 8.964 -1.796 0.24
6.051 8.967 -1.795 0.2
6.038 9.009 -1.799 0.27
6.007 9.025 -1.799 0.24
5.983 9.05 -1.8 0.16
5.966 9.087 -1.804 0.29
5.942 9.112 -1.805 0.25
5.909 9.124 -1.804 0.2
5.89 9.158 -1.807 0.27
5.877 9.169 -1.807 0.25
5.854 9.197 -1.81 0.19
5.833 9.227 -1.812 0.27
5.805 9.247 -1.812 0.24
5.784 9.279 -1.815 0.2
5.755 9.297 -1.815 0.27
5.734 9.328 -1.818 0.22
5.712 9.326 -1.816 0.17
5.697 9.367 -1.82 0.28
5.668 9.387 -1.821 0.25
5.64 9.406 -1.821 0.2
5.624 9.447 -1.826 0.28
5.595 9.465 -1.826 0.24
5.571 9.493 -1.828 0.23
5.555 9.5 -1.828 0.18
5.531 9.527 -1.83 0.28
5.502 9.546 -1.83 0.24
5.473 9.565 -1.831 0.2
5.455 9.605 -1.835 0.27
5.428 9.627 -1.836 0.25
5.4 9.648 -1.837 0.28
5.371 9.668 -1.838 0.25
5.364 9.69 -1.84 0.27
5.338 9.716 -1.842 0.27
5.312 9.741 -1.844 0.26
5.292 9.777 -1.848 0.25
5.262 9.795 -1.848 0.19
5.24 9.829 -1.852 0.3
5.215 9.856 -1.854 0.25
5.201 9.867 -1.854 0.19
5.179 9.901 -1.858 0.27
5.153 9.926 -1.86 0.25
5.137 9.972 -1.865 0.26
5.119 10.015 -1.871 0.29
5.105 10.066 -1.878 0.29
5.082 10.099 -1.881 0.27
5.078 10.13 -1.886 0.25
5.06 10.174 -1.891 0.27
5.034 10.203 -1.894 0.3
4.999 10.211 -1.892 0.32
4.966 10.225 -1.892 0.27
4.937 10.248 -1.893 0.37
4.895 10.244 -1.89 0.32
4.87 10.232 -1.886 0.25
4.824 10.217 -1.88 0.34
4.791 10.232 -1.88 0.39
4.742 10.209 -1.872 0.34
4.696 10.194 -1.867 0.44
4.669 10.219 -1.869 0.36
4.631 10.221 -1.866 0.31
4.612 10.223 -1.865 0.45
4.583 10.243 -1.866 0.37
4.543 10.239 -1.863 0.42
4.513 10.259 -1.864 0.23
4.483 10.278 -1.865 0.54
4.445 10.28 -1.862 0.32
4.411 10.29 -1.862 0.3
4.382 10.311 -1.863 0.31
4.362 10.309 -1.861 0.3
4.326 10.315 -1.86 0.28
4.292 10.323 -1.859 0.31
4.259 10.337 -1.859 0.26
4.224 10.343 -1.857 0.31
4.198 10.373 -1.861 0.27
4.17 10.397 -1.863 0.26
4.152 10.4 -1.862 0.25
4.124 10.423 -1.864 0.34
4.091 10.436 -1.864 0.28
4.062 10.458 -1.866 0.29
4.033 10.482 -1.868 0.26
3.994 10.48 -1.865 0.32
3.964 10.5 -1.867 0.29
3.952 10.517 -1.869 0.28
3.917 10.526 -1.868 0.27
3.889 10.551 -1.87 0.27
3.865 10.589 -1.875 0.3
3.831 10.598 -1.875 0.29
3.795 10.602 -1.873 0.23
3.773 10.646 -1.879 0.28
3.751 10.637 -1.876 0.25
3.726 10.672 -1.881 0.23
3.689 10.677 -1.879 0.18
3.659 10.698 -1.881 0.28
3.628 10.716 -1.883 0.23
3.602 10.752 -1.887 0.25
3.559 10.735 -1.882 0.2
3.527 10.752 -1.883 0.33
3.51 10.756 -1.883 0.43
3.474 10.761 -1.882 0.24
3.446 10.791 -1.885 0.12
3.41 10.794 -1.884 0.2
3.375 10.801 -1.883 0.19
3.353 10.849 -1.89 0.27
3.311 10.835 -1.885 0.23
3.292 10.833 -1.884 0.2
3.267 10.875 -1.89 0.26
3.229 10.872 -1.888 0.21
3.197 10.89 -1.889 0.12
3.156 10.875 -1.884 0.2
3.127 10.904 -1.888 0.19
3.091 10.908 -1.887 0.1
3.074 10.913 -1.887 0.19
3.03 10.886 -1.88 0.29
3.008 10.939 -1.888 0.11
2.97 10.936 -1.886 0.2
2.943 10.975 -1.891 0.11
2.908 10.983 -1.891 0.18
2.876 11.001 -1.893 0.22
2.851 10.973 -1.887 0.16
2.809 10.954 -1.882 0.38
2.784 10.999 -1.888 0.18
2.747 11.0 -1.887 0.3
2.72 11.037 -1.892 0.2
2.687 11.055 -1.894 0.11
2.647 11.038 -1.889 0.2
2.633 11.06 -1.892 0.11
2.598 11.066 -1.892 0.17
2.562 11.07 -1.891 0.05
2.528 11.08 -1.892 0.18
2.496 11.102 -1.894 0.23
2.458 11.096 -1.892 0.21
2.422 11.096 -1.89 0.21
2.388 11.107 -1.891 0.12
2.366 11.092 -1.888 0.18
2.328 11.082 -1.884 0.15
2.293 11.087 -1.884 0.15
1.783 8.735 -1.457 0.16
1.75 8.712 -1.452 0.23
1.718 8.692 -1.447 0.26
1.691 8.697 -1.447 0.27
1.675 8.69 -1.445 0.29
1.645 8.68 -1.443 0.28
1.615 8.674 -1.441 0.29
1.586 8.667 -1.438 0.27
1.557 8.66 -1.436 0.3
1.527 8.652 -1.434 0.34
1.497 8.641 -1.431 0.34
1.482 8.633 -1.429 0.3
1.455 8.636 -1.429 0.32
1.426 8.631 -1.427 0.33
1.399 8.639 -1.428 0.34
1.369 8.622 -1.424 0.32
1.34 8.617 -1.422 0.34
1.312 8.613 -1.421 0.36
1.285 8.617 -1.421 0.38
1.271 8.615 -1.42 0.34
1.243 8.613 -1.419 0.36
1.215 8.611 -1.418 0.38
1.187 8.609 -1.417 0.38
1.16 8.613 -1.417 0.35
1.134 8.621 -1.418 0.54
1.129 8.804 -1.45 0.29
1.126 8.888 -1.465 0.26
1.08 8.747 -1.439 0.06
1.038 8.625 -1.416 0.07
1.009 8.61 -1.413 0.08
0.982 8.613 -1.413 0.15
0.954 8.605 -1.411 0.2
0.928 8.623 -1.414 0.26
0.918 8.658 -1.42 0.52
0.898 8.73 -1.432 0.12
0.87 8.728 -1.431 0.2
0.841 8.717 -1.429 0.17
0.78 8.646 -1.415 0.55
0.752 8.644 -1.415 0.76
0.732 8.563 -1.4 0.58
0.716 8.711 -1.426 0.27
0.689 8.717 -1.427 0.17
0.628 8.625 -1.409 0.62
0.588 8.432 -1.375 0.07
0.571 8.591 -1.403 0.16
0.545 8.601 -1.404 0.2
0.532 8.613 -1.406 0.18
0.506 8.633 -1.409 0.17
0.45 8.61 -1.405 0.4
0.423 8.608 -1.404 0.7
0.396 8.613 -1.405 0.36
0.369 8.606 -1.404 0.46
0.355 8.607 -1.404 0.51
0.329 8.618 -1.405 0.54
0.301 8.613 -1.404 0.55
0.274 8.612 -1.404 0.55
0.247 8.607 -1.403 0.56
0.22 8.615 -1.404 0.56
0.193 8.614 -1.404 0.57
0.18 8.62 -1.405 0.59
0.153 8.617 -1.404 0.61
0.125 8.615 -1.404 0.63
0.098 8.617 -1.404 0.63
0.071 8.618 -1.404 0.65
0.044 8.618 -1.404 0.67
0.017 8.62 -1.405 0.66
0.004 8.622 -1.405 0.69
-0.024 8.632 -1.407 0.8
-0.051 8.62 -1.405 0.77
-0.078 8.612 -1.403 0.64
-0.105 8.608 -1.402 0.56
-0.132 8.605 -1.402 0.52
-0.159 8.613 -1.404 0.46
-0.185 8.598 -1.401 0.56
-0.199 8.608 -1.403 0.36
-0.226 8.597 -1.401 0.53
-0.253 8.6 -1.402 0.32
-0.28 8.594 -1.401 0.58
-0.308 8.611 -1.404 0.27
-0.334 8.592 -1.401 0.52
-0.361 8.591 -1.401 0.35
-0.374 8.588 -1.4 0.48
-0.401 8.575 -1.398 0.39
-0.428 8.58 -1.399 0.38
-0.455 8.586 -1.401 0.36
-0.482 8.579 -1.4 0.36
-0.509 8.573 -1.399 0.36
-0.537 8.589 -1.402 0.35
-0.55 8.583 -1.401 0.35
-0.577 8.577 -1.4 0.35
-0.604 8.585 -1.402 0.3
-0.631 8.587 -1.403 0.4
-0.657 8.573 -1.401 0.32
-0.685 8.581 -1.402 0.33
-0.712 8.581 -1.403 0.37
-0.725 8.57 -1.401 0.3
-0.754 8.585 -1.404 0.32
-0.779 8.569 -1.402 0.32
-0.807 8.578 -1.404 0.33
-0.835 8.581 -1.405 0.32
-0.861 8.571 -1.404 0.32
-0.889 8.576 -1.405 0.33
-0.916 8.581 -1.406 0.34
-0.929 8.57 -1.405 0.34
-0.956 8.567 -1.405 0.34
-0.985 8.581 -1.408 0.34
-1.011 8.568 -1.406 0.34
-1.039 8.581 -1.409 0.35
-1.067 8.581 -1.409 0.36
-1.092 8.566 -1.407 0.35
-1.106 8.569 -1.408 0.33
-1.135 8.579 -1.411 0.34
-1.162 8.573 -1.41 0.34
-1.188 8.567 -1.41 0.34
-1.217 8.573 -1.412 0.34
-1.243 8.568 -1.411 0.34
-1.271 8.57 -1.412 0.34
-1.286 8.577 -1.414 0.35
-1.312 8.567 -1.413 0.36
-1.341 8.573 -1.415 0.37
-1.368 8.574 -1.416 0.33
-1.396 8.572 -1.416 0.37
-1.423 8.572 -1.417 0.38
-1.451 8.575 -1.418 0.38
-1.478 8.568 -1.418 0.37
-1.493 8.574 -1.419 0.37
-1.521 8.577 -1.421 0.39
-1.547 8.564 -1.419 0.34
-1.574 8.563 -1.42 0.41
-1.606 8.581 -1.424 0.23
-1.636 8.592 -1.427 0.55
-1.662 8.583 -1.426 0.71
-1.65 8.453 -1.403 0.36
-1.726 8.694 -1.448 0.21
-1.739 8.618 -1.435 0.21
-1.763 8.595 -1.432 0.1
-1.785 8.568 -1.428 0.09
-1.812 8.564 -1.428 0.15
-1.841 8.566 -1.43 0.12
-1.856 8.571 -1.431 0.24
-1.891 8.6 -1.437 0.49
-1.936 8.676 -1.452 0.19
-1.968 8.687 -1.456 0.09
-1.995 8.681 -1.456 0.08
-2.033 8.601 -1.443 0.2
-2.046 8.596 -1.443 0.48
-2.075 8.598 -1.444 0.37
-2.115 8.641 -1.454 0.34
-2.138 8.621 -1.451 0.18
-2.161 8.597 -1.448 0.33
-2.187 8.586 -1.447 0.11
-2.215 8.583 -1.448 0.09
-2.247 8.595 -1.451 0.15
-2.262 8.597 -1.452 0.18
-2.318 8.59 -1.454 0.27
-2.339 8.562 -1.45 0.5
-2.368 8.56 -1.451 0.34
-2.399 8.57 -1.454 0.36
-2.426 8.562 -1.454 0.34
-2.443 8.57 -1.456 0.34
-2.478 8.591 -1.462 0.37
-2.504 8.579 -1.461 0.3
-2.535 8.584 -1.463 0.35
-2.57 8.603 -1.468 0.37
-2.6 8.606 -1.47 0.35
-2.627 8.598 -1.47 0.25
-2.669 8.634 -1.479 0.26
-2.685 8.64 -1.48 0.04
-3.596 11.415 -1.999 0.13
-3.636 11.417 -2.001 0.21
-3.668 11.396 -1.999 0.1
-3.71 11.403 -2.003 0.18
-3.742 11.378 -2.0 0.28
-3.778 11.368 -2.001 0.13
-3.799 11.371 -2.002 0.17
-3.835 11.359 -2.002 0.21
-3.865 11.332 -2.0 0.19
-3.904 11.328 -2.001 0.12
-3.935 11.304 -1.999 0.2
-3.971 11.292 -1.999 0.2
-4.012 11.296 -2.002 0.16
-4.03 11.29 -2.002 0.13
-4.063 11.271 -2.001 0.17
-4.099 11.26 -2.001 0.27
-4.129 11.233 -1.999 0.36
-4.171 11.236 -2.002 0.21
-4.213 11.242 -2.005 0.1
-4.247 11.225 -2.005 0.17
-4.281 11.209 -2.004 0.21
-4.307 11.223 -2.008 0.16
-4.35 11.229 -2.012 0.24
-4.384 11.212 -2.011 0.19
-4.418 11.195 -2.011 0.11
-4.455 11.186 -2.012 0.18
-4.491 11.174 -2.012 0.23
-4.527 11.163 -2.013 0.19
-4.543 11.151 -2.012 0.23
-4.575 11.129 -2.01 0.18
-4.618 11.135 -2.014 0.25
-4.644 11.1 -2.01 0.19
-4.679 11.084 -2.01 0.23
-4.72 11.083 -2.013 0.2
-4.747 11.052 -2.009 0.22
-4.77 11.057 -2.012 0.26
-4.802 11.037 -2.011 0.19
-4.837 11.022 -2.011 0.24
-4.872 11.007 -2.011 0.18
-4.908 10.995 -2.012 0.24
-4.944 10.983 -2.012 0.2
-4.98 10.971 -2.013 0.22
-5.002 10.974 -2.015 0.2
-5.033 10.949 -2.013 0.24
-5.073 10.946 -2.016 0.24
-5.106 10.928 -2.015 0.19
-5.142 10.914 -2.016 0.23
-5.172 10.889 -2.014 0.18
-5.215 10.892 -2.018 0.25
-5.242 10.861 -2.015 0.23
-5.258 10.849 -2.014 0.17
-5.304 10.858 -2.019 0.26
-5.334 10.832 -2.018 0.18
-5.374 10.828 -2.02 0.25
-5.402 10.798 -2.018 0.19
-5.437 10.785 -2.018 0.23
-5.468 10.762 -2.017 0.24
-5.492 10.766 -2.02 0.17
-5.521 10.74 -2.018 0.29
-5.558 10.73 -2.019 0.23
-5.589 10.707 -2.018 0.2
-5.632 10.707 -2.022 0.27
-5.66 10.679 -2.02 0.22
-5.695 10.664 -2.02 0.16
-5.719 10.667 -2.023 0.28
-5.755 10.654 -2.024 0.21
-5.785 10.629 -2.022 0.18
-5.824 10.622 -2.024 0.29
-5.855 10.6 -2.024 0.23
-5.891 10.586 -2.025 0.21
-5.93 10.578 -2.027 0.25
-5.951 10.576 -2.028 0.25
-5.986 10.56 -2.029 0.24
-6.017 10.538 -2.028 0.29
-6.051 10.521 -2.029 0.28
-6.077 10.49 -2.026 0.27
-6.086 10.43 -2.018 0.29
-6.119 10.411 -2.018 0.36
-6.164 10.412 -2.022 0.31
-6.173 10.39 -2.02 0.32
-6.209 10.376 -2.021 0.25
-6.236 10.348 -2.019 0.18
-6.272 10.333 -2.02 0.29
-6.302 10.31 -2.019 0.25
-6.341 10.3 -2.021 0.28
-6.386 10.301 -2.026 0.26
-6.392 10.275 -2.022 0.25
-6.438 10.277 -2.027 0.29
-6.48 10.272 -2.03 0.3
-6.52 10.263 -2.033 0.34
-6.568 10.267 -2.038 0.29
-6.608 10.258 -2.04 0.22
-6.653 10.257 -2.044 0.44
-6.668 10.245 -2.044 0.26
-6.713 10.244 -2.048 0.31
-6.746 10.224 -2.049 0.35
-6.788 10.218 -2.052 0.39
-6.829 10.209 -2.055 0.36
-6.867 10.198 -2.057 0.38
-6.908 10.189 -2.059 0.38
-6.928 10.183 -2.06 0.33
-6.943 10.137 -2.055 0.37
-6.96 10.094 -2.051 0.31
-6.976 10.05 -2.046 0.2
-6.999 10.015 -2.043 0.27
-7.022 9.981 -2.041 0.24
-7.05 9.954 -2.04 0.21
-7.064 9.908 -2.034 0.13
-7.081 9.899 -2.035 0.2
-7.109 9.873 -2.034 0.11
-7.128 9.833 -2.03 0.18
-7.168 9.824 -2.033 0.21
-7.202 9.806 -2.034 0.22
-7.214 9.758 -2.028 0.18
-7.248 9.74 -2.029 0.26
-7.26 9.724 -2.028 0.25
-7.279 9.685 -2.025 0.18
-7.313 9.667 -2.026 0.27
-7.345 9.647 -2.027 0.19
-7.366 9.611 -2.024 0.13
-7.396 9.588 -2.024 0.21
-7.419 9.556 -2.022 0.15
-7.4 9.47 -2.008 0.25
-7.421 9.466 -2.009 0.52
-7.474 9.472 -2.016 0.32
-7.511 9.458 -2.018 0.28
-7.552 9.448 -2.021 0.18
-7.588 9.432 -2.023 0.26
-7.603 9.39 -2.019 0.24
-7.637 9.372 -2.02 0.19
-7.651 9.359 -2.02 0.26
-7.667 9.319 -2.016 0.24
-7.705 9.306 -2.019 0.18
-7.727 9.273 -2.017 0.27
-7.755 9.247 -2.016 0.25
-7.771 9.207 -2.013 0.18
-7.81 9.195 -2.016 0.27
-7.814 9.171 -2.013 0.21
-7.841 9.143 -2.012 0.19
-7.869 9.118 -2.012 0.27
-7.893 9.088 -2.011 0.23
-7.917 9.058 -2.01 0.19
-7.948 9.036 -2.011 0.27
-7.966 9.0 -2.008 0.23
-7.979 8.986 -2.007 0.18
-8.01 8.963 -2.008 0.26
-8.027 8.926 -2.005 0.22
-8.057 8.903 -2.006 0.2
-8.083 8.876 -2.005 0.25
-8.102 8.84 -2.003 0.22
-8.12 8.805 -2.0 0.18
-8.141 8.799 -2.002 0.27
-8.164 8.769 -2.001 0.2
-8.195 8.746 -2.002 0.25
-8.215 8.713 -2.0 0.2
-8.239 8.683 -1.999 0.25
-8.259 8.65 -1.997 0.23
-8.289 8.627 -1.998 0.2
-8.314 8.6 -1.998 0.25
-8.322 8.581 -1.996 0.23
-8.337 8.542 -1.993 0.18
-8.371 8.523 -1.995 0.26
-8.393 8.492 -1.994 0.2
-8.424 8.47 -1.995 0.25
-8.439 8.432 -1.992 0.23
-8.455 8.395 -1.989 0.18
-8.474 8.387 -1.991 0.26
-8.487 8.348 -1.987 0.23
-8.511 8.319 -1.987 0.18
-8.548 8.303 -1.99 0.26
-8.563 8.265 -1.987 0.23
-8.591 8.241 -1.987 0.19
-8.614 8.211 -1.987 0.26
-8.622 8.192 -1.985 0.22
-8.652 8.169 -1.986 0.2
-8.677 8.142 -1.986 0.25
-8.704 8.116 -1.987 0.2
-8.74 8.098 -1.989 0.25
-8.756 8.062 -1.987 0.22
-8.772 8.025 -1.985 0.18
-8.788 8.016 -1.986 0.26
-8.818 7.992 -1.987 0.18
-8.842 7.963 -1.986 0.25
-8.864 7.932 -1.986 0.19
-8.891 7.907 -1.986 0.13
-8.91 7.874 -1.985 0.21
-8.923 7.836 -1.982 0.17
-8.963 7.82 -1.986 0.26
-8.969 7.801 -1.984 0.19
-8.995 7.774 -1.985 0.25
-9.01 7.738 -1.983 0.18
-9.027 7.703 -1.981 0.24
-9.056 7.679 -1.982 0.18
-9.072 7.644 -1.98 0.24
-9.098 7.617 -1.98 0.18
-9.102 7.596 -1.979 0.25
-9.12 7.563 -1.977 0.18
-9.139 7.53 -1.976 0.25
-9.157 7.496 -1.975 0.2
-9.178 7.466 -1.975 0.12
-9.188 7.426 -1.971 0.2
-9.216 7.401 -1.972 0.11
-9.212 7.374 -1.969 0.21
-9.237 7.347 -1.969 0.11
-9.257 7.315 -1.969 0.19
-9.278 7.285 -1.968 0.11
-9.289 7.246 -1.965 0.2
-9.314 7.219 -1.966 0.11
-9.328 7.183 -1.964 0.19
-9.339 7.168 -1.964 0.11
-9.357 7.135 -1.963 0.18
-9.381 7.107 -1.963 0.1
-9.392 7.069 -1.961 0.18
-9.411 7.037 -1.96 0.05
-9.425 7.002 -1.958 0.17
-9.447 6.972 -1.958 0.05
-9.464 6.939 -1.957 0.17
-9.489 6.934 -1.961 0.19
-9.509 6.903 -1.96 0.18
-9.517 6.863 -1.957 0.17
-9.535 6.831 -1.956 0.17
-9.553 6.799 -1.956 0.16
-9.571 6.766 -1.955 0.16
-9.586 6.732 -1.954 0.16
-9.6 6.719 -1.954 0.16
-9.616 6.685 -1.953 0.16
-9.626 6.647 -1.951 0.16
-9.648 6.618 -1.951 0.16
-9.667 6.587 -1.951 0.16
-9.681 6.552 -1.949 0.16
-9.707 6.525 -1.95 0.16
-9.712 6.506 -1.949 0.17
-9.732 6.476 -1.949 0.17
-9.735 6.433 -1.946 0.04
-9.742 6.394 -1.943 0.16
-9.763 6.364 -1.943 0.05
-9.783 6.334 -1.943 0.16
-9.795 6.298 -1.941 0.2
-9.81 6.285 -1.942 0.09
-9.808 6.241 -1.938 0.18
-9.826 6.209 -1.937 0.11
-9.838 6.174 -1.936 0.18
-9.861 6.145 -1.937 0.11
-9.872 6.109 -1.935 0.19
-9.889 6.077 -1.935 0.11
-9.886 6.053 -1.932 0.2
-9.908 6.024 -1.933 0.11
-9.922 5.99 -1.932 0.18
-9.932 5.954 -1.93 0.23
-9.949 5.921 -1.929 0.18
-9.973 5.893 -1.93 0.23
-9.979 5.855 -1.928 0.2
-9.988 5.839 -1.928 0.11
-9.996 5.802 -1.926 0.2
-10.015 5.77 -1.926 0.11
-10.033 5.739 -1.926 0.2
-10.049 5.706 -1.926 0.11
-10.06 5.671 -1.924 0.18
-10.074 5.637 -1.924 0.23
-10.087 5.603 -1.922 0.1
-10.092 5.585 -1.922 0.18
-10.108 5.552 -1.921 0.21
-10.125 5.521 -1.921 0.1
-10.139 5.487 -1.921 0.18
-10.146 5.449 -1.919 0.05
-10.154 5.413 -1.917 0.18
-10.171 5.381 -1.917 0.05
-10.169 5.359 -1.915 0.18
-10.182 5.326 -1.914 0.05
-10.187 5.287 -1.912 0.16
-10.21 5.259 -1.913 0.18
-10.23 5.229 -1.914 0.18
-10.24 5.193 -1.912 0.04
-10.253 5.159 -1.912 0.16
-10.263 5.124 -1.911 0.05
-10.248 5.097 -1.906 0.16
-10.279 5.071 -1.909 0.05
-10.289 5.036 -1.908 0.16
-10.301 5.002 -1.907 0.05
-10.315 4.969 -1.907 0.16
-10.327 4.935 -1.906 0.19
-10.323 4.913 -1.904 0.18
-10.331 4.877 -1.902 0.09
-10.33 4.837 -1.899 0.18
-10.351 4.807 -1.9 0.2
-10.351 4.768 -1.897 0.1
-10.363 4.734 -1.897 0.18
-10.363 4.695 -1.894 0.23
-10.358 4.673 -1.891 0.18
-10.374 4.641 -1.892 0.23
-10.365 4.598 -1.887 0.17
-10.392 4.571 -1.89 0.24
-10.396 4.534 -1.888 0.19
-10.405 4.499 -1.886 0.25
-10.41 4.462 -1.885 0.23
-10.413 4.444 -1.884 0.16
-10.44 4.417 -1.886 0.28
-10.463 4.388 -1.888 0.25
-10.469 4.352 -1.887 0.2
-10.501 4.326 -1.89 0.28
-10.507 4.291 -1.889 0.25
-10.515 4.255 -1.888 0.27
-10.527 4.221 -1.888 0.26
-10.526 4.202 -1.886 0.28
-10.55 4.173 -1.888 0.27
-10.559 4.139 -1.888 0.26
-10.576 4.107 -1.888 0.27
-10.602 4.079 -1.891 0.25
-10.6 4.04 -1.888 0.18
-10.634 4.015 -1.892 0.29
-10.63 3.994 -1.89 0.25
-10.64 3.96 -1.89 0.26
-10.66 3.929 -1.891 0.26
-10.667 3.893 -1.89 0.16
-10.696 3.866 -1.893 0.28
-10.706 3.832 -1.893 0.25
-10.731 3.803 -1.895 0.25
-10.729 3.783 -1.894 0.25
-10.732 3.746 -1.892 0.25
-10.757 3.717 -1.895 0.2
-10.78 3.687 -1.897 0.27
-10.799 3.656 -1.898 0.23
-10.799 3.618 -1.896 0.18
-10.819 3.587 -1.898 0.29
-10.812 3.566 -1.895 0.23
-10.84 3.537 -1.898 0.23
-10.832 3.497 -1.895 0.18
-10.862 3.469 -1.898 0.28
-10.867 3.433 -1.897 0.23
-10.876 3.398 -1.897 0.26
-10.887 3.364 -1.897 0.26
-10.897 3.33 -1.897 0.2
-10.916 3.317 -1.899 0.27
-10.911 3.278 -1.897 0.25
-10.932 3.247 -1.899 0.25
-10.926 3.208 -1.896 0.16
-10.966 3.182 -1.901 0.29
-10.97 3.146 -1.9 0.25
-10.95 3.103 -1.895 0.17
-10.989 3.095 -1.901 0.29
-10.985 3.057 -1.898 0.25
-10.991 3.022 -1.898 0.26
-11.006 2.989 -1.899 0.28
-11.03 2.958 -1.901 0.26
-11.023 2.919 -1.898 0.26
-11.047 2.888 -1.901 0.26
-11.051 2.871 -1.901 0.27
-11.051 2.834 -1.899 0.26
-11.069 2.801 -1.901 0.26
-11.09 2.769 -1.903 0.27
-11.091 2.733 -1.902 0.27
-11.103 2.699 -1.903 0.28
-11.113 2.664 -1.903 0.27
-11.108 2.645 -1.901 0.27
-11.124 2.611 -1.903 0.27
-11.141 2.579 -1.904 0.27
-11.144 2.542 -1.903 0.26
-11.161 2.509 -1.905 0.27
-11.179 2.476 -1.907 0.27
-11.165 2.437 -1.903 0.26
-11.186 2.405 -1.905 0.26
-11.192 2.387 -1.906 0.27
-11.196 2.351 -1.905 0.26
-11.222 2.32 -1.908 0.25
-11.245 2.288 -1.911 0.23
-11.215 2.245 -1.905 0.17
-11.257 2.217 -1.911 0.28
-11.247 2.178 -1.908 0.24
-11.242 2.159 -1.906 0.2
-11.282 2.13 -1.912 0.27
-11.275 2.092 -1.91 0.24
-11.262 2.053 -1.906 0.19
-11.303 2.024 -1.913 0.27
-11.298 1.986 -1.911 0.25
-11.293 1.949 -1.908 0.16
-11.325 1.936 -1.914 0.28
-11.319 1.898 -1.912 0.25
-11.323 1.863 -1.911 0.2
-11.348 1.83 -1.915 0.27
-11.352 1.794 -1.914 0.24
-11.35 1.757 -1.913 0.26
-11.352 1.721 -1.912 0.25
-11.357 1.685 -1.912 0.19
-11.375 1.67 -1.915 0.27
-11.371 1.633 -1.913 0.24
-11.37 1.596 -1.912 0.2
-11.4 1.564 -1.917 0.28
-11.387 1.526 -1.914 0.25
-11.382 1.489 -1.912 0.18
-11.408 1.456 -1.916 0.27
-11.393 1.435 -1.913 0.25
-11.4 1.4 -1.913 0.19
-11.423 1.366 -1.917 0.26
-11.416 1.329 -1.914 0.23
-11.412 1.292 -1.913 0.18
-11.42 1.257 -1.914 0.31
-11.446 1.223 -1.918 0.3
-11.471 1.208 -1.922 0.42
-11.487 1.173 -1.924 0.3
-11.486 1.136 -1.923 0.12
-11.492 1.1 -1.924 0.19
-11.505 1.065 -1.925 0.11
-11.512 1.029 -1.926 0.18
-11.529 0.994 -1.928 0.11
-11.519 0.975 -1.926 0.17
-11.538 0.94 -1.929 0.21
-11.534 0.885 -1.928 0.17
-11.541 0.868 -1.929 0.05
-11.536 0.831 -1.927 0.17
-11.541 0.795 -1.928 0.05
-11.541 0.758 -1.927 0.17
-11.557 0.723 -1.93 0.2
-11.544 0.686 -1.927 0.1
-11.548 0.65 -1.927 0.16
-11.543 0.631 -1.926 0.05
-11.529 0.594 -1.924 0.17
-11.549 0.559 -1.927 0.2
-11.538 0.522 -1.925 0.1
-11.524 0.485 -1.922 0.18
-11.536 0.449 -1.924 0.22
-11.519 0.412 -1.92 0.18
-11.522 0.376 -1.921 0.24
-11.517 0.358 -1.92 0.18
-11.514 0.322 -1.919 0.24
-11.499 0.285 -1.916 0.16
-11.516 0.249 -1.919 0.26
-11.511 0.213 -1.918 0.2
-11.523 0.177 -1.92 0.23
-11.514 0.141 -1.918 0.24
-11.518 0.123 -1.919 0.19
-11.542 0.087 -1.923 0.28
-11.538 0.05 -1.922 0.25
-11.517 0.014 -1.919 0.2
-11.542 -0.022 -1.923 0.28
-11.546 -0.058 -1.924 0.25
-11.524 -0.094 -1.92 0.18
-11.552 -0.113 -1.925 0.26
-11.537 -0.149 -1.922 0.19
-11.561 -0.186 -1.927 0.13
-11.546 -0.222 -1.924 0.21
-11.553 -0.258 -1.926 0.2
-11.556 -0.295 -1.926 0.24
-11.559 -0.331 -1.927 0.19
-11.567 -0.349 -1.928 0.11
-11.558 -0.385 -1.927 0.2
-11.568 -0.422 -1.929 0.11
-11.579 -0.459 -1.931 0.18
-11.583 -0.496 -1.932 0.11
-11.57 -0.531 -1.93 0.19
-11.585 -0.569 -1.933 0.11
-11.581 -0.587 -1.933 0.18
-11.573 -0.623 -1.932 0.05
-11.569 -0.659 -1.931 0.17
-11.584 -0.696 -1.934 0.2
-11.576 -0.732 -1.933 0.1
-11.57 -0.769 -1.933 0.18
-11.568 -0.805 -1.933 0.05
-11.549 -0.84 -1.93 0.18
-11.566 -0.86 -1.933 0.2
-11.557 -0.895 -1.932 0.1
-11.536 -0.93 -1.929 0.18
-11.539 -0.967 -1.93 0.11
-11.548 -1.004 -1.932 0.19
-11.525 -1.039 -1.928 0.1
-11.51 -1.074 -1.926 0.17
-11.514 -1.092 -1.927 0.12
-11.501 -1.128 -1.926 0.21
-11.491 -1.163 -1.925 0.17
-11.527 -1.203 -1.932 0.26
-11.515 -1.239 -1.93 0.23
-11.515 -1.275 -1.931 0.19
-11.544 -1.315 -1.937 0.27
-11.531 -1.332 -1.935 0.23
-11.536 -1.37 -1.936 0.19
-11.559 -1.409 -1.941 0.27
-11.541 -1.444 -1.939 0.25
-11.542 -1.481 -1.94 0.19
-11.555 -1.519 -1.943 0.26
-11.544 -1.555 -1.942 0.22
-11.602 -1.581 -1.953 0.25
-11.603 -1.619 -1.954 0.27
-11.608 -1.657 -1.956 0.22
-11.583 -1.69 -1.952 0.25
-11.576 -1.726 -1.952 0.32
-11.541 -1.758 -1.947 0.32
-11.355 -1.766 -1.914 0.25
-11.181 -1.756 -1.883 0.26
-11.035 -1.769 -1.858 0.29
-11.01 -1.8 -1.855 0.2
-11.014 -1.836 -1.856 0.27
-10.993 -1.868 -1.854 0.24
-11.014 -1.908 -1.859 0.23
-11.181 -1.973 -1.89 0.31
-11.221 -2.017 -1.898 0.25
-11.21 -2.033 -1.897 0.29
-11.174 -2.063 -1.891 0.38
-11.131 -2.091 -1.885 0.3
-11.138 -2.128 -1.887 0.35
-11.118 -2.161 -1.885 0.3
-11.107 -2.195 -1.884 0.32
-11.106 -2.231 -1.885 0.25
-11.135 -2.255 -1.891 0.47
-11.114 -2.287 -1.889 0.2
-11.194 -2.34 -1.904 0.31
-11.158 -2.369 -1.899 0.36
-11.196 -2.414 -1.907 0.28
-11.206 -2.453 -1.911 0.29
-11.154 -2.479 -1.903 0.3
-11.19 -2.505 -1.91 0.28
-11.298 -2.567 -1.931 0.19
-11.313 -2.608 -1.935 0.19
-11.278 -2.637 -1.93 0.51
-11.298 -2.679 -1.935 0.23
-11.366 -2.733 -1.949 0.28
-11.354 -2.768 -1.949 0.24
-11.359 -2.788 -1.95 0.26
-11.348 -2.823 -1.95 0.27
-11.343 -2.86 -1.951 0.25
-11.349 -2.9 -1.954 0.28
-11.317 -2.929 -1.949 0.28
-11.319 -2.968 -1.951 0.28
-11.306 -3.002 -1.951 0.23
-11.172 -2.985 -1.927 0.23
-11.111 -3.006 -1.918 0.16
-11.054 -3.028 -1.909 0.26
-10.925 -3.029 -1.887 0.23
-10.812 -3.034 -1.868 0.19
-10.711 -3.042 -1.851 0.27
-10.522 -3.024 -1.818 0.22
-10.386 -3.019 -1.794 0.12
-10.29 -3.009 -1.777 0.0
-10.218 -3.023 -1.766 0.01
-11.334 -3.395 -1.975 0.15
-11.337 -3.434 -1.977 0.23
-11.33 -3.471 -1.978 0.33
-11.309 -3.504 -1.976 0.2
-11.291 -3.537 -1.975 0.4
-11.328 -3.568 -1.983 0.27
-11.343 -3.612 -1.987 0.31
-11.311 -3.641 -1.984 0.27
-11.283 -3.671 -1.98 0.35
-11.281 -3.71 -1.982 0.25
-11.235 -3.734 -1.976 0.26
-11.239 -3.774 -1.979 0.24
-11.246 -3.796 -1.981 0.27
-11.258 -3.84 -1.986 0.34
-11.233 -3.871 -1.983 0.35
-11.169 -3.888 -1.973 0.31
-11.121 -3.91 -1.967 0.3
-11.157 -3.962 -1.976 0.28
-11.011 -3.949 -1.951 0.3
-11.003 -3.966 -1.95 0.39
-11.04 -4.019 -1.96 0.21
-11.009 -4.047 -1.956 0.14
-10.996 -4.081 -1.956 0.2
-10.98 -4.114 -1.956 0.16
-10.987 -4.157 -1.96 0.16
-11.033 -4.214 -1.971 0.2
-11.002 -4.222 -1.966 0.21
-11.004 -4.262 -1.969 0.13
-10.948 -4.28 -1.961 0.18
-10.893 -4.298 -1.953 0.11
-10.853 -4.322 -1.948 0.18
-10.84 -4.356 -1.948 0.11
-10.822 -4.388 -1.947 0.18
-10.707 -4.38 -1.928 0.05
-10.671 -4.385 -1.922 0.17
-10.646 -4.414 -1.92 0.2
-10.577 -4.424 -1.91 0.2
-10.585 -4.467 -1.914 0.25
-10.551 -4.492 -1.91 0.24
-10.512 -4.514 -1.905 0.05
-10.46 -4.53 -1.898 0.17
-10.411 -4.528 -1.89 0.2
-10.328 -4.531 -1.876 0.1
-10.238 -4.53 -1.862 0.18
-10.172 -4.538 -1.852 0.11
-10.084 -4.537 -1.837 0.2
-10.007 -4.54 -1.825 0.11
-9.903 -4.53 -1.807 0.2
-9.807 -4.505 -1.79 0.05
-9.714 -4.499 -1.775 0.0
-9.648 -4.505 -1.765 0.0
-9.572 -4.506 -1.752 0.0
-10.336 -4.948 -1.908 0.11
-10.347 -4.993 -1.914 0.16
-10.359 -5.019 -1.918 0.29
-10.274 -5.017 -1.904 0.22
-10.246 -5.044 -1.901 0.22
-10.216 -5.069 -1.899 0.32
-10.183 -5.092 -1.895 0.27
-10.14 -5.111 -1.89 0.21
-10.156 -5.159 -1.896 0.32
-10.139 -5.17 -1.895 0.36
-10.147 -5.214 -1.899 0.35
-10.069 -5.214 -1.887 0.23
-9.988 -5.212 -1.874 0.26
-9.946 -5.23 -1.869 0.39
-9.99 -5.293 -1.881 0.29
-9.908 -5.289 -1.868 0.31
-9.899 -5.305 -1.868 0.24
-9.959 -5.377 -1.883 0.29
-9.868 -5.368 -1.868 0.33
-9.775 -5.357 -1.853 0.27
-9.865 -5.447 -1.875 0.26
-9.88 -5.496 -1.881 0.25
-9.853 -5.521 -1.879 0.31
-9.882 -5.558 -1.887 0.29
-9.845 -5.579 -1.883 0.32
-9.858 -5.627 -1.889 0.33
-9.851 -5.664 -1.891 0.36
-9.823 -5.689 -1.889 0.27
-9.756 -5.691 -1.879 0.24
-9.783 -5.749 -1.889 0.32
-9.74 -5.764 -1.883 0.31
-9.736 -5.782 -1.884 0.27
-9.706 -5.806 -1.882 0.29
-9.666 -5.823 -1.877 0.23
-9.621 -5.837 -1.872 0.25
-9.572 -5.849 -1.865 0.18
-9.547 -5.875 -1.864 0.25
-9.493 -5.883 -1.857 0.25
-9.489 -5.901 -1.858 0.29
-9.484 -5.939 -1.861 0.27
-9.475 -5.975 -1.863 0.27
-9.451 -6.002 -1.862 0.23
-9.424 -6.026 -1.86 0.4
-9.389 -6.045 -1.856 0.26
-9.307 -6.033 -1.843 0.19
-9.273 -6.032 -1.838 0.22
-9.239 -6.051 -1.835 0.18
-9.185 -6.057 -1.827 0.25
-9.129 -6.061 -1.819 0.23
-9.078 -6.069 -1.813 0.2
-9.017 -6.069 -1.804 0.25
-8.964 -6.074 -1.796 0.23
-8.912 -6.059 -1.787 0.2
-8.865 -6.068 -1.781 0.27
-8.796 -6.061 -1.77 0.24
-8.748 -6.068 -1.764 0.26
-8.688 -6.067 -1.755 0.25
-8.642 -6.075 -1.749 0.26
-8.571 -6.066 -1.738 0.26
-8.518 -6.048 -1.729 0.25
-8.472 -6.056 -1.723 0.24
-8.381 -6.03 -1.707 0.18
-8.359 -6.054 -1.707 0.29
-8.297 -6.049 -1.697 0.24
-8.247 -6.052 -1.69 0.11
-8.215 -6.068 -1.687 0.0
-8.202 -6.079 -1.687 0.05
-9.062 -6.764 -1.882 0.14
-9.016 -6.773 -1.876 0.31
-8.983 -6.793 -1.874 0.33
-8.945 -6.808 -1.87 0.29
-8.895 -6.815 -1.863 0.27
-8.874 -6.843 -1.863 0.22
-8.793 -6.824 -1.85 0.19
-8.717 -6.787 -1.835 0.34
-8.733 -6.844 -1.844 0.47
-8.718 -6.876 -1.845 0.26
-8.722 -6.924 -1.851 0.24
-8.742 -6.985 -1.861 0.34
-8.732 -7.022 -1.863 0.31
-8.718 -7.056 -1.865 0.26
-8.62 -6.999 -1.845 0.29
-8.622 -7.046 -1.851 0.38
-8.642 -7.108 -1.861 0.3
-8.587 -7.107 -1.853 0.29
-8.566 -7.136 -1.853 0.32
-8.552 -7.17 -1.855 0.25
-8.515 -7.184 -1.852 0.45
-8.493 -7.189 -1.849 0.32
-8.577 -7.306 -1.874 0.31
-8.506 -7.292 -1.863 0.27
-8.48 -7.316 -1.862 0.27
-8.423 -7.313 -1.854 0.4
-8.382 -7.324 -1.85 0.36
-8.461 -7.44 -1.874 0.27
-8.456 -7.46 -1.876 0.32
-8.304 -7.371 -1.845 0.27
-8.266 -7.384 -1.842 0.26
-8.193 -7.365 -1.83 0.23
-8.162 -7.384 -1.828 0.25
-8.128 -7.399 -1.825 0.31
-8.117 -7.436 -1.828 0.29
-8.107 -7.45 -1.829 0.2
-8.091 -7.483 -1.831 0.38
-8.085 -7.524 -1.835 0.23
-8.072 -7.56 -1.838 0.34
-8.03 -7.568 -1.833 0.27
-7.953 -7.543 -1.82 0.13
-7.893 -7.532 -1.811 0.18
-7.855 -7.52 -1.805 0.05
-7.819 -7.533 -1.802 0.17
-7.784 -7.546 -1.799 0.2
-7.736 -7.547 -1.793 0.16
-7.701 -7.56 -1.79 0.23
-7.657 -7.564 -1.785 0.18
-7.608 -7.563 -1.778 0.25
-7.531 -7.533 -1.765 0.19
-7.504 -7.53 -1.761 0.24
-7.497 -7.57 -1.766 0.19
-7.455 -7.575 -1.761 0.25
-7.401 -7.568 -1.753 0.19
-7.365 -7.578 -1.75 0.25
-7.311 -7.57 -1.742 0.18
-7.275 -7.58 -1.739 0.25
-7.241 -7.569 -1.734 0.23
-7.2 -7.573 -1.729 0.2
-7.159 -7.577 -1.725 0.25
-7.109 -7.572 -1.718 0.22
-7.073 -7.581 -1.715 0.2
-7.027 -7.579 -1.709 0.25
-6.978 -7.573 -1.702 0.23
-6.935 -7.551 -1.694 0.2
-6.9 -7.56 -1.691 0.25
-6.844 -7.546 -1.683 0.2
-6.81 -7.556 -1.68 0.25
-6.763 -7.551 -1.674 0.2
-6.719 -7.55 -1.668 0.22
-6.679 -7.552 -1.664 0.09
-6.663 -7.558 -1.663 0.0
-6.607 -7.541 -1.654 0.0
-6.571 -7.549 -1.651 0.0
-6.549 -7.571 -1.651 0.0
-6.661 -7.75 -1.688 0.0
-6.879 -8.056 -1.755 0.02
-6.966 -8.212 -1.786 0.14
-6.937 -8.203 -1.781 0.2
-6.876 -8.182 -1.771 0.24
-6.844 -8.196 -1.77 0.42
-6.823 -8.224 -1.771 0.43
-6.773 -8.216 -1.765 0.26
-6.744 -8.233 -1.763 0.31
-6.718 -8.254 -1.763 0.45
-6.694 -8.251 -1.76 0.31
-6.652 -8.252 -1.756 0.26
-6.617 -8.262 -1.753 0.32
-6.601 -8.295 -1.756 0.32
-6.596 -8.342 -1.762 0.44
-6.546 -8.333 -1.755 0.22
-6.518 -8.351 -1.755 0.38
-6.489 -8.341 -1.75 0.35
-6.443 -8.336 -1.745 0.33
-6.405 -8.341 -1.741 0.36
-6.367 -8.345 -1.738 0.33
-6.328 -8.348 -1.734 0.37
-6.286 -8.347 -1.729 0.34
-6.251 -8.354 -1.726 0.32
-6.215 -8.361 -1.724 0.41
-6.191 -8.357 -1.72 0.38
-6.123 -8.319 -1.708 0.21
-6.1 -8.343 -1.709 0.31
-6.059 -8.341 -1.704 0.3
-6.025 -8.349 -1.702 0.34
-5.985 -8.349 -1.698 0.34
-5.957 -8.337 -1.693 0.34
-5.918 -8.338 -1.689 0.34
-5.878 -8.337 -1.685 0.3
-5.844 -8.344 -1.683 0.37
-5.811 -8.353 -1.681 0.34
-5.764 -8.34 -1.674 0.36
-5.726 -8.341 -1.67 0.34
-5.694 -8.35 -1.668 0.35
-5.661 -8.33 -1.662 0.33
-5.628 -8.338 -1.66 0.35
-5.593 -8.342 -1.657 0.35
-5.548 -8.332 -1.651 0.35
-5.519 -8.344 -1.65 0.35
-5.485 -8.35 -1.648 0.36
-5.438 -8.336 -1.641 0.35
-5.421 -8.338 -1.64 0.38
-5.383 -8.337 -1.636 0.31
-5.344 -8.334 -1.632 0.36
-5.31 -8.337 -1.629 0.3
-5.277 -8.344 -1.627 0.36
-5.231 -8.328 -1.62 0.32
-5.206 -8.347 -1.621 0.32
-5.182 -8.338 -1.617 0.32
-5.143 -8.332 -1.613 0.34
-5.118 -8.35 -1.613 0.39
-5.077 -8.343 -1.608 0.3
-5.04 -8.34 -1.604 0.38
-5.021 -8.368 -1.607 0.34
-4.992 -8.38 -1.606 0.33
-4.968 -8.369 -1.602 0.31
-4.943 -8.386 -1.602 0.27
-4.892 -8.359 -1.594 0.3
-4.877 -8.395 -1.598 0.4
-4.862 -8.429 -1.602 0.25
-4.83 -8.436 -1.6 0.3
-4.806 -8.454 -1.601 0.32
-4.791 -8.46 -1.6 0.41
-4.75 -8.449 -1.595 0.31
-4.705 -8.43 -1.588 0.43
-4.679 -8.446 -1.588 0.38
-4.652 -8.459 -1.588 0.35
-4.617 -8.458 -1.585 0.43
-4.586 -8.466 -1.583 0.31
-4.577 -8.48 -1.585 0.49
-4.532 -8.461 -1.578 0.4
-4.522 -8.507 -1.585 0.43
-4.505 -8.538 -1.588 0.34
-4.476 -8.549 -1.587 0.33
-4.438 -8.542 -1.583 0.41
-4.411 -8.554 -1.583 0.38
-4.395 -8.558 -1.582 0.35
-4.368 -8.571 -1.582 0.42
-4.326 -8.555 -1.576 0.34
-4.288 -8.546 -1.572 0.43
-4.26 -8.556 -1.571 0.4
-4.226 -8.555 -1.568 0.39
-4.18 -8.529 -1.56 0.39
-4.173 -8.55 -1.563 0.4
-4.163 -8.597 -1.57 0.39
-4.125 -8.587 -1.565 0.38
-4.101 -8.607 -1.567 0.38
-4.066 -8.603 -1.564 0.4
-4.039 -8.616 -1.564 0.4
-4.0 -8.602 -1.558 0.36
-3.994 -8.624 -1.561 0.39
-3.957 -8.615 -1.557 0.4
-3.903 -8.569 -1.546 0.38
-3.891 -8.613 -1.552 0.3
-3.864 -8.627 -1.552 0.46
-3.828 -8.619 -1.549 0.36
-3.808 -8.646 -1.551 0.38
-3.766 -8.625 -1.545 0.44
-3.731 -8.58 -1.535 0.39
-3.708 -8.601 -1.537 0.33
-3.659 -8.562 -1.527 0.48
-3.627 -8.561 -1.525 0.36
-3.607 -8.588 -1.528 0.41
-3.576 -8.591 -1.526 0.37
-3.553 -8.611 -1.528 0.35
-3.545 -8.629 -1.53 0.45
-3.514 -8.631 -1.529 0.42
-3.488 -8.646 -1.529 0.4
-3.46 -8.655 -1.529 0.34
-3.429 -8.657 -1.527 0.47
-3.406 -8.678 -1.529 0.36
-3.378 -8.685 -1.529 0.34
-3.358 -8.674 -1.525 0.46
-3.329 -8.681 -1.525 0.38
-3.287 -8.653 -1.517 0.4
-3.277 -8.707 -1.526 0.35
-3.244 -8.705 -1.523 0.37
-3.21 -8.696 -1.52 0.41
-3.176 -8.688 -1.516 0.39
-3.161 -8.689 -1.516 0.38
-3.129 -8.684 -1.513 0.37
-3.079 -8.631 -1.501 0.45
-3.04 -8.607 -1.495 0.35
-3.001 -8.581 -1.488 0.43
-2.984 -8.62 -1.494 0.32
-2.939 -8.575 -1.484 0.41
-2.925 -8.58 -1.484 0.45
-2.916 -8.642 -1.493 0.36
-2.891 -8.658 -1.495 0.43
-2.848 -8.62 -1.486 0.32
-2.848 -8.712 -1.501 0.37
-2.81 -8.687 -1.495 0.38
-2.772 -8.662 -1.489 0.45
-2.746 -8.674 -1.489 0.35
-2.735 -8.686 -1.491 0.44
-2.713 -8.713 -1.494 0.34
-2.68 -8.705 -1.491 0.38
-2.658 -8.728 -1.494 0.4
-2.622 -8.71 -1.489 0.33
-2.593 -8.713 -1.488 0.43
-2.588 -8.745 -1.493 0.42
-2.56 -8.753 -1.493 0.34
-2.526 -8.739 -1.489 0.43
-2.48 -8.68 -1.477 0.38
-2.458 -8.707 -1.48 0.35
-2.439 -8.745 -1.486 0.38
-2.396 -8.696 -1.476 0.42
-2.385 -8.709 -1.477 0.36
-2.358 -8.716 -1.477 0.38
-2.33 -8.722 -1.477 0.43
-2.304 -8.737 -1.478 0.36
-2.268 -8.71 -1.472 0.48
-2.25 -8.755 -1.479 0.26
-2.23 -8.79 -1.484 0.44
-2.201 -8.79 -1.483 0.38
-2.18 -8.765 -1.478 0.41
-2.139 -8.716 -1.467 0.38
-2.137 -8.832 -1.487 0.22
-2.098 -8.789 -1.478 0.5
-2.078 -8.83 -1.485 0.45
-2.037 -8.775 -1.473 0.23
-2.014 -8.802 -1.477 0.48
-2.001 -8.809 -1.478 0.29
-1.957 -8.742 -1.465 0.48
-1.941 -8.8 -1.474 0.35
-1.916 -8.818 -1.476 0.45
-1.889 -8.83 -1.477 0.35
-1.858 -8.82 -1.474 0.43
-1.823 -8.791 -1.468 0.43
-1.819 -8.839 -1.476 0.29
-1.793 -8.854 -1.478 0.48
-1.773 -8.902 -1.486 0.32
-1.74 -8.878 -1.48 0.39
-1.707 -8.859 -1.476 0.45
-1.668 -8.802 -1.465 0.39
-1.648 -8.85 -1.472 0.42
-1.636 -8.864 -1.474 0.41
-1.607 -8.861 -1.473 0.4
-1.579 -8.87 -1.474 0.45
-1.543 -8.823 -1.464 0.34
-1.514 -8.824 -1.464 0.38
-1.489 -8.846 -1.467 0.32
-1.459 -8.837 -1.464 0.44
-1.448 -8.853 -1.467 0.42
-1.421 -8.865 -1.468 0.45
-1.39 -8.848 -1.464 0.32
-1.363 -8.86 -1.466 0.48
-1.337 -8.876 -1.468 0.3
-1.304 -8.845 -1.462 0.45
-1.279 -8.869 -1.465 0.34
-1.264 -8.865 -1.464 0.43
-1.23 -8.824 -1.456 0.41
-1.197 -8.787 -1.449 0.36
-1.171 -8.798 -1.45 0.47
-1.145 -8.818 -1.453 0.38
-1.115 -8.802 -1.449 0.48
-1.088 -8.811 -1.45 0.36
-1.079 -8.858 -1.458 0.37
-1.055 -8.886 -1.463 0.45
-1.028 -8.898 -1.464 0.3
-0.99 -8.817 -1.449 0.48
-0.957 -8.769 -1.44 0.36
-0.936 -8.836 -1.452 0.4
-0.913 -8.888 -1.46 0.41
-0.9 -8.894 -1.461 0.32
-0.871 -8.883 -1.459 0.47
-0.843 -8.891 -1.46 0.27
-0.811 -8.849 -1.452 0.54
-0.782 -8.832 -1.448 0.25
-0.756 -8.86 -1.453 0.51
-0.726 -8.827 -1.447 0.36
-0.713 -8.841 -1.449 0.43
-0.683 -8.818 -1.444 0.29
-0.656 -8.826 -1.445 0.43
-0.622 -8.744 -1.43 0.35
-0.594 -8.734 -1.428 0.43
-0.57 -8.787 -1.437 0.33
-0.544 -8.826 -1.444 0.43
-0.526 -8.744 -1.429 0.43
-0.501 -8.791 -1.437 0.29
-0.476 -8.853 -1.448 0.48
-0.449 -8.859 -1.449 0.42
-0.421 -8.874 -1.451 0.48
-0.387 -8.71 -1.422 0.26
-0.362 -8.784 -1.435 0.48
-0.344 -8.68 -1.416 0.33
-0.322 -8.811 -1.44 0.32
-0.291 -8.729 -1.425 0.42
-0.265 -8.76 -1.43 0.37
-0.238 -8.812 -1.439 0.43
-0.212 -8.854 -1.447 0.42
-0.184 -8.85 -1.446 0.35
-0.17 -8.861 -1.448 0.46
-0.142 -8.841 -1.444 0.34
-0.114 -8.858 -1.447 0.41
-0.086 -8.826 -1.441 0.37
-0.059 -8.834 -1.443 0.34
-0.031 -8.791 -1.435 0.43
-0.003 -8.77 -1.431 0.45
0.024 -8.685 -1.416 0.36
0.037 -8.681 -1.415 0.34
0.064 -8.649 -1.41 0.46
0.092 -8.677 -1.415 0.36
0.118 -8.633 -1.407 0.44
0.143 -8.499 -1.383 0.38
0.171 -8.553 -1.393 0.41
0.199 -8.614 -1.404 0.38
0.215 -8.684 -1.416 0.4
0.239 -8.587 -1.399 0.45
0.266 -8.569 -1.396 0.36
0.294 -8.609 -1.404 0.41
0.326 -8.73 -1.425 0.39
0.356 -8.79 -1.436 0.41
0.383 -8.767 -1.432 0.4
0.392 -8.676 -1.416 0.45
0.423 -8.75 -1.429 0.36
0.445 -8.646 -1.411 0.37
0.478 -8.751 -1.43 0.37
0.508 -8.779 -1.435 0.42
0.537 -8.803 -1.44 0.38
0.564 -8.797 -1.439 0.43
0.57 -8.684 -1.419 0.38
0.596 -8.661 -1.415 0.4
0.629 -8.739 -1.43 0.34
0.658 -8.749 -1.432 0.45
0.686 -8.755 -1.433 0.29
0.712 -8.733 -1.43 0.5
0.741 -8.748 -1.433 0.35
0.754 -8.741 -1.432 0.45
0.784 -8.77 -1.437 0.34
0.807 -8.715 -1.428 0.41
0.839 -8.759 -1.436 0.41
0.872 -8.817 -1.447 0.43
0.901 -8.822 -1.449 0.36
0.919 -8.729 -1.433 0.42
0.938 -8.773 -1.441 0.36
0.963 -8.748 -1.437 0.38
0.986 -8.712 -1.431 0.38
1.016 -8.732 -1.435 0.32
1.046 -8.743 -1.437 0.44
1.075 -8.759 -1.441 0.41
1.098 -8.72 -1.435 0.33
1.112 -8.715 -1.434 0.42
1.139 -8.709 -1.434 0.38
1.162 -8.676 -1.428 0.39
1.191 -8.682 -1.43 0.39
1.212 -8.638 -1.423 0.42
1.243 -8.659 -1.427 0.38
1.272 -8.671 -1.43 0.45
1.288 -8.681 -1.432 0.41
1.316 -8.684 -1.434 0.38
1.345 -8.688 -1.435 0.37
1.361 -8.617 -1.423 0.38
1.397 -8.664 -1.432 0.38
1.428 -8.684 -1.437 0.34
1.458 -8.692 -1.439 0.43
1.473 -8.699 -1.441 0.41
1.51 -8.751 -1.451 0.38
1.532 -8.713 -1.445 0.43
1.556 -8.692 -1.442 0.32
1.589 -8.717 -1.447 0.49
1.622 -8.741 -1.452 0.3
1.637 -8.672 -1.441 0.48
1.658 -8.708 -1.448 0.25
1.682 -8.685 -1.445 0.52
1.708 -8.676 -1.444 0.3
1.731 -8.645 -1.44 0.49
1.755 -8.624 -1.437 0.31
1.788 -8.65 -1.442 0.48
1.809 -8.613 -1.437 0.33
1.82 -8.599 -1.435 0.45
1.847 -8.593 -1.435 0.4
1.873 -8.585 -1.434 0.33
1.904 -8.595 -1.437 0.46
1.939 -8.623 -1.443 0.4
1.97 -8.636 -1.447 0.37
1.995 -8.621 -1.445 0.42
2.006 -8.608 -1.443 0.41
2.037 -8.615 -1.446 0.4
2.065 -8.614 -1.447 0.32
2.091 -8.604 -1.446 0.46
2.122 -8.614 -1.449 0.43
2.152 -8.617 -1.451 0.36
2.179 -8.612 -1.451 0.37
2.206 -8.605 -1.451 0.32
2.218 -8.592 -1.45 0.46
2.258 -8.635 -1.459 0.34
2.282 -8.616 -1.457 0.4
2.315 -8.634 -1.461 0.35
2.34 -8.619 -1.46 0.35
2.367 -8.61 -1.459 0.48
2.398 -8.615 -1.462 0.36
2.417 -8.633 -1.466 0.43
2.432 -8.581 -1.458 0.36
2.452 -8.549 -1.453 0.45
2.486 -8.568 -1.458 0.35
2.515 -8.566 -1.459 0.38
2.542 -8.558 -1.459 0.39
2.56 -8.569 -1.462 0.45
2.585 -8.555 -1.461 0.32
2.612 -8.547 -1.461 0.44
2.65 -8.574 -1.467 0.41
2.669 -8.542 -1.463 0.4
2.707 -8.569 -1.47 0.4
2.735 -8.562 -1.47 0.37
2.76 -8.55 -1.469 0.42
2.773 -8.544 -1.469 0.36
2.804 -8.548 -1.471 0.34
2.82 -8.505 -1.465 0.43
2.843 -8.487 -1.463 0.41
2.885 -8.521 -1.471 0.43
2.921 -8.54 -1.477 0.29
2.948 -8.531 -1.477 0.46
2.967 -8.543 -1.48 0.39
2.985 -8.509 -1.475 0.4
3.008 -8.489 -1.473 0.3
3.047 -8.513 -1.479 0.46
3.089 -8.544 -1.487 0.36
3.11 -8.519 -1.484 0.37
3.13 -8.493 -1.481 0.38
3.144 -8.488 -1.481 0.39
3.152 -8.428 -1.472 0.46
3.184 -8.435 -1.475 0.36
3.211 -8.425 -1.475 0.3
3.237 -8.413 -1.474 0.36
3.264 -8.404 -1.475 0.47
3.287 -8.385 -1.473 0.3
3.288 -8.35 -1.467 0.38
3.324 -8.364 -1.472 0.31
3.355 -8.366 -1.474 0.36
3.382 -8.355 -1.474 0.35
3.412 -8.356 -1.477 0.34
3.446 -8.363 -1.48 0.34
3.472 -8.35 -1.48 0.36
3.488 -8.354 -1.481 0.35
3.522 -8.361 -1.485 0.35
3.546 -8.345 -1.484 0.35
3.583 -8.357 -1.488 0.33
3.613 -8.355 -1.49 0.33
3.644 -8.354 -1.492 0.3
3.676 -8.355 -1.495 0.34
3.694 -8.362 -1.497 0.36
3.723 -8.356 -1.498 0.38
3.754 -8.355 -1.5 0.32
3.789 -8.361 -1.504 0.37
3.815 -8.349 -1.504 0.35
3.848 -8.351 -1.507 0.33
3.872 -8.336 -1.506 0.38
3.893 -8.346 -1.509 0.36
3.918 -8.331 -1.509 0.36
3.948 -8.326 -1.51 0.32
3.953 -8.271 -1.502 0.34
3.998 -8.298 -1.509 0.39
4.062 -8.363 -1.525 0.35
4.09 -8.354 -1.525 0.33
4.111 -8.363 -1.529 0.35
4.146 -8.368 -1.532 0.36
4.173 -8.355 -1.532 0.34
4.206 -8.356 -1.535 0.36
4.246 -8.369 -1.54 0.33
4.275 -8.361 -1.541 0.36
4.306 -8.358 -1.543 0.35
4.327 -8.365 -1.546 0.31
4.356 -8.356 -1.547 0.39
4.381 -8.341 -1.547 0.32
4.426 -8.362 -1.554 0.32
4.447 -8.339 -1.552 0.35
4.476 -8.33 -1.553 0.31
4.518 -8.346 -1.559 0.36
4.534 -8.344 -1.56 0.32
4.566 -8.34 -1.562 0.4
4.593 -8.325 -1.562 0.44
4.6 -8.278 -1.556 0.23
4.643 -8.293 -1.561 0.44
4.67 -8.28 -1.562 0.32
4.688 -8.252 -1.559 0.29
4.739 -8.281 -1.568 0.41
4.757 -8.282 -1.57 0.36
4.782 -8.266 -1.57 0.23
4.8 -8.237 -1.567 0.46
4.86 -8.28 -1.579 0.36
4.892 -8.274 -1.581 0.45
4.904 -8.235 -1.576 0.34
4.94 -8.237 -1.579 0.45
4.969 -8.256 -1.585 0.34
4.999 -8.247 -1.586 0.29
5.022 -8.226 -1.585 0.33
5.063 -8.236 -1.59 0.37
5.072 -8.191 -1.585 0.34
5.096 -8.174 -1.584 0.13
5.124 -8.189 -1.589 0.0
5.082 -8.066 -1.567 0.0
4.968 -7.831 -1.521 0.0
4.878 -7.638 -1.483 0.0
4.882 -7.591 -1.477 0.03
4.905 -7.574 -1.476 0.03
4.936 -7.57 -1.479 0.07
4.968 -7.594 -1.485 0.15
4.994 -7.582 -1.486 0.21
5.025 -7.576 -1.488 0.18
5.062 -7.58 -1.492 0.25
5.094 -7.577 -1.495 0.2
5.129 -7.577 -1.499 0.25
5.17 -7.585 -1.504 0.23
5.193 -7.593 -1.507 0.18
5.239 -7.609 -1.514 0.27
5.271 -7.604 -1.517 0.25
5.297 -7.591 -1.517 0.27
5.332 -7.59 -1.521 0.28
5.372 -7.596 -1.526 0.26
5.407 -7.595 -1.529 0.25
5.451 -7.605 -1.535 0.25
5.464 -7.598 -1.536 0.18
5.512 -7.614 -1.543 0.29
5.537 -7.598 -1.543 0.25
5.576 -7.602 -1.548 0.24
5.603 -7.589 -1.549 0.17
5.648 -7.6 -1.555 0.28
5.684 -7.597 -1.559 0.23
5.684 -7.573 -1.555 0.18
5.708 -7.555 -1.555 0.26
5.767 -7.584 -1.566 0.23
5.809 -7.589 -1.571 0.19
5.851 -7.594 -1.576 0.26
5.886 -7.59 -1.579 0.21
5.922 -7.587 -1.583 0.12
5.933 -7.576 -1.582 0.2
5.975 -7.58 -1.588 0.11
5.997 -7.56 -1.587 0.2
6.052 -7.58 -1.596 0.18
6.095 -7.585 -1.602 0.14
6.102 -7.544 -1.597 0.21
6.122 -7.521 -1.596 0.11
6.135 -7.513 -1.596 0.21
6.145 -7.476 -1.592 0.21
6.023 -7.283 -1.552 0.25
5.985 -7.192 -1.535 0.23
6.007 -7.171 -1.535 0.32
5.999 -7.116 -1.527 0.28
6.025 -7.102 -1.528 0.33
6.056 -7.116 -1.533 0.32
6.094 -7.115 -1.537 0.32
6.131 -7.112 -1.541 0.3
6.17 -7.112 -1.546 0.3
6.21 -7.114 -1.551 0.32
6.248 -7.112 -1.555 0.32
6.286 -7.11 -1.559 0.27
6.477 -7.301 -1.607 0.2
6.505 -7.287 -1.608 0.43
6.556 -7.297 -1.616 0.4
6.583 -7.281 -1.617 0.38
6.567 -7.218 -1.607 0.25
6.58 -7.187 -1.604 0.35
6.615 -7.179 -1.607 0.34
6.615 -7.157 -1.604 0.28
6.645 -7.144 -1.606 0.2
6.676 -7.133 -1.609 0.41
6.674 -7.086 -1.602 0.49
6.687 -7.055 -1.6 0.25
6.704 -7.028 -1.599 0.34
6.76 -7.043 -1.607 0.33
6.755 -7.015 -1.603 0.31
6.789 -7.007 -1.606 0.36
6.803 -6.977 -1.604 0.32
6.8 -6.93 -1.598 0.35
6.833 -6.92 -1.601 0.31
6.875 -6.919 -1.606 0.3
6.897 -6.898 -1.606 0.4
6.894 -6.873 -1.602 0.27
6.957 -6.893 -1.613 0.25
6.952 -6.845 -1.606 0.39
6.961 -6.811 -1.603 0.37
7.021 -6.826 -1.613 0.39
7.043 -6.805 -1.613 0.33
7.082 -6.799 -1.617 0.0
7.018 -6.717 -1.599 0.0
6.457 -6.144 -1.457 0.11
6.443 -6.093 -1.449 0.19
6.493 -6.101 -1.456 0.22
6.518 -6.086 -1.457 0.27
6.554 -6.081 -1.462 0.29
6.598 -6.083 -1.467 0.31
6.635 -6.098 -1.474 0.32
6.666 -6.088 -1.477 0.29
6.72 -6.099 -1.485 0.29
6.774 -6.109 -1.494 0.29
6.82 -6.111 -1.5 0.29
6.857 -6.106 -1.504 0.3
6.917 -6.12 -1.514 0.32
6.954 -6.114 -1.518 0.29
6.986 -6.123 -1.523 0.29
7.028 -6.12 -1.529 0.29
7.071 -6.119 -1.534 0.28
7.117 -6.119 -1.541 0.27
7.147 -6.106 -1.543 0.3
7.182 -6.097 -1.547 0.29
7.202 -6.095 -1.549 0.28
7.164 -6.024 -1.536 0.27
7.227 -6.038 -1.546 0.28
7.308 -6.067 -1.56 0.26
7.358 -6.069 -1.567 0.25
7.409 -6.072 -1.575 0.23
7.481 -6.092 -1.587 0.24
7.517 -6.082 -1.591 0.28
7.574 -6.108 -1.602 0.29
7.498 -6.008 -1.58 0.43
7.634 -6.078 -1.607 0.39
7.656 -6.056 -1.607 0.31
7.669 -6.027 -1.606 0.35
7.571 -5.913 -1.58 0.29
7.568 -5.891 -1.577 0.26
7.581 -5.862 -1.575 0.19
7.701 -5.916 -1.598 0.25
7.716 -5.89 -1.597 0.42
7.744 -5.873 -1.6 0.46
7.72 -5.816 -1.59 0.31
7.68 -5.749 -1.577 0.24
7.709 -5.733 -1.58 0.27
7.732 -5.731 -1.583 0.29
7.705 -5.674 -1.573 0.19
7.73 -5.654 -1.574 0.35
7.763 -5.642 -1.578 0.33
7.807 -5.636 -1.583 0.29
7.826 -5.612 -1.584 0.36
7.803 -5.559 -1.575 0.25
7.838 -5.565 -1.581 0.41
7.771 -5.482 -1.563 0.3
7.813 -5.474 -1.568 0.3
7.838 -5.455 -1.57 0.37
7.829 -5.413 -1.564 0.3
7.895 -5.421 -1.574 0.36
7.886 -5.379 -1.569 0.3
7.889 -5.363 -1.568 0.3
7.931 -5.355 -1.573 0.26
7.98 -5.352 -1.58 0.31
8.005 -5.332 -1.582 0.39
8.01 -5.299 -1.579 0.29
7.992 -5.251 -1.572 0.31
8.025 -5.237 -1.575 0.27
8.044 -5.231 -1.578 0.36
8.101 -5.232 -1.586 0.36
8.146 -5.225 -1.592 0.34
8.141 -5.185 -1.588 0.32
8.167 -5.166 -1.59 0.33
8.195 -5.148 -1.592 0.29
8.244 -5.143 -1.599 0.21
8.254 -5.131 -1.6 0.44
8.29 -5.117 -1.604 0.38
8.298 -5.086 -1.602 0.34
8.317 -5.062 -1.603 0.34
8.382 -5.065 -1.613 0.36
8.391 -5.035 -1.611 0.23
8.443 -5.029 -1.619 0.36
8.345 -4.954 -1.597 0.0
8.412 -4.958 -1.608 0.0
8.114 -4.749 -1.543 0.0
7.841 -4.557 -1.484 0.0
7.872 -4.542 -1.488 0.05
7.919 -4.536 -1.494 0.14
7.986 -4.541 -1.505 0.23
8.047 -4.559 -1.516 0.25
8.125 -4.569 -1.529 0.27
8.192 -4.573 -1.54 0.27
8.25 -4.571 -1.549 0.27
8.297 -4.563 -1.555 0.21
8.382 -4.575 -1.57 0.28
8.422 -4.563 -1.575 0.23
8.47 -4.571 -1.583 0.15
8.409 -4.505 -1.568 0.3
8.505 -4.521 -1.584 0.22
8.606 -4.54 -1.602 0.22
8.643 -4.525 -1.606 0.16
8.75 -4.546 -1.625 0.28
8.764 -4.518 -1.625 0.24
8.765 -4.501 -1.623 0.29
8.794 -4.481 -1.626 0.27
8.8 -4.449 -1.625 0.29
8.798 -4.414 -1.622 0.29
8.827 -4.394 -1.625 0.25
8.864 -4.377 -1.629 0.29
8.85 -4.336 -1.624 0.26
8.855 -4.321 -1.623 0.2
8.946 -4.331 -1.639 0.32
8.958 -4.302 -1.638 0.28
8.941 -4.259 -1.632 0.28
8.951 -4.23 -1.632 0.31
8.987 -4.212 -1.636 0.28
8.979 -4.174 -1.632 0.32
8.98 -4.157 -1.631 0.2
9.015 -4.139 -1.635 0.28
9.026 -4.11 -1.635 0.25
9.035 -4.08 -1.634 0.2
9.059 -4.056 -1.636 0.27
9.084 -4.033 -1.639 0.25
9.108 -4.01 -1.641 0.25
9.128 -4.002 -1.644 0.27
9.139 -3.972 -1.643 0.29
