# .PCD v.7 - Point Cloud Data file format
VERSION .7
FIELDS x y z intensity
SIZE 4 4 4 4
TYPE F F F F
COUNT 1 1 1 1
WIDTH 1959
HEIGHT 1
VIEWPOINT 0 0 0 1 0 0 0
POINTS 1959
DATA ascii
-8.141 -2.845 -1.945 0.0
-8.128 -2.869 -1.944 0.0
-8.129 -2.898 -1.947 0.0
-8.128 -2.912 -1.948 0.0
-8.122 -2.939 -1.949 0.0
-8.106 -2.962 -1.947 0.0
-8.136 -3.002 -1.957 0.0
-8.11 -3.021 -1.953 0.0
-7.961 -2.994 -1.917 0.0
-7.913 -3.005 -1.907 0.0
-7.915 -3.02 -1.909 0.0
-7.89 -3.039 -1.905 0.0
-7.809 -3.036 -1.887 0.0
-7.734 -3.035 -1.87 0.0
-7.66 -3.034 -1.853 0.06
-7.623 -3.047 -1.846 0.14
-7.548 -3.045 -1.829 0.16
-7.437 -3.014 -1.802 0.16
-7.35 -3.006 -1.782 0.04
-7.303 -3.014 -1.772 0.0
-7.241 -3.015 -1.758 0.0
-7.215 -3.031 -1.754 0.0
-7.893 -3.372 -1.936 0.17
-7.905 -3.392 -1.94 0.18
-7.923 -3.429 -1.948 0.27
-7.88 -3.44 -1.939 0.22
-7.928 -3.49 -1.955 0.26
-7.981 -3.543 -1.971 0.31
-7.931 -3.551 -1.961 0.3
-7.885 -3.56 -1.952 0.27
-7.877 -3.572 -1.951 0.29
-7.884 -3.604 -1.956 0.3
-7.865 -3.626 -1.954 0.29
-7.873 -3.66 -1.959 0.32
-7.848 -3.678 -1.956 0.29
-7.818 -3.694 -1.951 0.3
-7.815 -3.723 -1.953 0.28
-7.816 -3.753 -1.957 0.29
-7.8 -3.76 -1.954 0.27
-7.789 -3.786 -1.954 0.28
-7.779 -3.811 -1.955 0.24
-7.769 -3.836 -1.955 0.3
-7.75 -3.857 -1.953 0.43
-7.715 -3.87 -1.947 0.35
-7.717 -3.902 -1.951 0.31
-7.712 -3.915 -1.951 0.32
-7.672 -3.925 -1.944 0.3
-7.672 -3.955 -1.947 0.29
-7.675 -3.987 -1.951 0.27
-7.658 -4.008 -1.95 0.3
-7.626 -4.023 -1.945 0.28
-7.558 -4.017 -1.93 0.18
-7.573 -4.04 -1.936 0.27
-7.537 -4.052 -1.929 0.23
-7.516 -4.071 -1.927 0.2
-7.526 -4.107 -1.933 0.24
-7.499 -4.123 -1.929 0.21
-7.472 -4.139 -1.926 0.29
-7.452 -4.159 -1.924 0.27
-7.456 -4.176 -1.927 0.2
-7.455 -4.206 -1.93 0.24
-7.445 -4.231 -1.931 0.24
-7.437 -4.258 -1.932 0.18
-7.422 -4.28 -1.932 0.26
-7.378 -4.286 -1.923 0.25
-7.374 -4.315 -1.926 0.27
-7.363 -4.324 -1.925 0.3
-7.327 -4.334 -1.919 0.21
-7.347 -4.377 -1.928 0.24
-7.322 -4.393 -1.925 0.2
-7.276 -4.397 -1.916 0.23
-7.244 -4.408 -1.911 0.18
-7.303 -4.476 -1.931 0.25
-7.255 -4.462 -1.92 0.21
-7.216 -4.469 -1.913 0.16
-7.259 -4.528 -1.929 0.32
-7.166 -4.501 -1.907 0.23
-7.111 -4.498 -1.895 0.2
-7.085 -4.513 -1.892 0.1
-7.041 -4.516 -1.883 0.17
-7.002 -4.523 -1.876 0.21
-6.976 -4.521 -1.871 0.19
-6.942 -4.53 -1.865 0.23
-6.913 -4.542 -1.861 0.19
-6.881 -4.552 -1.856 0.23
-6.818 -4.542 -1.842 0.2
-6.781 -4.548 -1.835 0.12
-6.731 -4.546 -1.825 0.21
-6.695 -4.537 -1.817 0.2
-6.653 -4.539 -1.809 0.25
-6.613 -4.542 -1.801 0.21
-6.549 -4.529 -1.787 0.12
-6.492 -4.52 -1.774 0.18
-6.445 -4.518 -1.765 0.05
-6.391 -4.51 -1.753 0.0
-6.36 -4.503 -1.746 0.0
-6.326 -4.509 -1.74 0.0
-6.288 -4.512 -1.733 0.0
-6.827 -5.027 -1.91 0.23
-6.811 -5.032 -1.908 0.38
-6.77 -5.035 -1.901 0.3
-6.736 -5.042 -1.895 0.37
-6.69 -5.041 -1.886 0.34
-6.67 -5.058 -1.885 0.37
-6.668 -5.09 -1.889 0.35
-6.647 -5.107 -1.888 0.23
-6.634 -5.114 -1.886 0.31
-6.612 -5.13 -1.884 0.27
-6.595 -5.15 -1.884 0.38
-6.546 -5.145 -1.874 0.29
-6.539 -5.173 -1.877 0.32
-6.5 -5.175 -1.87 0.31
-6.453 -5.172 -1.86 0.33
-6.45 -5.185 -1.862 0.3
-6.427 -5.201 -1.86 0.27
-6.397 -5.21 -1.856 0.23
-6.401 -5.246 -1.862 0.23
-6.36 -5.246 -1.854 0.34
-6.333 -5.258 -1.851 0.41
-6.28 -5.248 -1.84 0.25
-6.261 -5.265 -1.839 0.28
-6.265 -5.285 -1.843 0.38
-6.236 -5.294 -1.839 0.29
-6.233 -5.325 -1.843 0.29
-6.22 -5.349 -1.845 0.32
-6.184 -5.352 -1.839 0.32
-6.153 -5.358 -1.834 0.39
-6.18 -5.416 -1.848 0.32
-6.173 -5.427 -1.848 0.29
-6.14 -5.432 -1.843 0.22
-6.117 -5.446 -1.841 0.27
-6.092 -5.459 -1.839 0.53
-6.08 -5.482 -1.84 0.33
-6.047 -5.487 -1.835 0.33
-6.047 -5.521 -1.841 0.3
-6.026 -5.52 -1.837 0.26
-6.036 -5.564 -1.846 0.37
-6.004 -5.57 -1.841 0.35
-5.97 -5.573 -1.836 0.34
-5.955 -5.594 -1.837 0.34
-6.004 -5.676 -1.859 0.27
-5.99 -5.698 -1.86 0.26
-6.004 -5.729 -1.867 0.33
-5.955 -5.719 -1.857 0.27
-5.951 -5.751 -1.862 0.36
-5.944 -5.78 -1.866 0.3
-5.9 -5.773 -1.857 0.25
-5.879 -5.789 -1.856 0.27
-5.824 -5.772 -1.844 0.25
-5.795 -5.76 -1.837 0.18
-5.79 -5.792 -1.841 0.26
-5.753 -5.791 -1.835 0.22
-5.735 -5.809 -1.835 0.18
-5.729 -5.84 -1.839 0.26
-5.695 -5.842 -1.834 0.23
-5.686 -5.87 -1.837 0.25
-5.68 -5.882 -1.838 0.25
-5.684 -5.923 -1.846 0.14
-5.653 -5.929 -1.842 0.42
-5.64 -5.952 -1.844 0.54
-5.654 -6.003 -1.855 0.31
-5.656 -6.044 -1.862 0.28
-5.65 -6.076 -1.867 0.29
-5.639 -6.102 -1.87 0.27
-5.634 -6.115 -1.871 0.21
-5.617 -6.136 -1.872 0.13
-5.574 -6.127 -1.864 0.21
-5.509 -6.095 -1.847 0.28
-5.441 -6.059 -1.83 0.22
-5.396 -6.047 -1.821 0.25
-5.353 -6.036 -1.812 0.2
-5.347 -6.049 -1.813 0.12
-5.308 -6.042 -1.806 0.21
-5.272 -6.04 -1.8 0.18
-5.259 -6.064 -1.802 0.26
-5.213 -6.049 -1.792 0.24
-5.156 -6.022 -1.778 0.21
-5.128 -6.027 -1.775 0.24
-5.113 -6.028 -1.773 0.24
-5.114 -6.068 -1.78 0.2
-5.092 -6.081 -1.779 0.27
-5.058 -6.079 -1.774 0.25
-5.019 -6.071 -1.766 0.26
-5.004 -6.091 -1.768 0.26
-4.952 -6.068 -1.756 0.16
-4.947 -6.08 -1.757 0.28
-4.918 -6.083 -1.753 0.25
-4.87 -6.064 -1.742 0.27
-4.843 -6.069 -1.739 0.29
-4.83 -6.091 -1.742 0.27
-4.791 -6.082 -1.734 0.27
-4.765 -6.088 -1.731 0.29
-4.746 -6.083 -1.728 0.28
-4.713 -6.081 -1.722 0.27
-4.681 -6.079 -1.717 0.29
-4.649 -6.077 -1.712 0.3
-4.615 -6.071 -1.706 0.29
-4.583 -6.069 -1.701 0.27
-4.551 -6.066 -1.696 0.28
-4.526 -6.053 -1.69 0.28
-4.51 -6.072 -1.691 0.26
-4.47 -6.058 -1.683 0.27
-4.442 -6.06 -1.679 0.29
-4.417 -6.066 -1.677 0.28
-4.383 -6.059 -1.671 0.27
-4.34 -6.04 -1.661 0.22
-4.326 -6.06 -1.663 0.28
-4.301 -6.046 -1.657 0.23
-4.285 -6.063 -1.658 0.11
-4.27 -6.082 -1.659 0.0
-4.229 -6.064 -1.65 0.0
-4.249 -6.133 -1.666 0.0
-4.495 -6.53 -1.778 0.02
-4.599 -6.725 -1.831 0.16
-4.615 -6.771 -1.842 0.23
-4.582 -6.767 -1.837 0.27
-4.544 -6.758 -1.83 0.24
-4.524 -6.773 -1.831 0.27
-4.501 -6.784 -1.83 0.39
-4.477 -6.795 -1.829 0.32
-4.473 -6.835 -1.836 0.39
-4.474 -6.86 -1.841 0.46
-4.429 -6.838 -1.831 0.36
-4.391 -6.828 -1.824 0.28
-4.367 -6.837 -1.823 0.27
-4.348 -6.855 -1.824 0.27
-4.322 -6.861 -1.822 0.27
-4.298 -6.871 -1.821 0.28
-4.281 -6.868 -1.818 0.27
-4.26 -6.883 -1.818 0.31
-4.253 -6.919 -1.825 0.32
-4.245 -6.954 -1.831 0.27
-4.222 -6.966 -1.831 0.37
-4.207 -6.991 -1.834 0.32
-4.188 -7.009 -1.835 0.44
-4.174 -7.01 -1.834 0.35
-4.149 -7.019 -1.832 0.3
-4.089 -6.968 -1.815 0.38
-4.103 -7.041 -1.832 0.29
-4.086 -7.062 -1.834 0.41
-4.05 -7.052 -1.827 0.34
-4.002 -7.02 -1.815 0.28
-4.003 -7.047 -1.821 0.24
-3.976 -7.051 -1.818 0.36
-3.958 -7.07 -1.82 0.31
-3.924 -7.062 -1.815 0.33
-3.894 -7.061 -1.811 0.36
-3.872 -7.073 -1.811 0.32
-3.837 -7.061 -1.804 0.34
-3.851 -7.114 -1.817 0.41
-3.814 -7.1 -1.81 0.29
-3.791 -7.11 -1.81 0.36
-3.783 -7.148 -1.817 0.38
-3.75 -7.141 -1.811 0.31
-3.723 -7.144 -1.809 0.3
-3.691 -7.137 -1.804 0.28
-3.678 -7.139 -1.803 0.27
-3.653 -7.145 -1.802 0.27
-3.63 -7.157 -1.802 0.26
-3.614 -7.18 -1.805 0.26
-3.588 -7.185 -1.803 0.27
-3.571 -7.208 -1.806 0.29
-3.562 -7.247 -1.814 0.3
-3.554 -7.258 -1.815 0.31
-3.521 -7.25 -1.81 0.29
-3.504 -7.271 -1.813 0.29
-3.471 -7.261 -1.807 0.28
-3.461 -7.3 -1.815 0.37
-3.417 -7.265 -1.803 0.23
-3.389 -7.266 -1.8 0.33
-3.386 -7.288 -1.804 0.31
-3.377 -7.329 -1.812 0.35
-3.337 -7.303 -1.803 0.25
-3.311 -7.308 -1.801 0.31
-3.295 -7.334 -1.805 0.33
-3.272 -7.342 -1.805 0.26
-3.241 -7.337 -1.801 0.29
-3.218 -7.345 -1.8 0.32
-3.195 -7.325 -1.794 0.26
-3.171 -7.333 -1.793 0.3
-3.147 -7.34 -1.792 0.32
-3.124 -7.351 -1.793 0.31
-3.109 -7.379 -1.797 0.28
-3.078 -7.371 -1.793 0.29
-3.052 -7.373 -1.791 0.24
-3.032 -7.358 -1.786 0.28
-3.012 -7.375 -1.788 0.36
-2.99 -7.388 -1.789 0.27
-2.959 -7.378 -1.784 0.28
-2.931 -7.374 -1.78 0.28
-2.902 -7.371 -1.777 0.28
-2.884 -7.391 -1.78 0.27
-2.871 -7.393 -1.779 0.27
-2.847 -7.399 -1.778 0.28
-2.825 -7.411 -1.779 0.27
-2.811 -7.446 -1.786 0.3
-2.784 -7.444 -1.783 0.27
-2.765 -7.465 -1.786 0.34
-2.74 -7.47 -1.785 0.36
-2.724 -7.463 -1.783 0.27
-2.698 -7.463 -1.78 0.25
-2.674 -7.471 -1.78 0.3
-2.653 -7.485 -1.782 0.26
-2.645 -7.537 -1.793 0.29
-2.614 -7.525 -1.788 0.29
-2.592 -7.537 -1.789 0.39
-2.583 -7.55 -1.791 0.26
-2.545 -7.518 -1.781 0.27
-2.533 -7.559 -1.789 0.3
-2.504 -7.551 -1.785 0.35
-2.479 -7.555 -1.784 0.35
-2.449 -7.546 -1.78 0.28
-2.434 -7.577 -1.786 0.32
-2.407 -7.576 -1.784 0.34
-2.395 -7.58 -1.784 0.29
-2.36 -7.552 -1.775 0.33
-2.328 -7.533 -1.768 0.26
-2.29 -7.494 -1.756 0.18
-2.259 -7.477 -1.75 0.45
-2.233 -7.477 -1.749 0.24
-2.206 -7.472 -1.746 0.2
-2.197 -7.483 -1.748 0.28
-2.169 -7.475 -1.744 0.25
-2.145 -7.482 -1.744 0.19
-2.13 -7.517 -1.751 0.26
-2.104 -7.516 -1.749 0.23
-2.085 -7.538 -1.753 0.25
-2.071 -7.535 -1.751 0.12
-2.045 -7.532 -1.749 0.21
-2.021 -7.539 -1.749 0.11
-1.994 -7.53 -1.745 0.2
-1.973 -7.546 -1.748 0.11
-1.945 -7.539 -1.744 0.19
-1.923 -7.55 -1.746 0.11
-1.897 -7.545 -1.743 0.19
-1.882 -7.539 -1.741 0.11
-1.857 -7.539 -1.739 0.19
-1.833 -7.543 -1.739 0.11
-1.808 -7.541 -1.737 0.19
-1.786 -7.556 -1.739 0.11
-1.761 -7.556 -1.738 0.18
-1.736 -7.554 -1.736 0.22
-1.721 -7.547 -1.734 0.18
-1.7 -7.564 -1.736 0.23
-1.674 -7.556 -1.733 0.19
-1.648 -7.551 -1.731 0.23
-1.624 -7.559 -1.731 0.18
-1.601 -7.567 -1.732 0.24
-1.575 -7.559 -1.729 0.18
-1.563 -7.563 -1.729 0.24
-1.532 -7.532 -1.721 0.23
-1.503 -7.51 -1.714 0.2
-1.483 -7.532 -1.718 0.25
-1.452 -7.502 -1.71 0.25
-1.429 -7.507 -1.71 0.21
-1.414 -7.555 -1.721 0.25
-1.396 -7.525 -1.713 0.19
-1.377 -7.556 -1.719 0.25
-1.357 -7.58 -1.724 0.23
-1.328 -7.559 -1.718 0.19
-1.307 -7.574 -1.721 0.27
-1.28 -7.563 -1.717 0.25
-1.255 -7.558 -1.714 0.2
-1.246 -7.579 -1.719 0.27
-1.218 -7.558 -1.713 0.24
-1.194 -7.558 -1.712 0.2
-1.171 -7.567 -1.714 0.27
-1.15 -7.586 -1.717 0.24
-1.124 -7.576 -1.714 0.19
-1.101 -7.586 -1.715 0.27
-1.087 -7.578 -1.713 0.25
-1.063 -7.577 -1.712 0.24
-1.037 -7.565 -1.708 0.21
-1.014 -7.576 -1.71 0.26
-0.99 -7.575 -1.709 0.25
-0.965 -7.571 -1.707 0.25
-0.941 -7.57 -1.707 0.21
-0.93 -7.581 -1.709 0.27
-0.905 -7.572 -1.706 0.25
-0.881 -7.573 -1.706 0.2
-0.858 -7.578 -1.706 0.27
-0.833 -7.571 -1.704 0.25
-0.809 -7.571 -1.703 0.26
-0.784 -7.57 -1.702 0.2
-0.773 -7.577 -1.704 0.27
-0.748 -7.57 -1.701 0.25
-0.722 -7.543 -1.694 0.18
-0.701 -7.576 -1.702 0.26
-0.675 -7.551 -1.695 0.25
-0.647 -7.513 -1.686 0.19
-0.629 -7.573 -1.7 0.27
-0.603 -7.553 -1.694 0.23
-0.592 -7.562 -1.696 0.2
-0.569 -7.581 -1.7 0.27
-0.546 -7.581 -1.7 0.25
-0.521 -7.579 -1.699 0.26
-0.498 -7.584 -1.7 0.26
-0.473 -7.576 -1.698 0.21
-0.45 -7.584 -1.699 0.28
-0.437 -7.573 -1.696 0.25
-0.414 -7.576 -1.697 0.26
-0.389 -7.562 -1.693 0.26
-0.366 -7.573 -1.695 0.26
-0.342 -7.583 -1.698 0.26
-0.318 -7.575 -1.695 0.26
-0.294 -7.578 -1.696 0.25
-0.282 -7.566 -1.693 0.2
-0.259 -7.591 -1.699 0.27
-0.235 -7.568 -1.693 0.25
-0.21 -7.559 -1.691 0.2
-0.187 -7.581 -1.696 0.28
-0.163 -7.574 -1.694 0.25
-0.139 -7.574 -1.694 0.25
-0.127 -7.569 -1.693 0.25
-0.104 -7.579 -1.695 0.27
-0.08 -7.587 -1.697 0.25
-0.056 -7.566 -1.692 0.19
-0.032 -7.579 -1.695 0.29
-0.008 -7.546 -1.687 0.23
0.015 -7.562 -1.691 0.18
0.027 -7.542 -1.686 0.29
0.051 -7.499 -1.676 0.25
0.075 -7.544 -1.687 0.19
0.098 -7.553 -1.689 0.26
0.122 -7.547 -1.687 0.23
0.146 -7.559 -1.69 0.2
0.17 -7.591 -1.698 0.28
0.182 -7.571 -1.693 0.25
0.205 -7.547 -1.688 0.19
0.23 -7.582 -1.696 0.27
0.253 -7.567 -1.693 0.24
0.277 -7.559 -1.691 0.19
0.301 -7.577 -1.696 0.26
0.324 -7.557 -1.691 0.23
0.336 -7.562 -1.693 0.2
0.361 -7.579 -1.697 0.25
0.384 -7.564 -1.693 0.22
0.408 -7.565 -1.694 0.17
0.433 -7.583 -1.699 0.27
0.455 -7.558 -1.693 0.2
0.479 -7.566 -1.695 0.23
0.492 -7.575 -1.698 0.18
0.515 -7.562 -1.695 0.24
0.538 -7.552 -1.693 0.18
0.563 -7.566 -1.697 0.23
0.586 -7.557 -1.695 0.19
0.61 -7.559 -1.696 0.12
0.634 -7.557 -1.696 0.2
0.646 -7.554 -1.695 0.11
0.668 -7.54 -1.693 0.21
0.694 -7.561 -1.698 0.11
0.714 -7.518 -1.688 0.2
0.735 -7.491 -1.682 0.19
0.762 -7.525 -1.691 0.27
0.781 -7.473 -1.679 0.25
0.808 -7.501 -1.687 0.26
0.819 -7.5 -1.687 0.24
0.844 -7.507 -1.689 0.26
0.872 -7.547 -1.699 0.24
0.899 -7.565 -1.704 0.23
0.921 -7.555 -1.702 0.25
0.947 -7.565 -1.706 0.24
0.974 -7.587 -1.712 0.26
0.984 -7.57 -1.708 0.29
1.006 -7.559 -1.706 0.31
1.031 -7.562 -1.707 0.33
1.051 -7.534 -1.701 0.24
1.079 -7.561 -1.709 0.25
1.106 -7.577 -1.714 0.34
1.117 -7.569 -1.712 0.32
1.136 -7.533 -1.704 0.23
1.164 -7.562 -1.712 0.28
1.185 -7.535 -1.707 0.23
1.213 -7.561 -1.714 0.26
1.238 -7.566 -1.716 0.31
1.259 -7.543 -1.711 0.3
1.282 -7.537 -1.711 0.27
1.293 -7.528 -1.709 0.25
1.316 -7.52 -1.708 0.27
1.349 -7.573 -1.722 0.4
1.372 -7.561 -1.72 0.3
1.39 -7.526 -1.713 0.26
1.409 -7.497 -1.707 0.3
1.434 -7.5 -1.708 0.35
1.448 -7.511 -1.712 0.43
1.462 -7.457 -1.7 0.28
1.48 -7.425 -1.693 0.28
1.504 -7.425 -1.694 0.29
1.528 -7.42 -1.694 0.28
1.551 -7.413 -1.693 0.29
1.575 -7.414 -1.695 0.27
1.589 -7.421 -1.697 0.3
1.628 -7.488 -1.715 0.31
1.653 -7.491 -1.717 0.26
1.68 -7.502 -1.721 0.34
1.698 -7.471 -1.714 0.3
1.719 -7.458 -1.713 0.26
1.744 -7.458 -1.714 0.34
1.752 -7.438 -1.71 0.32
1.776 -7.436 -1.711 0.27
1.796 -7.416 -1.707 0.23
1.837 -7.484 -1.725 0.31
1.862 -7.485 -1.727 0.21
1.888 -7.487 -1.729 0.45
1.9 -7.438 -1.718 0.36
1.909 -7.423 -1.715 0.28
1.929 -7.404 -1.712 0.26
1.948 -7.381 -1.708 0.3
1.968 -7.362 -1.705 0.32
1.992 -7.361 -1.706 0.34
2.018 -7.366 -1.709 0.26
2.042 -7.36 -1.709 0.32
2.062 -7.388 -1.717 0.41
2.084 -7.378 -1.716 0.31
2.098 -7.338 -1.707 0.29
2.12 -7.329 -1.707 0.28
2.147 -7.336 -1.71 0.39
2.181 -7.368 -1.72 0.43
2.194 -7.324 -1.711 0.31
2.193 -7.28 -1.7 0.28
2.215 -7.269 -1.7 0.26
2.238 -7.264 -1.7 0.27
2.258 -7.247 -1.698 0.3
2.278 -7.231 -1.695 0.28
2.3 -7.222 -1.695 0.27
2.326 -7.224 -1.697 0.26
2.34 -7.23 -1.7 0.25
2.372 -7.25 -1.707 0.27
2.394 -7.242 -1.707 0.3
2.414 -7.226 -1.704 0.4
2.434 -7.211 -1.702 0.33
2.457 -7.203 -1.702 0.38
2.462 -7.144 -1.689 0.21
2.476 -7.149 -1.692 0.27
2.497 -7.138 -1.691 0.41
2.519 -7.126 -1.69 0.36
2.551 -7.146 -1.697 0.41
2.571 -7.132 -1.695 0.28
2.594 -7.126 -1.696 0.37
2.632 -7.16 -1.707 0.34
2.642 -7.152 -1.706 0.36
2.655 -7.118 -1.699 0.4
2.664 -7.073 -1.69 0.29
2.686 -7.065 -1.69 0.32
2.726 -7.103 -1.702 0.29
2.755 -7.111 -1.706 0.41
2.773 -7.093 -1.704 0.34
2.784 -7.054 -1.696 0.29
2.791 -7.04 -1.693 0.27
2.81 -7.024 -1.692 0.27
2.837 -7.026 -1.694 0.36
2.852 -6.999 -1.69 0.37
2.895 -7.043 -1.703 0.42
2.915 -7.03 -1.702 0.36
2.912 -6.991 -1.693 0.32
2.934 -6.98 -1.693 0.29
2.95 -6.958 -1.69 0.29
2.98 -6.969 -1.695 0.27
3.002 -6.959 -1.695 0.28
3.019 -6.937 -1.692 0.27
3.04 -6.926 -1.691 0.25
3.066 -6.927 -1.694 0.2
3.102 -6.979 -1.709 0.43
3.146 -7.019 -1.722 0.37
3.153 -6.976 -1.713 0.3
3.147 -6.904 -1.697 0.24
3.179 -6.917 -1.703 0.45
3.196 -6.896 -1.7 0.29
3.223 -6.899 -1.703 0.32
3.227 -6.878 -1.699 0.37
3.248 -6.867 -1.699 0.36
3.266 -6.848 -1.697 0.2
3.266 -6.794 -1.685 0.3
3.293 -6.794 -1.688 0.42
3.314 -6.784 -1.688 0.33
3.329 -6.76 -1.684 0.38
3.348 -6.772 -1.689 0.37
3.366 -6.756 -1.687 0.27
3.393 -6.756 -1.69 0.26
3.42 -6.757 -1.693 0.18
3.439 -6.741 -1.692 0.0
3.368 -6.55 -1.644 0.0
3.234 -6.239 -1.562 0.05
3.178 -6.106 -1.528 0.14
3.181 -6.065 -1.52 0.16
3.212 -6.079 -1.526 0.23
3.23 -6.065 -1.525 0.23
3.254 -6.065 -1.528 0.26
3.284 -6.076 -1.534 0.29
3.304 -6.067 -1.534 0.29
3.322 -6.077 -1.538 0.3
3.34 -6.065 -1.538 0.3
3.37 -6.073 -1.543 0.29
3.391 -6.066 -1.544 0.3
3.417 -6.069 -1.548 0.3
3.442 -6.068 -1.55 0.29
3.47 -6.073 -1.555 0.29
3.492 -6.089 -1.561 0.3
3.515 -6.085 -1.562 0.3
3.542 -6.089 -1.567 0.29
3.566 -6.086 -1.569 0.29
3.595 -6.092 -1.574 0.29
3.62 -6.091 -1.576 0.29
3.647 -6.091 -1.58 0.3
3.662 -6.095 -1.582 0.29
3.69 -6.099 -1.587 0.3
3.715 -6.097 -1.589 0.29
3.735 -6.085 -1.589 0.3
3.757 -6.079 -1.591 0.29
3.781 -6.075 -1.593 0.28
3.811 -6.081 -1.598 0.28
3.84 -6.084 -1.603 0.27
3.856 -6.09 -1.606 0.28
3.884 -6.091 -1.61 0.29
3.904 -6.08 -1.61 0.29
3.928 -6.076 -1.612 0.27
3.963 -6.088 -1.619 0.28
3.987 -6.082 -1.621 0.26
3.992 -6.069 -1.619 0.19
4.027 -6.081 -1.626 0.29
4.046 -6.068 -1.626 0.25
4.069 -6.062 -1.628 0.19
4.101 -6.069 -1.634 0.27
4.117 -6.051 -1.632 0.24
4.138 -6.041 -1.633 0.2
4.158 -6.049 -1.638 0.25
4.185 -6.049 -1.641 0.24
4.213 -6.048 -1.645 0.22
4.251 -6.062 -1.653 0.34
4.263 -6.039 -1.65 0.28
4.277 -6.018 -1.648 0.17
4.292 -6.0 -1.646 0.16
4.304 -5.977 -1.644 0.53
4.328 -5.991 -1.65 0.44
4.322 -5.942 -1.639 0.28
4.361 -5.957 -1.648 0.24
4.385 -5.95 -1.65 0.34
4.407 -5.94 -1.651 0.28
4.413 -5.909 -1.646 0.26
4.423 -5.885 -1.643 0.27
4.441 -5.888 -1.646 0.27
4.457 -5.871 -1.645 0.27
4.475 -5.857 -1.645 0.2
4.511 -5.866 -1.652 0.28
4.514 -5.832 -1.646 0.22
4.541 -5.829 -1.649 0.23
4.553 -5.807 -1.647 0.2
4.577 -5.818 -1.652 0.41
4.593 -5.801 -1.652 0.3
4.6 -5.772 -1.647 0.28
4.624 -5.766 -1.65 0.29
4.637 -5.745 -1.648 0.27
4.642 -5.714 -1.643 0.36
4.654 -5.692 -1.64 0.29
4.655 -5.675 -1.638 0.25
4.674 -5.662 -1.638 0.32
4.686 -5.64 -1.636 0.38
4.697 -5.618 -1.633 0.35
4.673 -5.552 -1.617 0.38
4.712 -5.564 -1.626 0.37
4.77 -5.597 -1.641 0.32
4.774 -5.583 -1.639 0.29
4.765 -5.537 -1.629 0.28
4.775 -5.513 -1.626 0.39
4.789 -5.495 -1.625 0.32
4.809 -5.483 -1.626 0.31
4.815 -5.455 -1.622 0.31
4.808 -5.412 -1.613 0.27
4.821 -5.41 -1.615 0.45
4.838 -5.395 -1.615 0.28
4.885 -5.413 -1.626 0.3
4.91 -5.407 -1.629 0.37
4.925 -5.39 -1.628 0.37
4.945 -5.377 -1.629 0.33
4.97 -5.37 -1.632 0.25
4.995 -5.381 -1.638 0.37
4.998 -5.35 -1.633 0.34
5.022 -5.342 -1.636 0.32
5.056 -5.345 -1.642 0.38
5.06 -5.315 -1.637 0.23
5.08 -5.303 -1.638 0.31
5.088 -5.277 -1.635 0.32
5.103 -5.276 -1.638 0.46
5.146 -5.288 -1.647 0.25
5.167 -5.276 -1.648 0.38
5.179 -5.256 -1.647 0.32
5.173 -5.216 -1.639 0.36
5.189 -5.2 -1.639 0.41
5.214 -5.192 -1.642 0.33
5.205 -5.167 -1.636 0.24
5.219 -5.148 -1.635 0.34
5.222 -5.119 -1.631 0.28
5.233 -5.097 -1.629 0.21
5.248 -5.079 -1.629 0.38
5.27 -5.07 -1.631 0.49
5.288 -5.054 -1.631 0.25
5.282 -5.033 -1.627 0.27
5.295 -5.013 -1.626 0.48
5.331 -5.017 -1.633 0.41
5.351 -5.004 -1.634 0.32
5.374 -4.994 -1.637 0.34
5.396 -4.982 -1.638 0.26
5.441 -4.993 -1.648 0.3
5.468 -5.002 -1.654 0.28
5.463 -4.966 -1.648 0.21
5.49 -4.959 -1.652 0.3
5.525 -4.959 -1.658 0.22
5.54 -4.942 -1.658 0.0
5.54 -4.91 -1.652 0.0
5.439 -4.789 -1.615 0.0
5.286 -4.639 -1.564 0.0
5.222 -4.553 -1.539 0.0
5.217 -4.52 -1.533 0.02
5.25 -4.52 -1.539 0.12
5.269 -4.507 -1.54 0.04
5.305 -4.51 -1.547 0.17
5.35 -4.52 -1.557 0.11
5.379 -4.515 -1.562 0.21
5.413 -4.529 -1.57 0.18
5.459 -4.539 -1.58 0.27
5.488 -4.534 -1.584 0.25
5.531 -4.54 -1.593 0.19
5.563 -4.538 -1.599 0.27
5.589 -4.53 -1.603 0.25
5.624 -4.529 -1.609 0.19
5.656 -4.54 -1.617 0.27
5.693 -4.541 -1.624 0.23
5.715 -4.529 -1.626 0.2
5.733 -4.515 -1.627 0.28
5.732 -4.484 -1.623 0.29
5.746 -4.466 -1.623 0.23
5.808 -4.485 -1.637 0.12
5.87 -4.519 -1.654 0.18
5.889 -4.504 -1.655 0.22
5.917 -4.496 -1.659 0.19
5.957 -4.498 -1.667 0.25
5.973 -4.48 -1.668 0.25
5.984 -4.459 -1.667 0.26
6.01 -4.45 -1.671 0.29
6.011 -4.435 -1.669 0.28
6.03 -4.42 -1.67 0.26
6.05 -4.406 -1.672 0.3
6.086 -4.403 -1.679 0.28
6.092 -4.378 -1.676 0.3
6.093 -4.35 -1.673 0.29
6.105 -4.329 -1.672 0.29
6.099 -4.311 -1.668 0.26
6.128 -4.303 -1.673 0.23
6.145 -4.286 -1.674 0.32
6.155 -4.264 -1.673 0.23
6.167 -4.244 -1.673 0.26
6.217 -4.25 -1.683 0.33
6.208 -4.215 -1.677 0.28
6.237 -4.22 -1.683 0.3
6.275 -4.217 -1.69 0.36
6.304 -4.208 -1.695 0.31
6.336 -4.201 -1.7 0.29
6.338 -4.174 -1.697 0.31
6.327 -4.138 -1.69 0.27
6.337 -4.116 -1.689 0.29
6.327 -4.095 -1.685 0.3
6.341 -4.076 -1.685 0.33
6.352 -4.055 -1.685 0.33
6.357 -4.03 -1.682 0.3
6.36 -4.004 -1.68 0.32
6.362 -3.978 -1.677 0.27
6.382 -3.962 -1.679 0.27
6.399 -3.959 -1.682 0.27
6.41 -3.938 -1.681 0.26
6.419 -3.916 -1.68 0.27
6.433 -3.896 -1.681 0.27
6.444 -3.875 -1.68 0.27
6.466 -3.861 -1.683 0.26
6.479 -3.842 -1.684 0.27
6.494 -3.836 -1.686 0.28
6.511 -3.819 -1.687 0.27
6.528 -3.802 -1.689 0.27
6.516 -3.767 -1.682 0.29
6.543 -3.756 -1.687 0.3
6.565 -3.741 -1.689 0.24
6.589 -3.727 -1.693 0.33
6.574 -3.705 -1.687 0.32
6.577 -3.68 -1.685 0.38
6.604 -3.667 -1.689 0.35
6.573 -3.623 -1.677 0.23
6.561 -3.589 -1.671 0.32
6.579 -3.572 -1.673 0.4
6.598 -3.556 -1.675 0.34
6.643 -3.567 -1.686 0.29
6.646 -3.542 -1.683 0.25
6.628 -3.505 -1.675 0.28
6.641 -3.485 -1.676 0.39
6.664 -3.471 -1.679 0.29
6.678 -3.452 -1.68 0.32
6.713 -3.443 -1.687 0.29
6.731 -3.426 -1.688 0.34
6.724 -3.409 -1.685 0.29
6.75 -3.396 -1.689 0.0
6.597 -3.292 -1.645 0.0
6.128 -3.032 -1.517 0.11
6.16 -3.024 -1.523 0.2
6.201 -3.02 -1.531 0.23
6.233 -3.011 -1.537 0.26
6.311 -3.037 -1.557 0.27
6.384 -3.048 -1.574 0.29
6.43 -3.045 -1.583 0.29
6.483 -3.046 -1.595 0.29
6.532 -3.044 -1.605 0.29
6.573 -3.038 -1.614 0.29
6.619 -3.034 -1.624 0.28
6.651 -3.036 -1.631 0.2
6.678 -3.023 -1.635 0.29
6.703 -3.01 -1.639 0.25
6.73 -2.997 -1.644 0.25
6.777 -2.992 -1.654 0.27
6.815 -2.983 -1.661 0.3
6.819 -2.959 -1.66 0.29
6.77 -2.925 -1.646 0.25
6.761 -2.896 -1.641 0.19
6.872 -2.919 -1.668 0.18
6.942 -2.923 -1.684 0.39
6.957 -2.904 -1.685 0.44
6.957 -2.878 -1.683 0.47
6.98 -2.862 -1.687 0.37
6.956 -2.839 -1.679 0.38
6.888 -2.786 -1.659 0.34
6.848 -2.744 -1.646 0.29
6.981 -2.773 -1.679 0.38
6.982 -2.748 -1.677 0.32
6.973 -2.719 -1.672 0.3
7.014 -2.71 -1.68 0.3
6.986 -2.674 -1.671 0.36
6.923 -2.637 -1.654 0.29
6.993 -2.639 -1.67 0.36
6.925 -2.588 -1.65 0.3
6.906 -2.556 -1.643 0.27
6.864 -2.516 -1.631 0.34
6.852 -2.487 -1.625 0.29
6.86 -2.465 -1.625 0.34
6.864 -2.455 -1.625 0.3
6.877 -2.435 -1.627 0.38
6.874 -2.409 -1.624 0.36
6.872 -2.385 -1.622 0.31
6.887 -2.366 -1.624 0.32
6.887 -2.341 -1.622 0.29
6.878 -2.314 -1.617 0.26
6.891 -2.306 -1.62 0.32
6.865 -2.274 -1.611 0.28
6.838 -2.241 -1.603 0.33
6.868 -2.227 -1.609 0.36
6.886 -2.209 -1.611 0.37
6.9 -2.19 -1.613 0.28
6.902 -2.178 -1.613 0.31
6.906 -2.156 -1.612 0.36
6.911 -2.134 -1.612 0.32
6.931 -2.116 -1.615 0.34
6.951 -2.098 -1.618 0.39
6.935 -2.069 -1.613 0.33
6.884 -2.03 -1.598 0.3
6.883 -2.018 -1.597 0.36
6.891 -1.997 -1.598 0.35
6.826 -1.955 -1.58 0.28
6.864 -1.943 -1.588 0.38
6.869 -1.921 -1.588 0.3
6.85 -1.892 -1.582 0.29
6.836 -1.865 -1.576 0.34
6.86 -1.849 -1.581 0.39
6.84 -1.832 -1.576 0.3
6.831 -1.806 -1.572 0.3
6.831 -1.783 -1.57 0.28
6.839 -1.762 -1.571 0.28
6.842 -1.74 -1.57 0.27
6.859 -1.722 -1.573 0.29
6.874 -1.703 -1.576 0.29
6.916 -1.702 -1.585 0.3
6.97 -1.692 -1.597 0.29
7.036 -1.685 -1.612 0.25
7.1 -1.677 -1.627 0.18
7.174 -1.671 -1.644 0.19
7.16 -1.644 -1.639 0.54
7.171 -1.622 -1.64 0.32
7.15 -1.606 -1.635 0.36
7.18 -1.589 -1.641 0.36
7.179 -1.565 -1.639 0.38
7.207 -1.548 -1.645 0.37
7.223 -1.527 -1.648 0.39
7.245 -1.508 -1.652 0.38
7.284 -1.493 -1.66 0.43
7.29 -1.482 -1.661 0.32
7.285 -1.457 -1.659 0.29
7.294 -1.435 -1.66 0.29
7.291 -1.411 -1.658 0.29
7.295 -1.388 -1.658 0.29
7.286 -1.362 -1.655 0.27
7.303 -1.342 -1.658 0.26
7.309 -1.331 -1.659 0.28
7.279 -1.302 -1.651 0.3
7.297 -1.281 -1.654 0.28
7.291 -1.257 -1.652 0.27
7.289 -1.233 -1.65 0.28
7.295 -1.21 -1.651 0.27
7.293 -1.186 -1.649 0.27
7.302 -1.176 -1.651 0.27
7.302 -1.153 -1.65 0.27
7.289 -1.127 -1.646 0.19
7.309 -1.107 -1.65 0.28
7.307 -1.083 -1.649 0.21
7.299 -1.058 -1.646 0.25
7.296 -1.034 -1.645 0.19
7.306 -1.024 -1.646 0.27
7.303 -1.0 -1.645 0.25
7.308 -0.978 -1.645 0.2
7.317 -0.955 -1.647 0.28
7.31 -0.931 -1.645 0.23
7.321 -0.909 -1.646 0.2
7.324 -0.886 -1.646 0.25
7.315 -0.862 -1.644 0.19
7.326 -0.851 -1.646 0.25
7.33 -0.829 -1.646 0.23
7.316 -0.804 -1.642 0.19
7.339 -0.783 -1.647 0.26
7.328 -0.759 -1.644 0.21
7.338 -0.736 -1.646 0.2
7.338 -0.725 -1.645 0.25
7.34 -0.702 -1.645 0.2
7.34 -0.678 -1.645 0.23
7.323 -0.653 -1.64 0.18
7.348 -0.632 -1.646 0.24
7.342 -0.609 -1.644 0.19
7.35 -0.586 -1.645 0.25
7.332 -0.561 -1.641 0.19
7.36 -0.552 -1.647 0.24
7.333 -0.527 -1.64 0.23
7.34 -0.504 -1.642 0.2
7.336 -0.481 -1.64 0.23
7.338 -0.458 -1.64 0.21
7.345 -0.435 -1.642 0.2
7.364 -0.413 -1.646 0.25
7.353 -0.401 -1.643 0.2
7.358 -0.378 -1.644 0.13
7.345 -0.354 -1.641 0.21
7.341 -0.331 -1.639 0.2
7.349 -0.308 -1.641 0.27
7.34 -0.284 -1.639 0.24
7.336 -0.261 -1.638 0.2
7.355 -0.25 -1.642 0.27
7.341 -0.227 -1.638 0.25
7.353 -0.204 -1.641 0.23
7.328 -0.18 -1.635 0.18
7.356 -0.158 -1.642 0.29
7.335 -0.134 -1.637 0.25
7.33 -0.111 -1.635 0.27
7.338 -0.1 -1.637 0.26
7.338 -0.077 -1.637 0.27
7.34 -0.054 -1.638 0.26
7.326 -0.03 -1.634 0.27
7.328 -0.007 -1.635 0.26
6.995 0.021 -1.628 0.16
6.979 0.042 -1.624 0.16
6.987 0.065 -1.626 0.18
6.969 0.086 -1.622 0.16
6.974 0.108 -1.623 0.16
6.984 0.13 -1.626 0.17
6.982 0.141 -1.625 0.16
6.971 0.163 -1.623 0.17
6.969 0.185 -1.622 0.16
6.968 0.207 -1.622 0.16
6.968 0.229 -1.622 0.16
6.971 0.251 -1.623 0.16
6.964 0.272 -1.622 0.17
6.95 0.293 -1.618 0.17
6.972 0.305 -1.624 0.09
6.954 0.327 -1.62 0.08
6.949 0.348 -1.619 0.08
6.965 0.371 -1.623 0.08
6.933 0.391 -1.615 0.04
6.959 0.414 -1.622 0.07
6.952 0.436 -1.621 0.04
6.959 0.447 -1.623 0.08
6.944 0.468 -1.619 0.04
6.96 0.491 -1.624 0.07
6.935 0.511 -1.618 0.04
6.947 0.534 -1.621 0.0
6.959 0.557 -1.625 0.07
6.936 0.577 -1.619 0.04
6.943 0.589 -1.621 0.04
6.941 0.611 -1.621 0.03
6.946 0.633 -1.623 0.03
6.929 0.654 -1.619 0.04
6.946 0.677 -1.624 0.04
6.94 0.699 -1.623 0.0
6.934 0.72 -1.622 0.0
6.937 0.731 -1.623 0.0
6.933 0.753 -1.623 0.0
6.934 0.775 -1.624 0.0
6.939 0.798 -1.626 0.0
6.956 0.822 -1.63 0.0
6.924 0.84 -1.623 0.0
6.951 0.866 -1.63 0.0
6.909 0.871 -1.62 0.0
6.927 0.896 -1.626 0.0
6.915 0.916 -1.623 0.0
6.943 0.942 -1.631 0.0
6.899 0.958 -1.621 0.0
6.931 0.985 -1.629 0.0
6.907 1.004 -1.624 0.0
6.905 1.015 -1.624 0.0
6.894 1.035 -1.622 0.0
6.887 1.056 -1.621 0.0
6.889 1.079 -1.623 0.0
6.903 1.103 -1.627 0.06
6.871 1.12 -1.62 0.04
6.869 1.142 -1.62 0.04
6.891 1.157 -1.626 0.07
6.872 1.176 -1.622 0.04
6.851 1.194 -1.618 0.0
6.864 1.219 -1.622 0.12
6.86 1.24 -1.622 0.18
6.852 1.261 -1.621 0.25
6.852 1.283 -1.622 0.28
6.848 1.305 -1.622 0.26
6.844 1.315 -1.622 0.31
6.844 1.338 -1.623 0.26
6.832 1.358 -1.621 0.2
6.814 1.376 -1.617 0.04
6.812 1.398 -1.618 0.08
6.794 1.417 -1.614 0.04
6.809 1.431 -1.619 0.07
6.799 1.451 -1.617 0.08
6.79 1.472 -1.616 0.08
6.782 1.492 -1.615 0.16
6.762 1.51 -1.611 0.04
6.786 1.538 -1.619 0.08
6.764 1.555 -1.614 0.15
6.765 1.578 -1.616 0.16
6.77 1.59 -1.618 0.16
6.75 1.608 -1.614 0.18
6.754 1.631 -1.616 0.18
6.751 1.653 -1.617 0.16
6.753 1.676 -1.619 0.16
6.735 1.694 -1.615 0.16
6.729 1.715 -1.615 0.17
6.738 1.728 -1.618 0.16
6.74 1.752 -1.62 0.09
6.712 1.767 -1.614 0.09
6.712 1.789 -1.616 0.08
6.708 1.811 -1.616 0.15
6.702 1.832 -1.616 0.16
6.706 1.856 -1.619 0.16
6.694 1.864 -1.616 0.04
6.693 1.886 -1.618 0.08
6.689 1.908 -1.618 0.09
6.672 1.925 -1.615 0.08
6.66 1.945 -1.614 0.08
6.675 1.972 -1.619 0.08
6.659 1.99 -1.617 0.08
6.645 1.997 -1.614 0.04
6.644 2.02 -1.615 0.08
6.645 2.043 -1.617 0.08
6.639 2.064 -1.617 0.08
6.634 2.085 -1.618 0.16
6.627 2.106 -1.618 0.17
6.615 2.125 -1.616 0.17
6.603 2.132 -1.614 0.04
6.609 2.157 -1.617 0.16
6.598 2.177 -1.616 0.19
6.591 2.198 -1.616 0.17
6.597 2.223 -1.62 0.16
6.581 2.24 -1.617 0.17
6.58 2.263 -1.619 0.17
6.574 2.272 -1.618 0.18
6.534 2.281 -1.61 0.04
6.556 2.312 -1.617 0.15
6.534 2.328 -1.613 0.05
6.532 2.35 -1.615 0.16
6.503 2.363 -1.609 0.05
6.525 2.394 -1.617 0.15
6.497 2.395 -1.611 0.05
6.515 2.425 -1.617 0.15
6.488 2.438 -1.612 0.05
6.5 2.466 -1.617 0.16
6.479 2.482 -1.614 0.19
6.47 2.501 -1.613 0.1
6.456 2.52 -1.612 0.09
6.458 2.543 -1.614 0.09
6.45 2.552 -1.613 0.09
6.436 2.57 -1.612 0.09
6.425 2.589 -1.611 0.09
6.44 2.619 -1.617 0.15
6.401 2.626 -1.609 0.05
6.404 2.651 -1.612 0.16
6.39 2.669 -1.611 0.05
6.391 2.681 -1.612 0.16
6.379 2.7 -1.611 0.05
6.39 2.728 -1.616 0.17
6.36 2.739 -1.611 0.05
6.362 2.763 -1.613 0.15
6.346 2.78 -1.611 0.2
6.347 2.804 -1.614 0.1
6.34 2.813 -1.613 0.15
6.319 2.828 -1.61 0.05
6.315 2.85 -1.611 0.16
6.298 2.866 -1.609 0.05
6.299 2.89 -1.612 0.16
6.29 2.91 -1.612 0.05
6.29 2.934 -1.614 0.16
6.269 2.936 -1.61 0.05
6.276 2.964 -1.614 0.16
6.252 2.977 -1.611 0.05
6.262 3.005 -1.616 0.14
6.237 3.017 -1.611 0.05
6.235 3.04 -1.613 0.16
6.225 3.06 -1.613 0.05
6.218 3.069 -1.613 0.16
6.198 3.083 -1.61 0.05
6.203 3.11 -1.614 0.14
6.181 3.123 -1.611 0.05
6.193 3.154 -1.617 0.16
6.185 3.174 -1.617 0.19
6.166 3.189 -1.615 0.1
6.168 3.202 -1.617 0.08
6.156 3.221 -1.616 0.09
6.138 3.236 -1.614 0.08
6.138 3.26 -1.617 0.09
6.122 3.277 -1.615 0.08
6.105 3.292 -1.613 0.09
6.119 3.325 -1.62 0.09
6.108 3.332 -1.619 0.09
6.083 3.342 -1.614 0.08
6.075 3.363 -1.615 0.0
6.082 3.392 -1.62 0.14
6.041 3.394 -1.611 0.05
6.042 3.419 -1.615 0.15
6.041 3.444 -1.618 0.18
6.019 3.456 -1.614 0.17
6.033 3.477 -1.62 0.17
6.019 3.494 -1.619 0.16
5.995 3.505 -1.615 0.18
5.995 3.531 -1.619 0.17
5.979 3.547 -1.617 0.17
5.968 3.566 -1.617 0.16
5.974 3.582 -1.621 0.17
5.951 3.594 -1.617 0.17
5.94 3.613 -1.617 0.17
5.925 3.629 -1.616 0.04
5.914 3.648 -1.616 0.14
5.891 3.659 -1.613 0.05
5.895 3.688 -1.618 0.16
5.873 3.687 -1.613 0.05
5.87 3.71 -1.615 0.14
5.858 3.729 -1.615 0.05
5.858 3.755 -1.619 0.16
5.843 3.771 -1.618 0.19
5.826 3.786 -1.616 0.17
5.827 3.813 -1.62 0.17
5.8 3.821 -1.616 0.17
5.796 3.832 -1.616 0.18
5.787 3.852 -1.617 0.16
5.769 3.866 -1.615 0.09
5.763 3.888 -1.617 0.09
5.739 3.899 -1.614 0.09
5.729 3.918 -1.614 0.09
5.713 3.934 -1.613 0.09
5.723 3.954 -1.618 0.09
5.715 3.975 -1.62 0.15
5.682 3.978 -1.613 0.05
5.684 4.006 -1.618 0.15
5.659 4.015 -1.614 0.05
5.651 4.036 -1.615 0.15
5.625 4.045 -1.611 0.05
5.633 4.064 -1.616 0.16
5.62 4.082 -1.616 0.19
5.608 4.099 -1.616 0.1
5.601 4.122 -1.618 0.16
5.594 4.144 -1.62 0.22
5.581 4.161 -1.62 0.18
5.557 4.171 -1.616 0.3
5.531 4.164 -1.61 0.23
5.521 4.184 -1.611 0.32
5.532 4.22 -1.619 0.17
5.519 4.237 -1.619 0.24
5.507 4.256 -1.619 0.18
5.477 4.26 -1.614 0.27
5.457 4.272 -1.612 0.36
5.457 4.286 -1.614 0.29
5.437 4.298 -1.612 0.31
5.425 4.316 -1.612 0.34
5.417 4.338 -1.614 0.26
5.413 4.363 -1.617 0.34
5.387 4.37 -1.613 0.32
5.37 4.384 -1.612 0.14
5.366 4.395 -1.613 0.19
5.369 4.426 -1.619 0.2
5.357 4.444 -1.619 0.17
5.346 4.463 -1.62 0.09
5.327 4.476 -1.619 0.09
5.32 4.499 -1.621 0.08
5.306 4.516 -1.621 0.08
5.303 4.528 -1.623 0.09
5.298 4.552 -1.626 0.09
5.284 4.569 -1.626 0.09
5.266 4.583 -1.625 0.08
5.264 4.609 -1.628 0.08
5.252 4.629 -1.629 0.09
5.23 4.639 -1.627 0.08
5.221 4.66 -1.629 0.08
5.221 4.675 -1.631 0.15
5.198 4.683 -1.628 0.04
5.193 4.709 -1.632 0.08
5.176 4.723 -1.631 0.08
5.154 4.732 -1.628 0.04
5.156 4.764 -1.634 0.07
5.135 4.775 -1.632 0.04
5.14 4.795 -1.637 0.07
5.122 4.809 -1.636 0.04
5.103 4.821 -1.634 0.03
5.102 4.85 -1.639 0.04
5.081 4.861 -1.637 0.04
5.066 4.877 -1.637 0.03
5.083 4.909 -1.646 0.0
5.055 4.913 -1.642 0.0
5.056 4.945 -1.647 0.0
5.034 4.954 -1.645 0.0
5.028 4.979 -1.648 0.0
5.001 4.984 -1.644 0.0
5.002 5.016 -1.65 0.0
4.979 5.009 -1.645 0.0
4.963 5.025 -1.645 0.0
4.971 5.064 -1.653 0.0
4.949 5.074 -1.651 0.0
4.944 5.1 -1.655 0.0
4.912 5.099 -1.649 0.0
4.916 5.136 -1.657 0.0
4.88 5.13 -1.649 0.0
4.893 5.16 -1.657 0.0
4.886 5.185 -1.661 0.0
4.854 5.184 -1.655 0.0
4.834 5.195 -1.653 0.0
4.841 5.236 -1.662 0.0
4.823 5.249 -1.661 0.0
4.793 5.25 -1.657 0.0
4.807 5.282 -1.665 0.0
4.767 5.271 -1.656 0.0
4.771 5.309 -1.664 0.0
4.743 5.311 -1.66 0.0
4.724 5.323 -1.659 0.0
4.712 5.344 -1.661 0.0
4.698 5.361 -1.661 0.0
4.688 5.367 -1.661 0.0
4.676 5.388 -1.663 0.0
4.66 5.403 -1.663 0.0
4.638 5.411 -1.661 0.0
4.618 5.423 -1.66 0.0
4.613 5.452 -1.665 0.0
4.601 5.473 -1.667 0.06
4.584 5.469 -1.663 0.04
4.584 5.505 -1.67 0.04
4.556 5.506 -1.666 0.03
4.54 5.521 -1.666 0.04
4.532 5.548 -1.67 0.03
4.511 5.557 -1.669 0.04
4.49 5.567 -1.667 0.04
4.492 5.588 -1.672 0.03
4.467 5.593 -1.669 0.0
4.464 5.625 -1.675 0.0
4.441 5.633 -1.673 0.0
4.425 5.648 -1.673 0.06
4.405 5.659 -1.672 0.04
4.405 5.696 -1.679 0.08
4.378 5.68 -1.672 0.04
4.378 5.717 -1.679 0.07
4.356 5.726 -1.678 0.04
4.344 5.747 -1.68 0.07
4.319 5.751 -1.677 0.04
4.313 5.781 -1.682 0.07
4.278 5.772 -1.676 0.04
4.286 5.802 -1.683 0.07
4.272 5.821 -1.684 0.08
4.248 5.826 -1.682 0.08
4.227 5.836 -1.681 0.04
4.219 5.864 -1.685 0.07
4.183 5.853 -1.678 0.04
4.177 5.884 -1.683 0.07
4.164 5.884 -1.681 0.04
4.16 5.918 -1.688 0.07
4.135 5.923 -1.685 0.04
4.132 5.958 -1.692 0.07
4.103 5.955 -1.687 0.04
4.096 5.986 -1.693 0.07
4.065 5.981 -1.687 0.04
4.049 5.998 -1.689 0.07
4.048 6.016 -1.692 0.16
4.025 6.024 -1.691 0.04
4.013 6.046 -1.694 0.07
3.999 6.067 -1.696 0.04
3.979 6.078 -1.695 0.07
3.958 6.087 -1.694 0.04
3.941 6.103 -1.695 0.07
3.929 6.105 -1.694 0.04
3.918 6.131 -1.698 0.07
3.9 6.145 -1.699 0.04
3.883 6.16 -1.7 0.07
3.861 6.169 -1.699 0.04
3.848 6.191 -1.702 0.07
3.822 6.193 -1.699 0.04
3.82 6.211 -1.702 0.07
3.804 6.23 -1.704 0.04
3.787 6.245 -1.705 0.07
3.765 6.253 -1.704 0.04
3.742 6.26 -1.703 0.04
3.723 6.272 -1.703 0.04
3.706 6.289 -1.704 0.03
3.7 6.301 -1.706 0.0
3.677 6.308 -1.705 0.0
3.676 6.351 -1.714 0.0
3.644 6.342 -1.708 0.0
3.641 6.382 -1.716 0.0
3.606 6.369 -1.709 0.0
3.592 6.39 -1.712 0.0
3.58 6.417 -1.716 0.0
3.564 6.41 -1.713 0.0
3.541 6.416 -1.711 0.0
3.521 6.427 -1.711 0.0
3.504 6.445 -1.713 0.0
3.499 6.485 -1.722 0.0
3.473 6.484 -1.718 0.0
3.454 6.499 -1.719 0.0
3.441 6.499 -1.718 0.0
3.438 6.542 -1.727 0.0
3.4 6.52 -1.718 0.0
3.385 6.541 -1.721 0.0
3.373 6.569 -1.726 0.0
3.346 6.568 -1.722 0.0
3.337 6.601 -1.728 0.0
3.332 6.616 -1.731 0.0
3.31 6.625 -1.731 0.0
3.279 6.615 -1.725 0.0
3.27 6.649 -1.732 0.0
3.248 6.658 -1.731 0.0
3.22 6.652 -1.727 0.0
3.21 6.685 -1.733 0.0
3.196 6.683 -1.731 0.0
3.178 6.7 -1.733 0.0
3.161 6.719 -1.736 0.0
3.128 6.702 -1.728 0.0
3.12 6.74 -1.736 0.0
3.091 6.732 -1.731 0.0
3.077 6.758 -1.736 0.0
3.057 6.743 -1.73 0.0
3.047 6.778 -1.737 0.0
3.019 6.771 -1.733 0.0
3.008 6.804 -1.739 0.0
2.989 6.819 -1.741 0.0
2.953 6.796 -1.732 0.0
2.949 6.844 -1.743 0.0
2.917 6.829 -1.736 0.0
2.915 6.855 -1.742 0.0
2.889 6.853 -1.739 0.0
2.88 6.893 -1.747 0.0
2.841 6.86 -1.736 0.0
2.842 6.923 -1.75 0.0
2.803 6.891 -1.739 0.0
2.792 6.926 -1.746 0.0
2.777 6.92 -1.744 0.0
2.756 6.93 -1.744 0.03
2.73 6.928 -1.741 0.03
2.712 6.946 -1.744 0.04
2.691 6.956 -1.744 0.03
2.668 6.963 -1.744 0.04
2.646 6.971 -1.744 0.03
2.64 6.988 -1.747 0.03
2.617 6.993 -1.746 0.03
2.591 6.99 -1.743 0.03
2.577 7.02 -1.749 0.03
2.553 7.024 -1.748 0.03
2.535 7.043 -1.751 0.04
2.509 7.038 -1.747 0.03
2.49 7.055 -1.75 0.04
2.479 7.061 -1.75 0.04
2.46 7.076 -1.752 0.04
2.44 7.091 -1.754 0.04
2.421 7.108 -1.757 0.07
2.398 7.114 -1.756 0.04
2.375 7.121 -1.756 0.07
2.354 7.13 -1.757 0.04
2.341 7.129 -1.755 0.04
2.318 7.136 -1.755 0.04
2.299 7.152 -1.758 0.04
2.283 7.182 -1.763 0.07
2.255 7.17 -1.759 0.04
2.243 7.211 -1.767 0.07
2.211 7.19 -1.76 0.04
2.205 7.208 -1.764 0.07
2.179 7.206 -1.761 0.04
2.16 7.224 -1.764 0.14
2.137 7.231 -1.764 0.18
2.115 7.239 -1.765 0.09
2.099 7.27 -1.771 0.14
2.069 7.252 -1.765 0.22
2.062 7.271 -1.769 0.16
2.035 7.26 -1.764 0.24
2.013 7.272 -1.766 0.21
1.986 7.263 -1.762 0.17
1.966 7.277 -1.764 0.26
1.945 7.291 -1.766 0.22
1.922 7.299 -1.766 0.18
1.913 7.311 -1.769 0.27
1.892 7.325 -1.771 0.2
1.867 7.323 -1.769 0.12
1.845 7.333 -1.77 0.18
1.821 7.335 -1.769 0.23
1.802 7.355 -1.773 0.19
1.775 7.344 -1.768 0.05
1.753 7.355 -1.77 0.17
1.744 7.367 -1.772 0.18
1.726 7.396 -1.778 0.18
1.7 7.391 -1.776 0.18
1.676 7.393 -1.775 0.16
1.655 7.408 -1.777 0.04
1.629 7.401 -1.774 0.08
1.612 7.435 -1.781 0.08
1.602 7.445 -1.783 0.08
1.575 7.431 -1.778 0.08
1.556 7.457 -1.784 0.08
1.533 7.466 -1.785 0.08
1.507 7.459 -1.782 0.04
1.484 7.467 -1.783 0.07
1.463 7.482 -1.785 0.04
1.452 7.488 -1.786 0.07
1.426 7.479 -1.783 0.04
1.408 7.514 -1.791 0.08
1.379 7.492 -1.784 0.04
1.36 7.519 -1.79 0.07
1.337 7.529 -1.791 0.15
1.311 7.52 -1.788 0.17
1.299 7.516 -1.786 0.04
1.279 7.545 -1.793 0.07
1.255 7.547 -1.792 0.15
1.232 7.556 -1.794 0.16
1.209 7.56 -1.794 0.16
1.184 7.56 -1.793 0.16
1.16 7.558 -1.791 0.04
1.139 7.583 -1.796 0.07
1.125 7.569 -1.793 0.08
1.098 7.554 -1.788 0.04
1.081 7.601 -1.799 0.07
1.054 7.587 -1.794 0.08
1.03 7.587 -1.794 0.04
1.01 7.615 -1.8 0.07
0.983 7.599 -1.795 0.04
0.971 7.6 -1.795 0.07
0.949 7.613 -1.797 0.15
0.922 7.597 -1.793 0.04
0.901 7.623 -1.798 0.07
0.878 7.631 -1.8 0.04
0.853 7.622 -1.797 0.07
0.829 7.631 -1.798 0.04
0.82 7.659 -1.805 0.07
0.793 7.629 -1.797 0.04
0.771 7.656 -1.803 0.07
0.747 7.659 -1.803 0.04
0.723 7.659 -1.803 0.07
0.699 7.665 -1.804 0.04
0.676 7.677 -1.806 0.08
0.664 7.678 -1.806 0.08
0.641 7.694 -1.81 0.08
0.614 7.665 -1.802 0.04
0.591 7.674 -1.804 0.08
0.566 7.674 -1.803 0.04
0.544 7.693 -1.808 0.07
0.519 7.697 -1.808 0.08
0.496 7.706 -1.81 0.15
0.483 7.69 -1.806 0.04
0.459 7.709 -1.81 0.08
0.434 7.696 -1.807 0.04
0.411 7.713 -1.811 0.08
0.387 7.72 -1.812 0.15
0.363 7.721 -1.812 0.16
0.338 7.715 -1.81 0.04
0.326 7.723 -1.812 0.07
0.303 7.743 -1.817 0.08
0.278 7.731 -1.813 0.16
0.254 7.732 -1.813 0.16
0.229 7.729 -1.812 0.16
0.205 7.733 -1.813 0.16
0.181 7.726 -1.811 0.04
0.169 7.744 -1.816 0.08
0.145 7.74 -1.815 0.08
0.12 7.735 -1.813 0.09
0.096 7.749 -1.817 0.16
0.072 7.732 -1.812 0.04
0.047 7.755 -1.818 0.08
0.023 7.734 -1.813 0.08
-0.001 7.753 -1.818 0.08
-0.014 7.763 -1.82 0.16
-0.038 7.751 -1.817 0.16
-0.062 7.753 -1.818 0.16
-0.087 7.753 -1.818 0.16
-0.111 7.758 -1.819 0.16
-0.136 7.762 -1.82 0.16
-0.16 7.756 -1.819 0.16
-0.172 7.757 -1.819 0.16
-0.197 7.77 -1.823 0.16
-0.221 7.768 -1.822 0.16
-0.245 7.761 -1.821 0.16
-0.27 7.764 -1.822 0.16
-0.294 7.767 -1.823 0.16
-0.318 7.749 -1.818 0.04
-0.331 7.766 -1.823 0.08
-0.356 7.768 -1.824 0.08
-0.381 7.779 -1.827 0.08
-0.405 7.774 -1.826 0.08
-0.429 7.765 -1.824 0.15
-0.453 7.765 -1.824 0.16
-0.478 7.762 -1.824 0.16
-0.49 7.759 -1.823 0.16
-0.513 7.746 -1.82 0.04
-0.539 7.77 -1.827 0.08
-0.564 7.774 -1.828 0.09
-0.588 7.766 -1.827 0.08
-0.612 7.752 -1.824 0.08
-0.637 7.764 -1.827 0.09
-0.65 7.767 -1.828 0.08
-0.674 7.769 -1.829 0.08
-0.699 7.767 -1.829 0.08
-0.722 7.757 -1.827 0.04
-0.749 7.774 -1.832 0.08
-0.773 7.765 -1.83 0.08
-0.798 7.771 -1.832 0.08
-0.822 7.762 -1.831 0.16
-0.833 7.759 -1.83 0.16
-0.858 7.758 -1.831 0.16
-0.884 7.769 -1.834 0.17
-0.907 7.755 -1.831 0.16
-0.933 7.763 -1.834 0.16
-0.957 7.76 -1.834 0.16
-0.98 7.746 -1.831 0.16
-0.993 7.746 -1.832 0.04
-1.019 7.758 -1.836 0.08
-1.042 7.748 -1.834 0.16
-1.068 7.752 -1.836 0.16
-1.093 7.758 -1.838 0.17
-1.115 7.735 -1.833 0.16
-1.14 7.736 -1.834 0.17
-1.152 7.734 -1.834 0.16
-1.174 7.715 -1.83 0.04
-1.201 7.728 -1.835 0.08
-1.227 7.738 -1.838 0.15
-1.248 7.711 -1.832 0.04
-1.275 7.726 -1.837 0.08
-1.302 7.738 -1.841 0.08
-1.323 7.716 -1.837 0.08
-1.337 7.724 -1.839 0.09
-1.36 7.712 -1.837 0.16
-1.385 7.709 -1.838 0.16
-1.411 7.717 -1.841 0.17
-1.435 7.712 -1.841 0.17
-1.458 7.698 -1.838 0.04
-1.486 7.714 -1.844 0.07
-1.497 7.708 -1.843 0.08
-1.518 7.688 -1.839 0.08
-1.542 7.682 -1.838 0.08
-1.571 7.698 -1.844 0.09
-1.593 7.683 -1.841 0.15
-1.614 7.667 -1.838 0.04
-1.643 7.682 -1.844 0.08
-1.655 7.678 -1.843 0.09
-1.678 7.671 -1.843 0.16
-1.703 7.667 -1.843 0.16
-1.728 7.666 -1.844 0.16
-1.752 7.662 -1.845 0.17
-1.778 7.662 -1.846 0.16
-1.799 7.645 -1.843 0.16
-1.815 7.659 -1.847 0.16
-1.837 7.644 -1.845 0.16
-1.861 7.637 -1.845 0.16
-1.887 7.64 -1.847 0.18
-1.911 7.636 -1.847 0.17
-1.933 7.621 -1.845 0.16
-1.956 7.611 -1.844 0.04
-1.982 7.612 -1.846 0.08
-1.998 7.626 -1.85 0.15
-2.021 7.616 -1.849 0.16
-2.04 7.591 -1.845 0.04
-2.066 7.592 -1.846 0.07
-2.096 7.609 -1.853 0.08
-2.116 7.586 -1.848 0.16
-2.135 7.563 -1.844 0.04
-2.155 7.587 -1.851 0.08
-2.174 7.564 -1.847 0.04
-2.197 7.557 -1.847 0.07
-2.223 7.557 -1.849 0.08
-2.249 7.558 -1.851 0.08
-2.273 7.551 -1.851 0.08
-2.295 7.538 -1.849 0.08
-2.308 7.54 -1.851 0.08
-2.33 7.527 -1.849 0.08
-2.356 7.525 -1.851 0.09
-2.375 7.505 -1.847 0.04
-2.404 7.514 -1.852 0.07
-2.429 7.51 -1.853 0.08
-2.453 7.504 -1.853 0.08
-2.476 7.493 -1.852 0.09
-2.485 7.483 -1.851 0.08
-2.515 7.492 -1.855 0.08
-2.534 7.471 -1.852 0.08
-2.558 7.467 -1.853 0.08
-2.586 7.47 -1.856 0.08
-2.606 7.452 -1.853 0.08
-2.626 7.435 -1.851 0.16
-2.641 7.44 -1.853 0.16
-2.661 7.423 -1.851 0.16
-2.683 7.411 -1.85 0.16
-2.711 7.415 -1.853 0.16
-2.729 7.392 -1.849 0.17
-2.751 7.38 -1.848 0.04
-2.776 7.376 -1.85 0.16
-2.783 7.361 -1.847 0.18
-2.806 7.35 -1.846 0.09
-2.839 7.369 -1.854 0.17
-2.855 7.34 -1.848 0.21
-2.878 7.331 -1.848 0.18
-2.904 7.329 -1.85 0.24
-2.922 7.309 -1.847 0.22
-2.951 7.314 -1.851 0.18
-2.962 7.308 -1.851 0.27
-2.983 7.295 -1.85 0.24
-3.006 7.285 -1.85 0.2
-3.03 7.278 -1.85 0.14
-3.057 7.277 -1.853 0.2
-3.086 7.284 -1.857 0.13
-3.108 7.27 -1.856 0.29
-3.118 7.264 -1.856 0.22
-3.146 7.266 -1.859 0.2
-3.158 7.231 -1.852 0.06
-3.192 7.246 -1.859 0.17
-3.211 7.227 -1.857 0.2
-3.242 7.235 -1.861 0.17
-3.263 7.221 -1.861 0.17
-3.284 7.207 -1.86 0.16
-3.29 7.192 -1.857 0.04
-3.309 7.174 -1.855 0.07
-3.33 7.16 -1.854 0.04
-3.364 7.174 -1.861 0.07
-3.378 7.144 -1.855 0.04
-3.406 7.146 -1.859 0.07
-3.428 7.134 -1.858 0.04
-3.437 7.125 -1.857 0.0
-3.461 7.117 -1.858 0.0
-3.481 7.101 -1.857 0.0
-3.498 7.08 -1.854 0.0
-3.519 7.065 -1.853 0.0
-3.551 7.075 -1.859 0.0
-3.569 7.055 -1.856 0.0
-3.582 7.053 -1.857 0.0
-3.609 7.052 -1.86 0.0
-3.624 7.027 -1.856 0.0
-3.646 7.016 -1.856 0.0
-3.666 6.999 -1.855 0.0
-3.692 6.996 -1.857 0.0
-3.709 6.974 -1.854 0.0
-3.733 6.994 -1.861 0.0
-3.746 6.965 -1.857 0.0
-3.772 6.96 -1.859 0.0
-3.796 6.953 -1.86 0.0
-3.811 6.928 -1.856 0.0
-3.836 6.922 -1.858 0.0
-3.867 6.927 -1.863 0.0
-3.88 6.898 -1.858 0.0
-3.889 6.889 -1.857 0.0
-3.921 6.895 -1.862 0.0
-3.937 6.873 -1.86 0.0
-3.959 6.862 -1.86 0.0
-3.996 6.876 -1.868 0.0
-3.999 6.832 -1.859 0.0
-4.039 6.851 -1.868 0.0
-4.034 6.818 -1.86 0.0
-4.05 6.795 -1.857 0.0
-4.094 6.821 -1.868 0.0
-4.116 6.808 -1.868 0.0
-4.113 6.755 -1.857 0.0
-4.155 6.777 -1.867 0.0
-4.161 6.739 -1.86 0.0
-4.179 6.744 -1.863 0.0
-4.2 6.731 -1.863 0.0
-4.231 6.732 -1.867 0.0
-4.233 6.69 -1.859 0.0
-4.269 6.699 -1.865 0.0
-4.29 6.686 -1.865 0.0
-4.313 6.675 -1.866 0.0
-4.326 6.673 -1.868 0.0
-4.33 6.634 -1.86 0.0
-4.356 6.628 -1.862 0.0
-4.374 6.61 -1.861 0.0
-4.41 6.619 -1.868 0.0
-4.426 6.598 -1.866 0.0
-4.456 6.597 -1.87 0.0
-4.456 6.553 -1.861 0.0
-4.481 6.568 -1.867 0.0
-4.506 6.56 -1.869 0.0
-4.525 6.543 -1.868 0.0
-4.535 6.514 -1.864 0.0
-4.55 6.492 -1.861 0.0
-4.585 6.498 -1.868 0.0
-4.587 6.459 -1.86 0.0
-4.613 6.474 -1.867 0.0
-4.617 6.436 -1.86 0.0
-4.65 6.44 -1.865 0.0
-4.651 6.399 -1.857 0.0
-4.699 6.421 -1.869 0.0
-4.699 6.38 -1.861 0.0
-4.71 6.353 -1.857 0.03
-4.726 6.353 -1.859 0.03
-4.745 6.337 -1.859 0.03
-4.763 6.32 -1.858 0.03
-4.788 6.312 -1.86 0.03
-4.802 6.289 -1.858 0.03
-4.826 6.28 -1.86 0.03
-4.846 6.265 -1.86 0.03
-4.861 6.243 -1.858 0.03
-4.875 6.242 -1.86 0.03
-4.891 6.222 -1.858 0.04
-4.909 6.203 -1.857 0.03
-4.926 6.185 -1.856 0.04
-4.947 6.172 -1.857 0.07
-4.958 6.146 -1.854 0.04
-4.981 6.135 -1.855 0.04
-4.997 6.135 -1.858 0.04
-5.0 6.1 -1.851 0.04
-5.032 6.099 -1.856 0.04
-5.057 6.09 -1.859 0.07
-5.067 6.064 -1.855 0.04
-5.09 6.053 -1.857 0.07
-5.104 6.031 -1.855 0.04
-5.132 6.025 -1.858 0.07
-5.125 5.998 -1.852 0.04
-5.151 5.99 -1.855 0.07
-5.166 5.97 -1.853 0.04
-5.19 5.959 -1.855 0.07
-5.208 5.942 -1.855 0.04
-5.224 5.922 -1.854 0.07
-5.236 5.899 -1.851 0.04
-5.25 5.896 -1.853 0.07
-5.261 5.871 -1.85 0.04
-5.288 5.865 -1.854 0.07
-5.302 5.842 -1.852 0.04
-5.327 5.833 -1.854 0.07
-5.334 5.804 -1.85 0.04
-5.358 5.793 -1.852 0.07
-5.36 5.778 -1.85 0.04
-5.386 5.769 -1.853 0.07
-5.396 5.744 -1.85 0.04
-5.416 5.728 -1.85 0.07
-5.43 5.707 -1.849 0.04
-5.453 5.696 -1.851 0.07
-5.46 5.667 -1.847 0.04
-5.481 5.671 -1.851 0.07
-5.5 5.655 -1.852 0.04
-5.502 5.622 -1.846 0.04
-5.533 5.618 -1.851 0.07
-5.545 5.595 -1.849 0.04
-5.568 5.583 -1.851 0.07
-5.571 5.551 -1.845 0.04
-5.598 5.543 -1.849 0.07
-5.599 5.527 -1.846 0.04
-5.617 5.509 -1.846 0.07
-5.64 5.497 -1.848 0.04
-5.639 5.462 -1.842 0.0
-5.668 5.456 -1.846 0.0
-5.679 5.432 -1.844 0.0
-5.693 5.411 -1.843 0.0
-5.707 5.408 -1.845 0.0
-5.721 5.387 -1.844 0.0
-5.739 5.37 -1.845 0.0
-5.756 5.352 -1.845 0.0
-5.777 5.338 -1.846 0.0
-5.78 5.307 -1.841 0.0
-5.809 5.3 -1.845 0.0
-5.82 5.294 -1.846 0.0
-5.843 5.281 -1.848 0.0
-5.835 5.24 -1.84 0.0
-5.872 5.24 -1.847 0.0
-5.876 5.211 -1.843 0.0
-5.909 5.207 -1.848 0.0
-5.915 5.179 -1.845 0.0
-5.914 5.162 -1.842 0.0
-5.944 5.155 -1.846 0.0
-5.967 5.143 -1.849 0.0
-5.98 5.122 -1.848 0.0
-5.977 5.086 -1.842 0.0
-6.015 5.086 -1.849 0.0
-5.998 5.04 -1.838 0.0
-6.046 5.047 -1.848 0.0
-6.033 5.02 -1.842 0.0
-6.042 4.997 -1.84 0.0
-6.064 4.982 -1.842 0.0
-6.077 4.961 -1.841 0.03
-6.085 4.936 -1.838 0.03
-6.097 4.914 -1.837 0.03
-6.116 4.897 -1.838 0.03
-6.11 4.877 -1.834 0.03
-6.135 4.866 -1.837 0.04
-6.143 4.841 -1.835 0.03
-6.163 4.825 -1.836 0.03
-6.17 4.8 -1.834 0.03
-6.187 4.782 -1.834 0.03
-6.2 4.761 -1.834 0.04
-6.205 4.749 -1.833 0.04
-6.217 4.727 -1.832 0.04
-6.228 4.705 -1.831 0.07
-6.251 4.691 -1.833 0.04
-6.272 4.676 -1.835 0.07
-6.286 4.656 -1.835 0.14
-6.277 4.62 -1.828 0.04
-6.305 4.625 -1.834 0.07
-6.305 4.594 -1.83 0.15
-6.326 4.579 -1.832 0.16
-6.344 4.562 -1.833 0.17
-6.355 4.539 -1.832 0.17
-6.364 4.516 -1.83 0.17
-6.377 4.495 -1.83 0.16
-6.377 4.465 -1.826 0.04
-6.409 4.472 -1.833 0.14
-6.41 4.444 -1.829 0.05
-6.439 4.433 -1.834 0.16
-6.43 4.398 -1.827 0.05
-6.455 4.385 -1.83 0.16
-6.459 4.358 -1.828 0.05
-6.484 4.346 -1.831 0.15
-6.493 4.336 -1.831 0.05
-6.513 4.32 -1.833 0.17
-6.518 4.294 -1.831 0.05
-6.54 4.279 -1.833 0.16
-6.547 4.254 -1.831 0.05
-6.557 4.232 -1.83 0.16
-6.572 4.212 -1.831 0.2
-6.58 4.203 -1.831 0.09
-6.608 4.192 -1.836 0.16
-6.6 4.157 -1.829 0.05
-6.632 4.149 -1.835 0.17
-6.655 4.134 -1.838 0.2
-6.655 4.105 -1.834 0.18
-6.67 4.085 -1.835 0.1
-6.691 4.069 -1.837 0.17
-6.68 4.049 -1.832 0.05
-6.701 4.033 -1.835 0.16
-6.722 4.017 -1.837 0.11
-6.743 4.0 -1.84 0.16
-6.732 3.965 -1.833 0.05
-6.758 3.952 -1.837 0.18
-6.771 3.931 -1.837 0.21
-6.778 3.921 -1.837 0.09
-6.801 3.906 -1.84 0.16
-6.8 3.877 -1.836 0.05
-6.829 3.865 -1.841 0.16
-6.829 3.837 -1.838 0.05
-6.848 3.819 -1.84 0.16
-6.861 3.798 -1.84 0.2
-6.869 3.788 -1.841 0.09
-6.896 3.775 -1.845 0.16
-6.891 3.744 -1.84 0.05
-6.911 3.727 -1.843 0.17
-6.918 3.703 -1.841 0.05
-6.943 3.688 -1.845 0.16
-6.95 3.664 -1.844 0.05
-6.958 3.64 -1.843 0.15
-6.956 3.626 -1.841 0.05
-6.99 3.615 -1.847 0.16
-6.986 3.585 -1.843 0.05
-7.004 3.567 -1.845 0.16
-7.033 3.553 -1.849 0.2
-7.035 3.527 -1.847 0.09
-7.06 3.512 -1.851 0.09
-7.066 3.501 -1.851 0.15
-7.057 3.469 -1.845 0.05
-7.08 3.453 -1.849 0.17
-7.081 3.426 -1.846 0.19
-7.09 3.402 -1.845 0.04
-7.116 3.388 -1.85 0.16
-7.118 3.361 -1.847 0.05
-7.136 3.356 -1.851 0.16
-7.15 3.335 -1.852 0.2
-7.153 3.309 -1.85 0.1
-7.177 3.293 -1.854 0.15
-7.154 3.255 -1.845 0.05
-7.187 3.243 -1.851 0.16
-7.205 3.224 -1.853 0.2
-7.197 3.207 -1.849 0.09
-7.216 3.188 -1.852 0.08
-7.221 3.163 -1.85 0.08
-7.25 3.149 -1.856 0.0
-7.235 3.116 -1.849 0.0
-7.252 3.096 -1.851 0.0
-7.269 3.076 -1.853 0.0
-7.279 3.067 -1.854 0.0
-7.299 3.048 -1.857 0.0
-7.713 1.978 -1.87 0.0
-7.718 1.967 -1.871 0.0
-7.73 1.944 -1.872 0.0
-7.728 1.918 -1.87 0.03
-7.718 1.889 -1.866 0.03
-7.737 1.868 -1.869 0.15
-7.727 1.84 -1.865 0.05
-7.76 1.822 -1.872 0.17
-7.742 1.805 -1.867 0.05
-7.764 1.785 -1.871 0.17
-7.755 1.757 -1.867 0.05
-7.789 1.739 -1.875 0.16
-7.766 1.708 -1.867 0.05
-7.79 1.688 -1.872 0.16
-7.78 1.66 -1.868 0.05
-7.794 1.65 -1.871 0.16
-7.793 1.625 -1.87 0.05
-7.816 1.604 -1.874 0.16
-7.794 1.574 -1.867 0.05
-7.824 1.554 -1.874 0.16
-7.811 1.526 -1.869 0.05
-7.833 1.505 -1.874 0.16
-7.839 1.493 -1.875 0.18
-7.821 1.464 -1.869 0.04
-7.831 1.441 -1.87 0.14
-7.851 1.419 -1.874 0.18
-7.857 1.395 -1.875 0.18
-7.86 1.37 -1.874 0.16
-7.86 1.344 -1.873 0.16
-7.864 1.332 -1.874 0.16
-7.857 1.306 -1.871 0.04
-7.876 1.283 -1.875 0.15
-7.903 1.262 -1.88 0.26
-7.896 1.236 -1.878 0.28
-7.905 1.212 -1.879 0.28
-7.905 1.186 -1.878 0.21
-7.905 1.161 -1.877 0.14
-7.93 1.152 -1.883 0.09
-7.928 1.126 -1.881 0.04
-7.937 1.102 -1.883 0.07
-7.941 1.077 -1.883 0.04
-7.946 1.052 -1.883 0.07
-7.953 1.028 -1.884 0.04
-7.947 1.002 -1.882 0.04
-7.965 0.991 -1.886 0.07
-7.945 0.963 -1.88 0.04
-7.964 0.94 -1.884 0.03
-7.971 0.916 -1.885 0.03
-7.971 0.89 -1.885 0.04
-7.988 0.867 -1.888 0.03
-7.998 0.842 -1.89 0.03
-7.978 0.828 -1.885 0.04
-7.975 0.802 -1.883 0.04
-7.999 0.779 -1.889 0.03
-7.984 0.752 -1.884 0.03
-7.988 0.727 -1.885 0.03
-7.996 0.703 -1.886 0.03
-7.992 0.677 -1.885 0.03
-7.989 0.652 -1.883 0.04
-8.007 0.64 -1.888 0.03
-8.001 0.615 -1.886 0.03
-7.997 0.589 -1.884 0.03
-7.999 0.564 -1.884 0.03
