# .PCD v.7 - Point Cloud Data file format
VERSION .7
FIELDS x y z intensity
SIZE 4 4 4 4
TYPE F F F F
COUNT 1 1 1 1
WIDTH 1951
HEIGHT 1
VIEWPOINT 0 0 0 1 0 0 0
POINTS 1951
DATA ascii
-2.236 -5.815 -1.731 0.28
-2.213 -5.81 -1.727 0.25
-2.195 -5.816 -1.727 0.19
-2.183 -5.813 -1.725 0.26
-2.166 -5.823 -1.726 0.24
-2.149 -5.834 -1.727 0.26
-2.138 -5.86 -1.733 0.25
-2.131 -5.897 -1.743 0.28
-2.119 -5.924 -1.749 0.28
-2.113 -5.936 -1.752 0.27
-2.096 -5.948 -1.754 0.28
-2.077 -5.953 -1.753 0.27
-2.055 -5.95 -1.751 0.3
-2.036 -5.955 -1.75 0.22
-2.02 -5.97 -1.753 0.31
-1.997 -5.962 -1.748 0.25
-1.979 -5.942 -1.741 0.27
-1.959 -5.942 -1.739 0.25
-1.932 -5.925 -1.732 0.25
-1.942 -6.018 -1.759 0.34
-1.919 -6.012 -1.755 0.34
-1.897 -6.007 -1.752 0.31
-1.878 -6.015 -1.752 0.3
-1.863 -6.031 -1.756 0.37
-1.848 -6.016 -1.75 0.33
-1.827 -6.016 -1.748 0.29
-1.802 -6.0 -1.741 0.27
-1.773 -5.973 -1.731 0.2
-1.752 -5.971 -1.729 0.27
-1.731 -5.969 -1.727 0.24
-1.709 -5.963 -1.723 0.17
-1.704 -5.981 -1.728 0.27
-1.679 -5.966 -1.721 0.19
-1.657 -5.958 -1.717 0.23
-1.635 -5.952 -1.714 0.18
-1.615 -5.954 -1.713 0.24
-1.597 -5.959 -1.713 0.19
-1.575 -5.954 -1.71 0.24
-1.567 -5.961 -1.711 0.19
-1.548 -5.964 -1.711 0.25
-1.521 -5.937 -1.701 0.18
-1.504 -5.949 -1.703 0.25
-1.487 -5.959 -1.705 0.2
-1.455 -5.914 -1.69 0.23
-1.432 -5.9 -1.684 0.21
-1.435 -5.95 -1.699 0.23
-1.413 -5.94 -1.694 0.24
-1.396 -5.954 -1.697 0.18
-1.381 -5.973 -1.702 0.24
-1.364 -5.985 -1.704 0.18
-1.343 -5.981 -1.702 0.24
-1.324 -5.984 -1.701 0.19
-1.314 -5.982 -1.7 0.25
-1.296 -5.992 -1.702 0.19
-1.275 -5.983 -1.698 0.24
-1.256 -5.987 -1.698 0.22
-1.236 -5.987 -1.696 0.18
-1.219 -5.998 -1.699 0.27
-1.197 -5.989 -1.695 0.23
-1.189 -5.996 -1.696 0.2
-1.168 -5.989 -1.693 0.25
-1.149 -5.989 -1.692 0.24
-1.13 -5.994 -1.692 0.19
-1.111 -5.996 -1.692 0.27
-1.091 -5.996 -1.691 0.25
-1.071 -5.991 -1.688 0.19
-1.063 -5.999 -1.69 0.27
-1.043 -5.996 -1.688 0.24
-1.024 -6.0 -1.688 0.19
-1.004 -5.993 -1.686 0.27
-0.986 -6.004 -1.688 0.22
-0.967 -6.005 -1.687 0.18
-0.947 -6.003 -1.686 0.26
-0.938 -6.004 -1.686 0.23
-0.917 -5.994 -1.682 0.19
-0.898 -5.997 -1.682 0.26
-0.88 -6.003 -1.683 0.25
-0.861 -6.006 -1.683 0.19
-0.84 -5.997 -1.679 0.26
-0.82 -5.988 -1.676 0.22
-0.802 -6.002 -1.679 0.25
-0.792 -5.998 -1.678 0.2
-0.765 -5.938 -1.659 0.24
-0.749 -5.963 -1.666 0.23
-0.734 -5.996 -1.675 0.19
-0.716 -6.0 -1.675 0.26
-0.698 -6.008 -1.677 0.23
-0.679 -6.01 -1.677 0.18
-0.669 -6.003 -1.675 0.27
-0.65 -6.011 -1.676 0.23
-0.63 -6.002 -1.673 0.18
-0.612 -6.007 -1.674 0.27
-0.592 -6.004 -1.672 0.24
-0.573 -6.005 -1.672 0.18
-0.554 -6.001 -1.671 0.27
-0.545 -6.002 -1.671 0.23
-0.526 -6.006 -1.671 0.18
-0.507 -6.006 -1.671 0.27
-0.487 -5.998 -1.668 0.25
-0.468 -5.997 -1.667 0.19
-0.449 -6.001 -1.668 0.26
-0.431 -6.006 -1.669 0.24
-0.421 -6.003 -1.668 0.18
-0.402 -5.998 -1.666 0.26
-0.384 -6.007 -1.668 0.23
-0.365 -6.006 -1.668 0.19
-0.345 -6.004 -1.667 0.27
-0.327 -6.007 -1.667 0.23
-0.307 -5.992 -1.663 0.16
-0.298 -6.008 -1.667 0.28
-0.279 -5.999 -1.664 0.25
-0.26 -6.0 -1.664 0.19
-0.241 -6.003 -1.665 0.28
-0.223 -6.006 -1.666 0.25
-0.204 -6.006 -1.666 0.19
-0.185 -6.014 -1.668 0.28
-0.175 -5.996 -1.662 0.23
-0.156 -5.994 -1.662 0.18
-0.137 -5.997 -1.662 0.26
-0.119 -6.01 -1.666 0.23
-0.1 -5.995 -1.662 0.18
-0.081 -6.007 -1.665 0.26
-0.062 -6.002 -1.663 0.23
-0.053 -6.008 -1.665 0.2
-0.034 -5.992 -1.66 0.13
-0.015 -5.96 -1.651 0.2
0.004 -5.981 -1.657 0.18
0.023 -6.004 -1.664 0.28
0.042 -5.998 -1.662 0.23
0.061 -6.011 -1.666 0.23
0.07 -5.988 -1.659 0.18
0.089 -6.005 -1.664 0.28
0.108 -5.997 -1.662 0.25
0.127 -6.01 -1.666 0.18
0.145 -6.002 -1.664 0.27
0.164 -6.004 -1.664 0.25
0.183 -5.995 -1.662 0.16
0.202 -6.016 -1.668 0.29
0.211 -5.989 -1.66 0.24
0.23 -5.99 -1.661 0.17
0.249 -6.006 -1.666 0.28
0.268 -6.004 -1.666 0.24
0.287 -6.005 -1.666 0.16
0.306 -6.01 -1.668 0.29
0.324 -5.995 -1.664 0.24
0.334 -5.997 -1.664 0.17
0.354 -6.011 -1.669 0.29
0.372 -5.998 -1.666 0.25
0.391 -6.005 -1.668 0.19
0.411 -6.013 -1.671 0.28
0.428 -5.994 -1.666 0.25
0.438 -5.999 -1.667 0.19
0.457 -6.004 -1.669 0.28
0.475 -5.983 -1.663 0.23
0.495 -5.999 -1.668 0.19
0.514 -6.005 -1.671 0.27
0.532 -5.99 -1.667 0.24
0.551 -5.988 -1.667 0.18
0.57 -5.992 -1.668 0.26
0.578 -5.978 -1.664 0.2
0.599 -5.995 -1.67 0.25
0.618 -5.997 -1.671 0.2
0.636 -5.986 -1.668 0.25
0.654 -5.978 -1.667 0.18
0.671 -5.959 -1.662 0.23
0.691 -5.968 -1.665 0.2
0.698 -5.942 -1.658 0.21
0.715 -5.928 -1.654 0.19
0.733 -5.918 -1.652 0.21
0.758 -5.966 -1.667 0.09
0.773 -5.935 -1.658 0.04
0.796 -5.97 -1.67 0.07
0.815 -5.971 -1.671 0.04
0.825 -5.974 -1.672 0.04
0.844 -5.973 -1.672 0.03
0.862 -5.965 -1.671 0.03
0.883 -5.975 -1.675 0.07
0.9 -5.959 -1.671 0.04
0.92 -5.964 -1.673 0.07
0.936 -5.942 -1.667 0.04
0.947 -5.958 -1.672 0.07
0.966 -5.957 -1.673 0.08
0.984 -5.946 -1.671 0.04
1.005 -5.96 -1.676 0.07
1.02 -5.932 -1.668 0.04
1.043 -5.954 -1.676 0.07
1.061 -5.948 -1.675 0.04
1.071 -5.95 -1.676 0.07
1.091 -5.953 -1.678 0.04
1.111 -5.959 -1.681 0.0
1.127 -5.94 -1.676 0.0
1.152 -5.97 -1.687 0.0
1.167 -5.946 -1.68 0.0
1.184 -5.935 -1.678 0.0
1.195 -5.94 -1.68 0.0
1.217 -5.954 -1.686 0.0
1.236 -5.952 -1.686 0.05
1.268 -6.012 -1.706 0.15
1.289 -6.015 -1.708 0.1
1.304 -5.996 -1.703 0.09
1.324 -5.997 -1.705 0.09
1.33 -5.98 -1.7 0.09
1.352 -5.987 -1.704 0.0
1.362 -5.946 -1.692 0.0
1.378 -5.928 -1.688 0.0
1.384 -5.872 -1.672 0.0
1.4 -5.856 -1.669 0.0
1.415 -5.837 -1.664 0.0
1.426 -5.84 -1.666 0.0
1.442 -5.826 -1.663 0.0
1.46 -5.822 -1.663 0.0
1.481 -5.828 -1.667 0.0
1.498 -5.82 -1.666 0.0
1.537 -5.895 -1.69 0.0
1.563 -5.92 -1.699 0.0
1.58 -5.909 -1.698 0.0
1.587 -5.896 -1.694 0.0
1.619 -5.943 -1.71 0.0
1.632 -5.915 -1.703 0.0
2.545 -5.376 -1.647 0.0
2.554 -5.353 -1.642 0.02
2.596 -5.418 -1.665 0.11
2.601 -5.386 -1.657 0.21
2.605 -5.35 -1.648 0.25
2.637 -5.373 -1.658 0.25
2.649 -5.356 -1.655 0.29
2.66 -5.335 -1.651 0.31
2.677 -5.327 -1.651 0.27
2.693 -5.317 -1.651 0.2
2.681 -5.273 -1.638 0.19
2.699 -5.267 -1.638 0.25
2.713 -5.255 -1.637 0.25
2.741 -5.268 -1.645 0.27
2.764 -5.271 -1.649 0.26
2.773 -5.247 -1.643 0.25
2.785 -5.232 -1.641 0.28
2.795 -5.231 -1.642 0.33
2.826 -5.249 -1.651 0.35
2.838 -5.232 -1.649 0.33
2.854 -5.221 -1.648 0.27
2.873 -5.217 -1.65 0.33
2.885 -5.2 -1.647 0.26
2.89 -5.19 -1.645 0.3
2.918 -5.203 -1.653 0.36
2.92 -5.167 -1.643 0.29
2.934 -5.154 -1.642 0.36
2.947 -5.139 -1.64 0.31
2.946 -5.099 -1.63 0.27
2.979 -5.12 -1.64 0.29
3.003 -5.143 -1.65 0.31
3.036 -5.162 -1.659 0.49
3.041 -5.134 -1.653 0.35
3.055 -5.122 -1.652 0.25
3.061 -5.094 -1.646 0.23
3.074 -5.079 -1.644 0.34
3.101 -5.088 -1.65 0.37
3.121 -5.086 -1.653 0.3
3.133 -5.088 -1.655 0.29
3.157 -5.091 -1.66 0.29
3.174 -5.083 -1.66 0.29
3.206 -5.097 -1.669 0.37
3.217 -5.08 -1.667 0.34
3.248 -5.093 -1.675 0.24
3.264 -5.083 -1.675 0.16
3.277 -5.086 -1.678 0.37
3.299 -5.085 -1.681 0.36
3.312 -5.07 -1.679 0.3
3.333 -5.067 -1.682 0.44
3.346 -5.052 -1.68 0.29
3.344 -5.014 -1.671 0.29
3.372 -5.023 -1.678 0.38
3.385 -5.026 -1.68 0.36
3.398 -5.01 -1.679 0.25
3.418 -5.006 -1.681 0.36
3.411 -4.962 -1.669 0.3
3.435 -4.964 -1.674 0.39
3.468 -4.978 -1.683 0.32
3.475 -4.955 -1.678 0.29
3.473 -4.935 -1.673 0.29
3.483 -4.916 -1.67 0.29
3.51 -4.921 -1.676 0.32
3.512 -4.891 -1.669 0.32
3.514 -4.861 -1.662 0.26
3.531 -4.853 -1.663 0.0
3.522 -4.808 -1.651 0.0
3.478 -4.733 -1.625 0.0
3.367 -4.55 -1.562 0.0
3.327 -4.466 -1.535 0.0
3.343 -4.458 -1.536 0.0
3.357 -4.448 -1.536 0.0
3.374 -4.44 -1.537 0.0
3.396 -4.44 -1.541 0.0
3.411 -4.446 -1.545 0.03
3.432 -4.444 -1.548 0.04
3.462 -4.454 -1.556 0.14
3.484 -4.454 -1.56 0.18
3.503 -4.449 -1.562 0.09
3.538 -4.465 -1.573 0.16
3.564 -4.469 -1.578 0.22
3.578 -4.473 -1.582 0.16
3.602 -4.473 -1.586 0.25
3.63 -4.48 -1.593 0.19
3.653 -4.479 -1.597 0.24
3.685 -4.49 -1.606 0.2
3.698 -4.477 -1.605 0.12
3.717 -4.471 -1.608 0.2
3.737 -4.481 -1.614 0.11
3.759 -4.479 -1.617 0.2
3.785 -4.481 -1.623 0.11
3.808 -4.48 -1.627 0.19
3.827 -4.474 -1.629 0.11
3.862 -4.486 -1.639 0.2
3.876 -4.474 -1.639 0.11
3.89 -4.477 -1.642 0.19
3.916 -4.478 -1.647 0.11
3.937 -4.474 -1.651 0.2
3.963 -4.475 -1.656 0.11
3.979 -4.465 -1.657 0.17
3.988 -4.447 -1.655 0.05
4.02 -4.454 -1.663 0.17
4.021 -4.441 -1.66 0.05
4.05 -4.445 -1.667 0.17
4.072 -4.441 -1.67 0.2
4.08 -4.422 -1.668 0.17
4.101 -4.417 -1.671 0.23
4.107 -4.395 -1.667 0.19
4.108 -4.368 -1.662 0.23
4.129 -4.364 -1.665 0.17
4.133 -4.355 -1.664 0.05
4.147 -4.342 -1.664 0.17
4.171 -4.34 -1.668 0.2
4.188 -4.329 -1.67 0.1
4.206 -4.322 -1.672 0.17
4.24 -4.329 -1.68 0.23
4.302 -4.365 -1.701 0.2
4.327 -4.377 -1.709 0.32
4.336 -4.358 -1.707 0.28
4.348 -4.343 -1.706 0.33
4.348 -4.316 -1.7 0.28
4.366 -4.306 -1.702 0.26
4.379 -4.293 -1.702 0.18
4.401 -4.287 -1.706 0.27
4.412 -4.284 -1.707 0.25
4.423 -4.268 -1.706 0.27
4.425 -4.243 -1.702 0.27
4.448 -4.238 -1.706 0.27
4.454 -4.218 -1.703 0.27
4.456 -4.193 -1.698 0.26
4.469 -4.179 -1.698 0.25
4.472 -4.168 -1.696 0.23
4.464 -4.134 -1.688 0.29
4.492 -4.135 -1.694 0.16
4.501 -4.117 -1.692 0.21
4.493 -4.083 -1.684 0.14
4.542 -4.103 -1.699 0.3
4.541 -4.075 -1.693 0.25
4.539 -4.061 -1.69 0.27
4.555 -4.049 -1.691 0.27
4.577 -4.043 -1.695 0.29
4.607 -4.044 -1.702 0.26
4.605 -4.017 -1.696 0.18
4.628 -4.011 -1.7 0.3
4.648 -4.003 -1.703 0.21
4.647 -3.99 -1.7 0.23
4.667 -3.981 -1.703 0.32
4.682 -3.969 -1.704 0.36
4.689 -3.949 -1.702 0.29
4.694 -3.928 -1.699 0.32
4.712 -3.919 -1.701 0.33
4.741 -3.917 -1.707 0.26
4.733 -3.899 -1.702 0.27
4.744 -3.883 -1.702 0.29
4.756 -3.868 -1.702 0.33
4.762 -3.848 -1.699 0.29
4.773 -3.832 -1.699 0.29
4.772 -3.806 -1.694 0.29
4.767 -3.778 -1.687 0.21
4.775 -3.771 -1.688 0.27
4.774 -3.747 -1.683 0.25
4.794 -3.738 -1.686 0.25
4.804 -3.722 -1.686 0.17
4.812 -3.704 -1.684 0.29
4.83 -3.694 -1.687 0.25
4.846 -3.682 -1.688 0.26
4.86 -3.68 -1.691 0.25
4.861 -3.657 -1.687 0.17
4.874 -3.643 -1.688 0.29
4.879 -3.623 -1.686 0.25
4.881 -3.601 -1.682 0.25
4.901 -3.592 -1.686 0.27
4.934 -3.592 -1.694 0.26
4.983 -3.616 -1.71 0.27
4.99 -3.597 -1.708 0.3
4.994 -3.576 -1.705 0.25
5.017 -3.569 -1.71 0.29
5.027 -3.552 -1.709 0.32
5.035 -3.534 -1.708 0.29
5.058 -3.527 -1.712 0.25
5.087 -3.524 -1.719 0.31
5.073 -3.502 -1.712 0.29
5.059 -3.469 -1.703 0.29
5.042 -3.434 -1.692 0.26
5.065 -3.426 -1.697 0.2
5.062 -3.401 -1.692 0.29
5.083 -3.392 -1.696 0.36
5.088 -3.372 -1.694 0.32
5.086 -3.36 -1.691 0.0
5.038 -3.305 -1.67 0.0
4.829 -3.144 -1.592 0.0
4.646 -3.004 -1.524 0.02
4.647 -2.984 -1.521 0.11
4.671 -2.978 -1.526 0.17
4.698 -2.975 -1.532 0.17
4.719 -2.978 -1.538 0.25
4.764 -2.986 -1.551 0.23
4.809 -2.993 -1.563 0.27
4.859 -3.003 -1.577 0.27
4.903 -3.009 -1.589 0.29
4.924 -3.001 -1.593 0.3
4.963 -3.004 -1.604 0.29
4.997 -3.014 -1.614 0.25
5.021 -3.007 -1.619 0.18
5.052 -3.004 -1.626 0.3
5.068 -2.992 -1.629 0.25
5.102 -2.991 -1.637 0.19
5.119 -2.98 -1.64 0.26
5.127 -2.962 -1.639 0.19
5.152 -2.966 -1.646 0.25
5.186 -2.964 -1.655 0.21
5.179 -2.938 -1.649 0.26
5.181 -2.918 -1.647 0.32
5.184 -2.898 -1.645 0.31
5.179 -2.874 -1.64 0.27
5.209 -2.88 -1.649 0.23
5.295 -2.907 -1.675 0.2
5.333 -2.906 -1.684 0.45
5.323 -2.879 -1.678 0.27
5.358 -2.876 -1.687 0.35
5.387 -2.87 -1.694 0.3
5.389 -2.849 -1.691 0.45
5.391 -2.829 -1.689 0.44
5.382 -2.813 -1.684 0.32
5.411 -2.807 -1.691 0.38
5.425 -2.793 -1.693 0.3
5.425 -2.771 -1.69 0.26
5.443 -2.758 -1.693 0.26
5.46 -2.746 -1.696 0.38
5.407 -2.697 -1.675 0.31
5.387 -2.677 -1.667 0.26
5.431 -2.678 -1.679 0.33
5.399 -2.64 -1.666 0.31
5.391 -2.616 -1.66 0.29
5.382 -2.59 -1.655 0.31
5.382 -2.569 -1.652 0.29
5.405 -2.56 -1.657 0.35
5.387 -2.541 -1.65 0.32
5.372 -2.513 -1.642 0.31
5.337 -2.476 -1.628 0.3
5.341 -2.457 -1.627 0.3
5.373 -2.452 -1.635 0.32
5.363 -2.427 -1.629 0.2
5.35 -2.401 -1.622 0.3
5.35 -2.391 -1.621 0.24
5.381 -2.384 -1.629 0.24
5.356 -2.353 -1.618 0.26
5.374 -2.341 -1.622 0.29
5.396 -2.33 -1.626 0.32
5.41 -2.316 -1.629 0.32
5.426 -2.303 -1.631 0.29
5.423 -2.281 -1.628 0.35
5.403 -2.263 -1.621 0.32
5.402 -2.243 -1.618 0.33
5.428 -2.234 -1.624 0.31
5.432 -2.215 -1.623 0.28
5.417 -2.189 -1.616 0.3
5.422 -2.172 -1.615 0.27
5.408 -2.156 -1.61 0.27
5.441 -2.15 -1.618 0.29
5.461 -2.137 -1.622 0.31
5.467 -2.12 -1.622 0.32
5.449 -2.093 -1.614 0.3
5.448 -2.073 -1.612 0.35
5.446 -2.053 -1.609 0.3
5.47 -2.043 -1.615 0.31
5.454 -2.027 -1.609 0.28
5.465 -2.011 -1.61 0.36
5.479 -1.997 -1.613 0.36
5.469 -1.974 -1.608 0.33
5.473 -1.956 -1.607 0.26
5.47 -1.935 -1.604 0.29
5.467 -1.915 -1.601 0.27
5.434 -1.894 -1.59 0.27
5.408 -1.865 -1.58 0.29
5.428 -1.853 -1.584 0.34
5.41 -1.828 -1.577 0.32
5.419 -1.812 -1.578 0.2
5.412 -1.791 -1.574 0.27
5.418 -1.774 -1.574 0.24
5.412 -1.762 -1.571 0.19
5.419 -1.746 -1.572 0.27
5.428 -1.73 -1.573 0.22
5.435 -1.714 -1.573 0.18
5.443 -1.697 -1.574 0.27
5.457 -1.683 -1.577 0.24
5.479 -1.671 -1.582 0.19
5.527 -1.676 -1.596 0.28
5.571 -1.671 -1.608 0.25
5.615 -1.665 -1.62 0.19
5.677 -1.664 -1.638 0.28
5.728 -1.66 -1.652 0.24
5.774 -1.654 -1.664 0.28
5.812 -1.645 -1.675 0.29
5.826 -1.639 -1.678 0.27
5.822 -1.618 -1.675 0.27
5.834 -1.602 -1.678 0.26
5.832 -1.582 -1.675 0.17
5.853 -1.568 -1.68 0.28
5.851 -1.547 -1.678 0.25
5.861 -1.53 -1.68 0.26
5.838 -1.514 -1.672 0.26
5.82 -1.49 -1.665 0.24
5.797 -1.465 -1.657 0.18
5.816 -1.45 -1.661 0.3
5.821 -1.432 -1.661 0.25
5.808 -1.41 -1.656 0.18
5.826 -1.395 -1.66 0.26
5.824 -1.385 -1.659 0.24
5.806 -1.361 -1.652 0.17
5.824 -1.346 -1.656 0.29
5.826 -1.327 -1.655 0.25
5.834 -1.31 -1.657 0.24
5.827 -1.289 -1.653 0.12
5.833 -1.271 -1.654 0.21
5.827 -1.26 -1.651 0.2
5.837 -1.243 -1.653 0.26
5.841 -1.225 -1.653 0.25
5.829 -1.203 -1.649 0.16
5.842 -1.187 -1.651 0.29
5.844 -1.168 -1.651 0.24
5.822 -1.144 -1.643 0.16
5.852 -1.141 -1.651 0.28
5.849 -1.121 -1.65 0.24
5.845 -1.101 -1.647 0.18
5.86 -1.085 -1.651 0.28
5.845 -1.063 -1.645 0.24
5.857 -1.047 -1.648 0.2
5.857 -1.027 -1.647 0.25
5.853 -1.017 -1.645 0.18
5.86 -1.0 -1.646 0.23
5.863 -0.981 -1.646 0.19
5.868 -0.963 -1.647 0.25
5.865 -0.944 -1.645 0.1
5.876 -0.926 -1.647 0.18
5.875 -0.907 -1.646 0.11
5.878 -0.898 -1.647 0.17
5.879 -0.88 -1.646 0.23
5.884 -0.862 -1.647 0.19
5.888 -0.843 -1.647 0.22
5.891 -0.825 -1.647 0.19
5.893 -0.806 -1.647 0.22
5.888 -0.787 -1.645 0.1
5.883 -0.767 -1.643 0.19
5.884 -0.758 -1.643 0.2
5.891 -0.74 -1.644 0.09
5.893 -0.721 -1.644 0.19
5.899 -0.703 -1.645 0.1
5.907 -0.686 -1.647 0.18
5.899 -0.666 -1.644 0.05
5.9 -0.647 -1.643 0.17
5.895 -0.637 -1.642 0.19
5.901 -0.619 -1.643 0.09
5.904 -0.601 -1.643 0.18
5.91 -0.583 -1.645 0.19
5.914 -0.564 -1.645 0.09
5.904 -0.545 -1.642 0.18
5.917 -0.527 -1.645 0.11
5.905 -0.517 -1.641 0.19
5.916 -0.499 -1.644 0.11
5.915 -0.48 -1.643 0.18
5.917 -0.461 -1.643 0.12
5.92 -0.443 -1.644 0.2
5.916 -0.424 -1.642 0.11
5.931 -0.406 -1.646 0.18
5.92 -0.396 -1.643 0.12
5.915 -0.377 -1.641 0.2
5.92 -0.359 -1.642 0.11
5.925 -0.341 -1.643 0.18
5.915 -0.321 -1.64 0.12
5.929 -0.303 -1.644 0.18
5.92 -0.284 -1.641 0.22
5.923 -0.275 -1.642 0.2
5.92 -0.256 -1.641 0.12
5.915 -0.237 -1.639 0.21
5.914 -0.219 -1.638 0.18
5.914 -0.2 -1.638 0.26
5.921 -0.182 -1.64 0.2
5.923 -0.163 -1.641 0.25
5.916 -0.154 -1.638 0.23
5.92 -0.135 -1.639 0.11
5.915 -0.117 -1.638 0.2
5.905 -0.098 -1.635 0.17
5.913 -0.079 -1.637 0.26
5.904 -0.061 -1.634 0.22
5.902 -0.042 -1.634 0.17
5.91 -0.033 -1.636 0.27
5.91 -0.014 -1.636 0.19
5.756 0.004 -1.66 0.2
5.752 0.022 -1.659 0.11
5.759 0.04 -1.661 0.17
5.746 0.058 -1.657 0.21
5.748 0.067 -1.658 0.1
5.772 0.086 -1.665 0.17
5.738 0.103 -1.655 0.11
5.741 0.121 -1.656 0.19
5.748 0.139 -1.658 0.11
5.759 0.158 -1.662 0.18
5.738 0.175 -1.655 0.12
5.759 0.185 -1.662 0.18
5.745 0.203 -1.658 0.12
5.744 0.221 -1.658 0.18
5.741 0.239 -1.657 0.2
5.742 0.257 -1.658 0.16
5.728 0.274 -1.653 0.24
5.746 0.293 -1.659 0.19
5.733 0.301 -1.655 0.12
5.726 0.319 -1.653 0.2
5.731 0.337 -1.655 0.11
5.739 0.356 -1.658 0.17
5.725 0.373 -1.654 0.05
5.737 0.392 -1.658 0.16
5.72 0.409 -1.653 0.11
5.731 0.419 -1.657 0.18
5.714 0.436 -1.652 0.11
5.738 0.456 -1.66 0.16
5.719 0.472 -1.655 0.21
5.71 0.489 -1.652 0.1
5.729 0.509 -1.659 0.18
5.707 0.525 -1.652 0.21
5.71 0.535 -1.653 0.1
5.721 0.554 -1.658 0.14
5.699 0.57 -1.651 0.05
5.727 0.591 -1.661 0.17
5.716 0.608 -1.658 0.2
5.71 0.625 -1.656 0.18
5.712 0.644 -1.658 0.17
5.709 0.652 -1.657 0.16
5.701 0.67 -1.655 0.18
5.703 0.688 -1.656 0.09
5.701 0.706 -1.656 0.09
5.697 0.724 -1.656 0.08
5.7 0.742 -1.658 0.09
5.698 0.76 -1.658 0.08
5.697 0.778 -1.658 0.08
5.696 0.787 -1.658 0.14
5.688 0.804 -1.656 0.17
5.681 0.822 -1.655 0.04
5.698 0.842 -1.661 0.14
5.672 0.857 -1.654 0.05
5.687 0.877 -1.659 0.15
5.671 0.893 -1.655 0.05
5.686 0.905 -1.661 0.14
5.668 0.92 -1.656 0.18
5.671 0.939 -1.658 0.16
5.666 0.956 -1.657 0.16
5.661 0.974 -1.656 0.17
5.662 0.992 -1.658 0.16
5.664 1.011 -1.659 0.17
5.659 1.019 -1.658 0.16
5.652 1.036 -1.657 0.18
5.636 1.051 -1.653 0.04
5.655 1.074 -1.66 0.16
5.629 1.087 -1.653 0.05
5.65 1.109 -1.661 0.15
5.616 1.121 -1.651 0.05
5.641 1.135 -1.659 0.16
5.624 1.15 -1.655 0.18
5.619 1.168 -1.655 0.18
5.615 1.185 -1.655 0.17
5.609 1.202 -1.654 0.17
5.598 1.218 -1.652 0.09
5.615 1.241 -1.658 0.15
5.585 1.243 -1.649 0.21
5.584 1.261 -1.65 0.1
5.594 1.282 -1.655 0.15
5.562 1.293 -1.646 0.05
5.58 1.316 -1.653 0.16
5.574 1.333 -1.652 0.19
5.553 1.346 -1.647 0.1
5.56 1.357 -1.65 0.19
5.546 1.372 -1.647 0.2
5.548 1.391 -1.649 0.1
5.551 1.411 -1.651 0.18
5.539 1.426 -1.649 0.19
5.531 1.442 -1.648 0.1
5.535 1.462 -1.65 0.18
5.527 1.469 -1.649 0.11
5.536 1.49 -1.653 0.18
5.514 1.503 -1.648 0.12
5.515 1.522 -1.649 0.18
5.507 1.538 -1.648 0.11
5.515 1.559 -1.652 0.18
5.51 1.577 -1.652 0.12
5.497 1.592 -1.65 0.2
5.495 1.6 -1.65 0.11
5.503 1.621 -1.654 0.15
5.472 1.631 -1.646 0.24
5.489 1.655 -1.653 0.2
5.469 1.668 -1.648 0.12
5.484 1.691 -1.655 0.18
5.463 1.694 -1.649 0.22
5.478 1.717 -1.655 0.16
5.452 1.728 -1.649 0.26
5.461 1.75 -1.653 0.2
5.436 1.761 -1.647 0.22
5.452 1.785 -1.654 0.2
5.428 1.796 -1.648 0.23
5.439 1.819 -1.653 0.16
5.412 1.819 -1.646 0.25
5.419 1.84 -1.65 0.19
5.412 1.857 -1.649 0.12
5.415 1.877 -1.652 0.15
5.385 1.886 -1.645 0.24
5.407 1.912 -1.653 0.19
5.386 1.924 -1.649 0.23
5.399 1.938 -1.654 0.19
5.381 1.951 -1.65 0.12
5.382 1.97 -1.652 0.18
5.361 1.982 -1.648 0.11
5.366 2.003 -1.651 0.19
5.345 2.014 -1.646 0.11
5.351 2.036 -1.65 0.18
5.334 2.039 -1.646 0.11
5.345 2.062 -1.652 0.21
5.321 2.072 -1.646 0.11
5.341 2.099 -1.655 0.15
5.327 2.113 -1.652 0.23
5.32 2.13 -1.652 0.18
5.3 2.141 -1.648 0.24
5.312 2.156 -1.653 0.19
5.295 2.168 -1.649 0.22
5.302 2.191 -1.654 0.16
5.27 2.197 -1.646 0.24
5.263 2.213 -1.646 0.16
5.265 2.234 -1.649 0.26
5.269 2.255 -1.652 0.18
5.244 2.254 -1.645 0.24
5.249 2.276 -1.649 0.18
5.246 2.294 -1.65 0.23
5.247 2.314 -1.653 0.17
5.214 2.319 -1.645 0.23
5.227 2.345 -1.652 0.17
5.211 2.357 -1.649 0.23
5.225 2.373 -1.655 0.21
5.184 2.374 -1.643 0.12
5.205 2.404 -1.653 0.18
5.175 2.409 -1.645 0.12
5.174 2.429 -1.648 0.21
5.17 2.447 -1.649 0.16
5.157 2.461 -1.647 0.26
5.172 2.478 -1.653 0.2
5.137 2.481 -1.644 0.22
5.129 2.497 -1.644 0.14
5.123 2.514 -1.645 0.28
5.121 2.533 -1.647 0.22
5.117 2.551 -1.648 0.22
5.095 2.56 -1.643 0.25
5.102 2.584 -1.649 0.16
5.085 2.585 -1.644 0.27
5.085 2.605 -1.647 0.18
5.068 2.617 -1.644 0.25
5.059 2.632 -1.643 0.21
5.055 2.65 -1.645 0.19
5.049 2.667 -1.646 0.27
5.034 2.679 -1.643 0.2
5.033 2.689 -1.645 0.25
5.031 2.709 -1.647 0.23
5.014 2.72 -1.644 0.17
5.004 2.735 -1.643 0.26
5.007 2.757 -1.648 0.18
4.983 2.764 -1.642 0.25
4.989 2.788 -1.648 0.23
4.98 2.793 -1.646 0.16
4.963 2.804 -1.643 0.28
4.959 2.823 -1.645 0.24
4.95 2.838 -1.645 0.16
4.933 2.849 -1.642 0.26
4.942 2.875 -1.648 0.19
4.924 2.875 -1.643 0.12
4.938 2.904 -1.652 0.21
4.923 2.916 -1.649 0.17
4.896 2.92 -1.643 0.26
4.901 2.945 -1.648 0.18
4.879 2.952 -1.643 0.25
4.882 2.975 -1.648 0.18
4.863 2.985 -1.645 0.25
4.88 3.005 -1.652 0.18
4.854 3.011 -1.646 0.25
4.857 3.034 -1.651 0.18
4.832 3.039 -1.645 0.24
4.833 3.061 -1.649 0.19
4.814 3.07 -1.646 0.25
4.805 3.085 -1.646 0.23
4.806 3.097 -1.648 0.2
4.79 3.108 -1.646 0.25
4.798 3.135 -1.652 0.2
4.778 3.143 -1.649 0.23
4.783 3.168 -1.654 0.19
4.751 3.168 -1.646 0.22
4.755 3.192 -1.651 0.16
4.736 3.19 -1.646 0.25
4.73 3.208 -1.648 0.16
4.719 3.222 -1.647 0.27
4.723 3.247 -1.652 0.21
4.703 3.255 -1.649 0.12
4.685 3.264 -1.646 0.21
4.682 3.284 -1.649 0.17
4.677 3.292 -1.649 0.26
4.667 3.306 -1.649 0.18
4.658 3.322 -1.649 0.25
4.652 3.34 -1.651 0.21
4.639 3.353 -1.65 0.22
4.626 3.366 -1.649 0.16
4.614 3.379 -1.649 0.27
4.614 3.39 -1.65 0.18
4.598 3.401 -1.649 0.25
4.592 3.419 -1.65 0.18
4.575 3.429 -1.648 0.25
4.581 3.456 -1.655 0.19
4.557 3.46 -1.649 0.12
4.556 3.482 -1.653 0.18
4.537 3.479 -1.648 0.12
4.543 3.506 -1.655 0.18
4.515 3.507 -1.648 0.22
4.527 3.539 -1.657 0.19
4.501 3.542 -1.651 0.12
4.49 3.556 -1.651 0.2
4.483 3.573 -1.653 0.11
4.476 3.579 -1.652 0.18
4.459 3.588 -1.65 0.2
4.456 3.61 -1.653 0.18
4.433 3.614 -1.649 0.23
4.429 3.634 -1.652 0.18
4.413 3.644 -1.65 0.25
4.413 3.668 -1.655 0.18
4.399 3.679 -1.653 0.24
4.403 3.695 -1.658 0.17
4.374 3.694 -1.65 0.13
4.371 3.715 -1.654 0.21
4.358 3.727 -1.653 0.18
4.336 3.732 -1.649 0.26
4.332 3.752 -1.652 0.18
4.31 3.757 -1.648 0.25
4.321 3.779 -1.655 0.18
4.299 3.784 -1.651 0.23
4.299 3.807 -1.656 0.17
4.274 3.809 -1.65 0.24
4.273 3.833 -1.655 0.16
4.247 3.833 -1.649 0.25
4.249 3.86 -1.655 0.2
4.232 3.856 -1.65 0.12
4.221 3.871 -1.651 0.2
4.212 3.886 -1.652 0.17
4.193 3.893 -1.649 0.26
4.192 3.917 -1.654 0.18
4.175 3.926 -1.652 0.24
4.164 3.94 -1.653 0.19
4.148 3.938 -1.649 0.21
4.143 3.957 -1.652 0.15
4.13 3.97 -1.652 0.27
4.12 3.986 -1.653 0.24
4.113 4.004 -1.655 0.22
4.094 4.01 -1.652 0.13
4.079 4.02 -1.651 0.21
4.071 4.026 -1.65 0.16
4.052 4.032 -1.648 0.27
4.043 4.048 -1.649 0.23
4.037 4.068 -1.652 0.18
4.019 4.075 -1.65 0.26
4.015 4.097 -1.654 0.16
3.99 4.097 -1.649 0.27
3.993 4.113 -1.653 0.16
3.974 4.119 -1.65 0.28
3.969 4.14 -1.653 0.21
3.96 4.156 -1.655 0.26
3.939 4.16 -1.652 0.26
3.922 4.169 -1.65 0.35
3.901 4.172 -1.646 0.36
3.898 4.183 -1.648 0.36
3.881 4.191 -1.646 0.36
3.879 4.216 -1.652 0.33
3.855 4.215 -1.646 0.37
3.844 4.23 -1.648 0.33
3.845 4.258 -1.654 0.43
3.821 4.258 -1.649 0.27
3.817 4.267 -1.65 0.3
3.806 4.282 -1.652 0.33
3.782 4.282 -1.647 0.35
3.766 4.291 -1.646 0.37
3.775 4.329 -1.656 0.41
3.746 4.322 -1.649 0.26
3.731 4.333 -1.648 0.33
3.727 4.341 -1.649 0.32
3.715 4.356 -1.65 0.36
3.695 4.36 -1.648 0.33
3.696 4.389 -1.655 0.47
3.668 4.383 -1.648 0.31
3.664 4.407 -1.652 0.21
3.657 4.427 -1.656 0.24
3.648 4.43 -1.655 0.17
3.638 4.446 -1.656 0.25
3.633 4.469 -1.661 0.18
3.611 4.47 -1.657 0.24
3.604 4.49 -1.661 0.17
3.584 4.494 -1.658 0.25
3.573 4.51 -1.659 0.18
3.56 4.523 -1.66 0.25
3.566 4.545 -1.666 0.19
3.533 4.532 -1.657 0.12
3.535 4.564 -1.665 0.2
3.515 4.567 -1.662 0.11
3.503 4.582 -1.663 0.2
3.492 4.597 -1.665 0.11
3.481 4.598 -1.663 0.19
3.468 4.61 -1.664 0.11
3.46 4.631 -1.668 0.21
3.44 4.634 -1.665 0.2
3.431 4.652 -1.668 0.1
3.423 4.672 -1.671 0.18
3.406 4.68 -1.67 0.2
3.388 4.686 -1.668 0.09
3.399 4.716 -1.678 0.17
3.368 4.705 -1.669 0.21
3.357 4.72 -1.671 0.1
3.343 4.732 -1.672 0.18
3.325 4.738 -1.67 0.2
3.315 4.756 -1.673 0.1
3.311 4.782 -1.679 0.16
3.291 4.769 -1.672 0.05
3.288 4.796 -1.678 0.16
3.266 4.797 -1.675 0.18
3.252 4.809 -1.675 0.09
3.238 4.821 -1.676 0.09
3.238 4.853 -1.684 0.15
3.211 4.846 -1.678 0.05
3.213 4.865 -1.683 0.16
3.191 4.866 -1.679 0.19
3.18 4.882 -1.682 0.18
3.165 4.892 -1.682 0.09
3.151 4.905 -1.683 0.15
3.129 4.904 -1.679 0.05
3.126 4.935 -1.687 0.16
3.106 4.936 -1.684 0.18
3.101 4.946 -1.685 0.18
3.082 4.949 -1.683 0.18
3.073 4.97 -1.687 0.16
3.052 4.972 -1.684 0.17
3.046 4.996 -1.689 0.17
3.028 5.002 -1.688 0.17
3.01 5.009 -1.687 0.18
3.003 5.015 -1.688 0.18
2.997 5.041 -1.694 0.17
2.974 5.037 -1.689 0.16
2.96 5.05 -1.69 0.09
2.941 5.054 -1.688 0.08
2.928 5.068 -1.69 0.09
2.917 5.086 -1.693 0.08
2.905 5.084 -1.691 0.08
2.894 5.101 -1.694 0.08
2.878 5.11 -1.694 0.08
2.861 5.117 -1.693 0.08
2.845 5.126 -1.693 0.08
2.828 5.134 -1.692 0.09
2.814 5.148 -1.694 0.08
2.804 5.149 -1.693 0.08
2.793 5.167 -1.697 0.08
2.775 5.173 -1.695 0.08
2.764 5.19 -1.698 0.08
2.746 5.195 -1.697 0.08
2.731 5.207 -1.698 0.16
2.713 5.212 -1.697 0.04
2.705 5.217 -1.697 0.08
2.689 5.227 -1.698 0.08
2.674 5.239 -1.699 0.08
2.663 5.257 -1.703 0.08
2.645 5.262 -1.701 0.09
2.631 5.276 -1.703 0.08
2.611 5.277 -1.701 0.08
2.605 5.286 -1.703 0.15
2.59 5.298 -1.704 0.16
2.574 5.306 -1.704 0.17
2.556 5.312 -1.703 0.16
2.544 5.331 -1.707 0.16
2.525 5.333 -1.705 0.16
2.51 5.345 -1.706 0.16
2.491 5.349 -1.705 0.16
2.485 5.357 -1.706 0.18
2.465 5.357 -1.704 0.16
2.447 5.363 -1.703 0.18
2.436 5.383 -1.707 0.17
2.418 5.389 -1.707 0.16
2.399 5.391 -1.705 0.04
2.385 5.406 -1.707 0.16
2.375 5.408 -1.707 0.05
2.362 5.422 -1.709 0.15
2.343 5.426 -1.708 0.05
2.326 5.434 -1.708 0.15
2.305 5.432 -1.705 0.05
2.3 5.468 -1.714 0.16
2.276 5.459 -1.709 0.05
2.273 5.475 -1.713 0.16
2.25 5.468 -1.708 0.05
2.24 5.494 -1.715 0.16
2.219 5.491 -1.711 0.05
2.206 5.508 -1.715 0.14
2.183 5.501 -1.71 0.05
2.171 5.522 -1.715 0.16
2.148 5.515 -1.71 0.04
2.144 5.53 -1.714 0.16
2.126 5.534 -1.713 0.05
2.11 5.544 -1.714 0.15
2.091 5.547 -1.713 0.05
2.079 5.568 -1.718 0.17
2.055 5.556 -1.712 0.05
2.045 5.584 -1.719 0.16
2.029 5.568 -1.713 0.05
2.017 5.59 -1.718 0.16
1.997 5.587 -1.715 0.05
1.985 5.61 -1.72 0.16
1.964 5.607 -1.717 0.05
1.947 5.615 -1.718 0.16
1.929 5.619 -1.717 0.18
1.923 5.631 -1.72 0.09
1.908 5.647 -1.723 0.15
1.884 5.634 -1.717 0.05
1.873 5.658 -1.723 0.17
1.852 5.655 -1.72 0.05
1.841 5.681 -1.727 0.18
1.817 5.668 -1.721 0.19
1.81 5.677 -1.723 0.09
1.795 5.693 -1.726 0.18
1.778 5.701 -1.727 0.2
1.754 5.686 -1.72 0.1
1.744 5.719 -1.729 0.18
1.721 5.708 -1.724 0.21
1.705 5.717 -1.725 0.1
1.696 5.72 -1.725 0.18
1.68 5.733 -1.727 0.2
1.66 5.73 -1.725 0.1
1.648 5.76 -1.733 0.16
1.623 5.739 -1.724 0.05
1.609 5.757 -1.729 0.17
1.592 5.769 -1.731 0.11
1.572 5.765 -1.728 0.18
1.563 5.768 -1.728 0.2
1.543 5.767 -1.726 0.1
1.531 5.796 -1.734 0.18
1.511 5.791 -1.731 0.11
1.493 5.796 -1.731 0.19
1.472 5.791 -1.728 0.11
1.457 5.809 -1.732 0.18
1.448 5.813 -1.733 0.2
1.434 5.834 -1.738 0.17
1.409 5.811 -1.729 0.05
1.397 5.839 -1.737 0.17
1.376 5.833 -1.733 0.21
1.358 5.839 -1.734 0.09
1.345 5.867 -1.742 0.19
1.33 5.843 -1.733 0.11
1.315 5.862 -1.738 0.18
1.297 5.868 -1.739 0.11
1.279 5.874 -1.739 0.2
1.26 5.876 -1.739 0.11
1.246 5.903 -1.746 0.18
1.219 5.865 -1.733 0.05
1.207 5.899 -1.742 0.17
1.197 5.901 -1.742 0.1
1.176 5.892 -1.738 0.2
1.156 5.888 -1.736 0.1
1.142 5.914 -1.743 0.19
1.122 5.91 -1.74 0.11
1.103 5.912 -1.74 0.19
1.085 5.919 -1.741 0.11
1.078 5.934 -1.745 0.18
1.058 5.926 -1.742 0.11
1.045 5.963 -1.752 0.17
1.02 5.93 -1.741 0.12
1.003 5.941 -1.743 0.19
0.987 5.961 -1.749 0.11
0.967 5.959 -1.747 0.15
0.955 5.943 -1.742 0.05
0.94 5.973 -1.75 0.17
0.917 5.947 -1.741 0.1
0.9 5.961 -1.744 0.19
0.883 5.972 -1.747 0.11
0.863 5.969 -1.745 0.19
0.844 5.97 -1.744 0.11
0.838 5.997 -1.753 0.18
0.817 5.983 -1.747 0.11
0.801 6.004 -1.753 0.16
0.781 5.997 -1.75 0.23
0.761 5.994 -1.749 0.17
0.743 6.0 -1.75 0.24
0.726 6.02 -1.755 0.17
0.714 5.998 -1.748 0.06
0.698 6.023 -1.755 0.15
0.677 6.01 -1.75 0.11
0.659 6.016 -1.752 0.18
0.64 6.022 -1.753 0.1
0.623 6.037 -1.757 0.18
0.602 6.018 -1.75 0.1
0.585 6.045 -1.758 0.19
0.575 6.04 -1.756 0.11
0.556 6.045 -1.757 0.17
0.536 6.036 -1.754 0.23
0.519 6.056 -1.76 0.19
0.498 6.031 -1.752 0.05
0.481 6.06 -1.76 0.17
0.461 6.044 -1.755 0.11
0.452 6.056 -1.758 0.2
0.433 6.059 -1.759 0.11
0.415 6.074 -1.763 0.18
0.395 6.064 -1.759 0.11
0.377 6.077 -1.763 0.2
0.356 6.059 -1.757 0.11
0.338 6.079 -1.763 0.18
0.328 6.062 -1.757 0.11
0.31 6.084 -1.764 0.17
0.291 6.089 -1.765 0.21
0.272 6.088 -1.765 0.1
0.253 6.1 -1.768 0.17
0.233 6.078 -1.761 0.22
0.214 6.081 -1.762 0.1
0.195 6.093 -1.765 0.2
0.185 6.082 -1.762 0.1
0.166 6.088 -1.763 0.18
0.147 6.086 -1.763 0.21
0.128 6.085 -1.762 0.1
0.109 6.112 -1.77 0.18
0.09 6.093 -1.765 0.21
0.071 6.08 -1.76 0.1
0.061 6.105 -1.768 0.18
0.042 6.096 -1.765 0.21
0.023 6.092 -1.764 0.09
0.004 6.103 -1.768 0.18
-0.015 6.1 -1.766 0.11
-0.035 6.105 -1.768 0.19
-0.054 6.094 -1.765 0.1
-0.073 6.122 -1.773 0.18
-0.082 6.095 -1.765 0.05
-0.102 6.097 -1.766 0.18
-0.121 6.1 -1.767 0.1
-0.14 6.119 -1.773 0.18
-0.159 6.103 -1.768 0.05
-0.179 6.109 -1.77 0.17
-0.188 6.097 -1.766 0.11
-0.207 6.11 -1.77 0.18
-0.227 6.109 -1.77 0.11
-0.246 6.118 -1.773 0.18
-0.265 6.109 -1.771 0.11
-0.285 6.126 -1.776 0.16
-0.303 6.102 -1.769 0.05
-0.323 6.114 -1.773 0.17
-0.332 6.102 -1.77 0.11
-0.352 6.116 -1.775 0.19
-0.371 6.108 -1.772 0.11
-0.391 6.116 -1.775 0.19
-0.408 6.094 -1.769 0.2
-0.429 6.106 -1.773 0.1
-0.448 6.106 -1.773 0.18
-0.457 6.105 -1.773 0.2
-0.476 6.102 -1.773 0.1
-0.497 6.114 -1.777 0.18
-0.515 6.101 -1.773 0.11
-0.535 6.107 -1.776 0.18
-0.553 6.096 -1.773 0.11
-0.574 6.113 -1.779 0.19
-0.582 6.097 -1.774 0.1
-0.602 6.103 -1.776 0.2
-0.621 6.101 -1.776 0.21
-0.64 6.091 -1.774 0.1
-0.661 6.108 -1.78 0.19
-0.679 6.096 -1.777 0.11
-0.7 6.111 -1.782 0.17
-0.718 6.101 -1.78 0.21
-0.726 6.087 -1.776 0.1
-0.747 6.1 -1.781 0.18
-0.764 6.075 -1.773 0.21
-0.783 6.078 -1.775 0.1
-0.805 6.093 -1.781 0.18
-0.823 6.081 -1.778 0.21
-0.843 6.084 -1.779 0.09
-0.852 6.08 -1.779 0.19
-0.871 6.078 -1.779 0.11
-0.891 6.079 -1.78 0.18
-0.909 6.072 -1.779 0.2
-0.928 6.069 -1.779 0.1
-0.948 6.072 -1.781 0.18
-0.966 6.061 -1.778 0.11
-0.986 6.064 -1.78 0.18
-0.995 6.057 -1.778 0.1
-1.017 6.072 -1.784 0.19
-1.034 6.056 -1.78 0.11
-1.054 6.062 -1.783 0.18
-1.07 6.04 -1.777 0.05
-1.093 6.061 -1.785 0.17
-1.109 6.039 -1.779 0.11
-1.123 6.06 -1.786 0.18
-1.14 6.045 -1.782 0.1
-1.157 6.036 -1.781 0.18
-1.175 6.026 -1.779 0.2
-1.195 6.024 -1.779 0.1
-1.214 6.024 -1.781 0.19
-1.233 6.021 -1.781 0.11
-1.247 6.041 -1.788 0.18
-1.264 6.028 -1.785 0.21
-1.28 6.011 -1.781 0.1
-1.305 6.033 -1.789 0.15
-1.318 6.002 -1.781 0.21
-1.339 6.006 -1.783 0.1
-1.362 6.022 -1.789 0.2
-1.367 5.999 -1.783 0.11
-1.387 6.001 -1.785 0.15
-1.405 5.993 -1.783 0.06
-1.426 5.996 -1.786 0.18
-1.442 5.98 -1.782 0.11
-1.467 6.001 -1.791 0.16
-1.481 5.976 -1.784 0.22
-1.501 5.975 -1.785 0.16
-1.51 5.973 -1.785 0.05
-1.532 5.979 -1.789 0.17
-1.547 5.961 -1.785 0.2
-1.569 5.97 -1.789 0.1
-1.584 5.95 -1.784 0.18
-1.602 5.943 -1.783 0.11
-1.624 5.951 -1.788 0.18
-1.629 5.933 -1.783 0.11
-1.653 5.945 -1.788 0.18
-1.671 5.938 -1.788 0.2
-1.691 5.936 -1.789 0.17
-1.705 5.916 -1.784 0.06
-1.73 5.931 -1.791 0.18
-1.742 5.904 -1.783 0.11
-1.756 5.917 -1.789 0.18
-1.778 5.923 -1.792 0.12
-1.795 5.913 -1.791 0.2
-1.81 5.897 -1.788 0.11
-1.833 5.906 -1.792 0.19
-1.846 5.88 -1.786 0.1
-1.873 5.901 -1.795 0.17
-1.879 5.887 -1.791 0.12
-1.894 5.871 -1.788 0.19
-1.911 5.861 -1.786 0.11
-1.937 5.879 -1.794 0.2
-1.949 5.853 -1.788 0.2
-1.966 5.843 -1.786 0.1
-1.996 5.871 -1.798 0.2
-2.003 5.83 -1.786 0.11
-2.016 5.84 -1.791 0.17
-2.032 5.826 -1.788 0.12
-2.052 5.825 -1.79 0.19
-2.067 5.808 -1.786 0.11
-2.099 5.841 -1.799 0.18
-2.106 5.802 -1.789 0.22
-2.131 5.815 -1.795 0.18
-2.139 5.808 -1.794 0.23
-2.151 5.783 -1.788 0.1
-2.169 5.778 -1.789 0.18
-2.191 5.781 -1.792 0.1
-2.214 5.786 -1.796 0.17
-2.225 5.761 -1.79 0.22
-2.247 5.765 -1.794 0.1
-2.253 5.753 -1.791 0.19
-2.272 5.749 -1.792 0.11
-2.296 5.756 -1.796 0.2
-2.306 5.728 -1.789 0.11
-2.324 5.722 -1.79 0.19
-2.35 5.732 -1.796 0.1
-2.364 5.716 -1.793 0.19
-2.38 5.703 -1.791 0.2
-2.397 5.719 -1.798 0.09
-2.415 5.711 -1.798 0.18
-2.422 5.679 -1.789 0.21
-2.444 5.682 -1.793 0.1
-2.462 5.673 -1.792 0.18
-2.473 5.651 -1.788 0.2
-2.497 5.657 -1.792 0.1
-2.512 5.667 -1.797 0.17
-2.52 5.637 -1.789 0.05
-2.549 5.655 -1.798 0.17
-2.558 5.628 -1.792 0.2
-2.579 5.626 -1.794 0.09
-2.605 5.636 -1.8 0.16
-2.615 5.612 -1.795 0.21
-2.618 5.596 -1.791 0.09
-2.652 5.622 -1.802 0.16
-2.652 5.576 -1.789 0.05
-2.679 5.588 -1.796 0.17
-2.697 5.579 -1.796 0.2
-2.707 5.556 -1.791 0.1
-2.738 5.574 -1.801 0.16
-2.736 5.55 -1.794 0.05
-2.757 5.548 -1.796 0.18
-2.772 5.534 -1.794 0.2
-2.793 5.532 -1.796 0.18
-2.805 5.513 -1.793 0.09
-2.836 5.53 -1.802 0.15
-2.841 5.499 -1.794 0.05
-2.859 5.49 -1.794 0.17
-2.866 5.484 -1.794 0.19
-2.886 5.48 -1.795 0.18
-2.904 5.471 -1.795 0.18
-2.92 5.46 -1.795 0.09
-2.952 5.479 -1.805 0.16
-2.949 5.431 -1.791 0.05
-2.975 5.439 -1.797 0.16
-2.982 5.431 -1.796 0.05
-2.997 5.418 -1.795 0.16
-3.011 5.403 -1.793 0.05
-3.037 5.411 -1.799 0.16
-3.04 5.376 -1.79 0.05
-3.075 5.398 -1.801 0.17
-3.085 5.377 -1.797 0.19
-3.087 5.36 -1.793 0.18
-3.108 5.357 -1.795 0.17
-3.128 5.354 -1.798 0.18
-3.131 5.319 -1.789 0.04
-3.163 5.336 -1.798 0.14
-3.171 5.311 -1.793 0.05
-3.196 5.316 -1.798 0.16
-3.209 5.299 -1.796 0.19
-3.215 5.291 -1.795 0.18
-3.228 5.274 -1.792 0.18
-3.252 5.276 -1.796 0.18
-3.265 5.26 -1.795 0.17
-3.28 5.247 -1.794 0.18
-3.298 5.24 -1.795 0.17
-3.311 5.225 -1.793 0.16
-3.319 5.218 -1.792 0.16
-3.336 5.209 -1.793 0.17
-3.351 5.197 -1.792 0.04
-3.373 5.194 -1.795 0.07
-3.386 5.179 -1.794 0.09
-3.404 5.171 -1.795 0.09
-3.421 5.161 -1.795 0.08
-3.437 5.15 -1.795 0.08
-3.443 5.141 -1.794 0.08
-3.464 5.138 -1.796 0.15
-3.483 5.131 -1.798 0.16
-3.498 5.118 -1.797 0.16
-3.511 5.104 -1.796 0.17
-3.53 5.096 -1.797 0.16
-3.537 5.072 -1.792 0.04
-3.545 5.067 -1.792 0.07
-3.566 5.063 -1.795 0.08
-3.577 5.044 -1.792 0.08
-3.595 5.036 -1.794 0.08
-3.613 5.028 -1.795 0.08
-3.625 5.012 -1.793 0.08
-3.641 5.001 -1.793 0.09
-3.653 5.001 -1.795 0.09
-3.669 4.99 -1.795 0.08
-3.682 4.975 -1.794 0.08
-3.698 4.963 -1.794 0.09
-3.713 4.952 -1.794 0.08
-3.731 4.943 -1.795 0.08
-3.74 4.922 -1.792 0.08
-3.754 4.909 -1.791 0.0
-3.769 4.912 -1.795 0.13
-3.777 4.891 -1.791 0.05
-3.803 4.893 -1.796 0.16
-3.808 4.867 -1.791 0.05
-3.834 4.869 -1.796 0.16
-3.847 4.854 -1.795 0.05
-3.867 4.848 -1.798 0.16
-3.865 4.83 -1.793 0.2
-3.882 4.82 -1.794 0.18
-3.895 4.805 -1.793 0.09
-3.926 4.812 -1.801 0.15
-3.92 4.775 -1.791 0.05
-3.943 4.771 -1.794 0.16
-3.954 4.755 -1.792 0.2
-3.96 4.747 -1.792 0.1
-3.996 4.759 -1.802 0.16
-3.991 4.723 -1.792 0.21
-4.003 4.708 -1.791 0.09
-4.033 4.713 -1.798 0.17
-4.029 4.678 -1.789 0.05
-4.054 4.677 -1.794 0.17
-4.063 4.672 -1.795 0.11
-4.085 4.668 -1.798 0.18
-4.087 4.641 -1.792 0.21
-4.105 4.632 -1.794 0.16
-4.125 4.625 -1.796 0.23
-4.146 4.619 -1.799 0.19
-4.149 4.593 -1.794 0.12
-4.171 4.589 -1.798 0.17
-4.17 4.574 -1.794 0.21
-4.192 4.569 -1.798 0.17
-4.195 4.543 -1.792 0.24
-4.224 4.545 -1.799 0.18
-4.222 4.515 -1.792 0.24
-4.259 4.526 -1.802 0.17
-4.249 4.487 -1.791 0.24
-4.263 4.488 -1.794 0.18
-4.274 4.471 -1.793 0.24
-4.299 4.469 -1.798 0.23
-4.31 4.453 -1.796 0.2
-4.32 4.435 -1.795 0.24
-4.342 4.43 -1.798 0.23
-4.355 4.415 -1.798 0.18
-4.364 4.397 -1.796 0.26
-4.384 4.402 -1.801 0.22
-4.391 4.382 -1.798 0.18
-4.402 4.365 -1.797 0.26
-4.433 4.369 -1.805 0.23
-4.437 4.345 -1.801 0.18
-4.447 4.327 -1.799 0.32
-4.451 4.318 -1.798 0.34
-4.46 4.3 -1.796 0.34
-4.476 4.288 -1.797 0.35
-4.498 4.282 -1.801 0.39
-4.506 4.263 -1.798 0.28
-4.524 4.253 -1.8 0.3
-4.544 4.245 -1.803 0.38
-4.542 4.216 -1.796 0.49
-4.557 4.217 -1.8 0.23
-4.581 4.213 -1.805 0.23
-4.578 4.183 -1.798 0.35
-4.592 4.17 -1.798 0.35
-4.612 4.162 -1.801 0.35
-4.63 4.151 -1.803 0.36
-4.638 4.133 -1.801 0.36
-4.656 4.136 -1.806 0.36
-4.679 4.13 -1.81 0.4
-4.674 4.099 -1.802 0.21
-4.702 4.098 -1.809 0.28
-4.705 4.074 -1.805 0.25
-4.722 4.063 -1.807 0.19
-4.735 4.048 -1.807 0.27
-4.755 4.04 -1.809 0.24
-4.766 4.036 -1.811 0.18
-4.774 4.017 -1.809 0.27
-4.776 3.994 -1.805 0.23
-4.808 3.994 -1.813 0.19
-4.809 3.97 -1.808 0.28
-4.819 3.953 -1.808 0.22
-4.844 3.948 -1.812 0.18
-4.844 3.935 -1.81 0.26
-4.859 3.922 -1.811 0.23
-4.881 3.914 -1.815 0.18
-4.879 3.888 -1.809 0.26
-4.898 3.878 -1.812 0.19
-4.908 3.861 -1.811 0.24
-4.926 3.85 -1.814 0.24
-4.928 3.839 -1.812 0.18
-4.949 3.831 -1.815 0.27
-4.966 3.818 -1.817 0.22
-4.978 3.803 -1.817 0.16
-4.983 3.783 -1.815 0.27
-4.997 3.768 -1.815 0.23
-5.01 3.753 -1.816 0.18
-5.018 3.747 -1.817 0.27
-5.026 3.729 -1.815 0.22
-5.046 3.719 -1.818 0.18
-5.057 3.703 -1.818 0.27
-5.069 3.687 -1.818 0.23
-5.084 3.673 -1.82 0.18
-5.087 3.651 -1.817 0.27
-5.105 3.64 -1.819 0.2
-5.108 3.63 -1.818 0.24
-5.116 3.611 -1.817 0.23
-5.14 3.604 -1.821 0.2
-5.142 3.581 -1.818 0.25
-5.159 3.57 -1.82 0.18
-5.166 3.55 -1.818 0.24
-5.175 3.533 -1.818 0.19
-5.185 3.528 -1.82 0.24
-5.193 3.509 -1.818 0.22
-5.201 3.491 -1.817 0.18
-5.223 3.482 -1.821 0.27
-5.232 3.464 -1.821 0.23
-5.243 3.448 -1.821 0.18
-5.262 3.437 -1.824 0.27
-5.268 3.428 -1.824 0.21
-5.264 3.403 -1.818 0.12
-5.286 3.393 -1.822 0.21
-5.293 3.375 -1.821 0.17
-5.307 3.36 -1.822 0.27
-5.327 3.349 -1.826 0.2
-5.326 3.326 -1.822 0.25
-5.338 3.31 -1.822 0.21
-5.34 3.299 -1.821 0.18
-5.356 3.286 -1.823 0.28
-5.374 3.274 -1.826 0.23
-5.379 3.254 -1.824 0.16
-5.393 3.239 -1.825 0.26
-5.403 3.222 -1.825 0.19
-5.405 3.2 -1.822 0.23
-5.41 3.192 -1.822 0.18
-5.413 3.171 -1.82 0.25
-5.427 3.156 -1.821 0.18
-5.435 3.138 -1.821 0.24
-5.455 3.126 -1.824 0.18
-5.458 3.105 -1.822 0.13
-5.477 3.094 -1.825 0.21
-5.477 3.082 -1.824 0.17
-5.49 3.067 -1.825 0.27
-5.497 3.048 -1.824 0.22
-5.509 3.032 -1.825 0.16
-5.511 3.011 -1.822 0.27
-5.53 2.999 -1.825 0.24
-5.555 2.989 -1.831 0.2
-5.55 2.965 -1.826 0.25
-5.559 2.958 -1.827 0.23
-5.564 2.939 -1.826 0.19
-5.572 2.92 -1.825 0.27
-5.584 2.904 -1.827 0.23
-5.609 2.895 -1.832 0.2
-5.601 2.868 -1.826 0.13
-5.61 2.862 -1.828 0.21
-5.621 2.845 -1.828 0.2
-5.615 2.82 -1.823 0.28
-5.632 2.807 -1.826 0.25
-5.634 2.786 -1.824 0.17
-5.646 2.77 -1.825 0.29
-5.66 2.754 -1.827 0.24
-5.674 2.739 -1.828 0.17
-5.673 2.728 -1.827 0.28
-5.683 2.711 -1.827 0.23
-5.686 2.69 -1.825 0.25
-5.705 2.677 -1.829 0.19
-5.705 2.655 -1.826 0.28
-5.722 2.641 -1.829 0.25
-5.727 2.622 -1.828 0.26
-5.734 2.614 -1.829 0.19
-5.743 2.596 -1.829 0.27
-5.758 2.581 -1.831 0.24
-5.757 2.559 -1.828 0.19
-5.77 2.544 -1.83 0.27
-5.777 2.525 -1.83 0.24
-5.793 2.51 -1.833 0.19
-5.787 2.497 -1.829 0.27
-5.794 2.478 -1.829 0.25
-5.811 2.464 -1.832 0.18
-5.813 2.443 -1.83 0.26
-5.825 2.427 -1.831 0.23
-5.832 2.408 -1.831 0.18
-5.829 2.386 -1.828 0.26
-5.845 2.382 -1.832 0.21
-5.846 2.36 -1.83 0.12
-5.858 2.344 -1.831 0.21
-5.864 2.325 -1.831 0.11
-5.873 2.307 -1.831 0.18
-5.878 2.288 -1.831 0.2
-5.882 2.268 -1.83 0.09
-5.896 2.252 -1.832 0.0
-5.882 2.236 -1.826 0.0
-5.871 2.211 -1.82 0.0
-5.876 2.192 -1.82 0.0
-6.132 1.536 -1.835 0.01
-6.168 1.525 -1.845 0.11
-6.13 1.495 -1.831 0.22
-6.151 1.49 -1.837 0.2
-6.145 1.468 -1.834 0.24
-6.145 1.448 -1.833 0.22
-6.154 1.429 -1.834 0.18
-6.154 1.409 -1.833 0.26
-6.17 1.392 -1.836 0.19
-6.169 1.372 -1.834 0.25
-6.18 1.364 -1.837 0.18
-6.175 1.343 -1.834 0.24
-6.205 1.329 -1.843 0.19
-6.185 1.304 -1.835 0.13
-6.195 1.286 -1.837 0.2
-6.197 1.266 -1.836 0.11
-6.203 1.247 -1.837 0.19
-6.205 1.237 -1.837 0.11
-6.224 1.221 -1.841 0.19
-6.229 1.201 -1.842 0.11
-6.233 1.182 -1.842 0.2
-6.231 1.161 -1.84 0.11
-6.233 1.141 -1.84 0.19
-6.231 1.121 -1.838 0.11
-6.238 1.112 -1.84 0.18
-6.247 1.093 -1.841 0.1
-6.275 1.078 -1.849 0.18
-6.248 1.053 -1.84 0.05
-6.286 1.039 -1.85 0.17
-6.259 1.014 -1.841 0.05
-6.288 0.999 -1.849 0.16
-6.273 0.976 -1.843 0.05
-6.28 0.967 -1.845 0.16
-6.273 0.946 -1.842 0.05
-6.295 0.929 -1.848 0.17
-6.292 0.909 -1.846 0.05
-6.307 0.89 -1.85 0.17
-6.304 0.87 -1.848 0.19
-6.306 0.85 -1.848 0.09
-6.308 0.84 -1.848 0.18
-6.306 0.82 -1.847 0.05
-6.319 0.801 -1.85 0.17
-6.302 0.779 -1.844 0.05
-6.322 0.761 -1.849 0.17
-6.311 0.74 -1.845 0.05
-6.32 0.721 -1.847 0.18
-6.324 0.711 -1.848 0.05
-6.318 0.69 -1.846 0.16
-6.307 0.669 -1.841 0.05
-6.334 0.652 -1.849 0.16
-6.319 0.63 -1.844 0.05
-6.336 0.612 -1.848 0.16
-6.338 0.592 -1.848 0.2
-6.316 0.58 -1.841 0.09
-6.348 0.563 -1.851 0.16
-6.34 0.542 -1.848 0.05
-6.342 0.522 -1.848 0.16
-6.326 0.501 -1.843 0.19
-6.326 0.481 -1.842 0.18
-6.341 0.462 -1.846 0.16
-6.329 0.441 -1.842 0.23
-6.339 0.432 -1.845 0.09
-6.342 0.412 -1.846 0.16
-6.325 0.391 -1.84 0.21
-6.345 0.372 -1.846 0.16
-6.317 0.351 -1.837 0.23
-6.33 0.331 -1.84 0.21
-6.338 0.312 -1.843 0.21
-6.329 0.301 -1.84 0.16
-6.325 0.281 -1.838 0.26
-6.345 0.262 -1.844 0.18
-6.321 0.241 -1.836 0.25
-6.325 0.222 -1.837 0.22
-6.339 0.202 -1.841 0.2
-6.328 0.182 -1.838 0.13
-6.333 0.162 -1.839 0.21
-6.348 0.153 -1.844 0.18
-6.339 0.132 -1.841 0.27
-6.349 0.113 -1.844 0.19
-6.349 0.093 -1.844 0.25
-6.338 0.073 -1.84 0.18
-6.34 0.053 -1.841 0.25
-6.35 0.043 -1.844 0.18
-6.342 0.023 -1.841 0.24
-6.358 0.003 -1.846 0.18
-6.348 -0.017 -1.843 0.25
-6.338 -0.037 -1.84 0.21
-6.354 -0.057 -1.845 0.16
-6.361 -0.077 -1.847 0.27
-6.353 -0.097 -1.845 0.19
-6.357 -0.107 -1.846 0.25
-6.356 -0.127 -1.846 0.19
-6.335 -0.146 -1.84 0.24
-6.365 -0.167 -1.849 0.18
-6.351 -0.187 -1.845 0.23
-6.354 -0.207 -1.846 0.2
-6.354 -0.227 -1.846 0.12
-6.349 -0.237 -1.845 0.2
-6.341 -0.256 -1.843 0.11
-6.354 -0.277 -1.847 0.21
-6.351 -0.297 -1.846 0.11
-6.352 -0.317 -1.847 0.2
-6.347 -0.336 -1.846 0.2
-6.351 -0.357 -1.847 0.1
-6.368 -0.368 -1.853 0.18
-6.348 -0.386 -1.847 0.22
-6.347 -0.406 -1.847 0.1
-6.349 -0.427 -1.848 0.18
-6.355 -0.447 -1.85 0.11
-6.354 -0.467 -1.85 0.19
-6.347 -0.487 -1.848 0.11
-6.351 -0.507 -1.85 0.19
-6.344 -0.516 -1.848 0.21
-6.35 -0.537 -1.851 0.1
-6.347 -0.557 -1.85 0.19
-6.341 -0.576 -1.849 0.05
-6.343 -0.597 -1.85 0.17
-6.345 -0.617 -1.851 0.19
-6.333 -0.636 -1.848 0.09
-6.355 -0.648 -1.856 0.16
-6.325 -0.665 -1.847 0.05
-6.336 -0.687 -1.851 0.17
-6.332 -0.706 -1.85 0.18
-6.335 -0.727 -1.852 0.09
-6.333 -0.747 -1.852 0.18
-6.323 -0.766 -1.85 0.2
-6.333 -0.777 -1.853 0.18
-6.329 -0.797 -1.853 0.17
-6.328 -0.817 -1.853 0.1
-6.324 -0.836 -1.853 0.18
-6.271 -0.839 -1.837 0.09
-6.28 -0.861 -1.84 0.09
-6.29 -0.882 -1.844 0.17
-6.261 -0.898 -1.836 0.05
-6.264 -0.919 -1.838 0.18
-6.257 -0.938 -1.837 0.2
-6.254 -0.957 -1.837 0.09
-6.262 -0.969 -1.84 0.18
-6.253 -0.987 -1.838 0.11
-6.258 -1.008 -1.84 0.19
-6.236 -1.025 -1.834 0.21
-6.251 -1.048 -1.84 0.19
-6.237 -1.065 -1.837 0.23
-6.233 -1.085 -1.837 0.16
-6.226 -1.094 -1.835 0.25
-6.234 -1.115 -1.838 0.18
-6.223 -1.133 -1.836 0.23
-6.215 -1.152 -1.835 0.19
-6.214 -1.172 -1.835 0.24
-6.217 -1.193 -1.838 0.18
-6.206 -1.211 -1.835 0.24
-6.212 -1.222 -1.838 0.17
-6.204 -1.241 -1.837 0.24
-6.21 -1.263 -1.84 0.23
-6.207 -1.282 -1.84 0.17
-6.205 -1.302 -1.841 0.26
-6.216 -1.325 -1.846 0.23
-6.195 -1.341 -1.84 0.18
-6.195 -1.351 -1.841 0.26
-6.191 -1.371 -1.841 0.23
-6.199 -1.393 -1.845 0.18
-6.195 -1.412 -1.845 0.26
-6.194 -1.433 -1.846 0.23
-6.188 -1.452 -1.846 0.18
-6.179 -1.47 -1.844 0.26
-6.184 -1.492 -1.847 0.22
-6.182 -1.502 -1.847 0.18
-6.184 -1.523 -1.85 0.27
-6.196 -1.547 -1.855 0.22
-6.208 -1.57 -1.86 0.16
-6.225 -1.596 -1.867 0.28
-6.222 -1.616 -1.868 0.24
-6.191 -1.628 -1.86 0.17
-6.207 -1.643 -1.866 0.28
-6.196 -1.661 -1.864 0.25
-6.191 -1.68 -1.864 0.26
-6.186 -1.7 -1.864 0.27
-6.184 -1.72 -1.865 0.27
-6.155 -1.733 -1.857 0.27
-6.107 -1.74 -1.844 0.15
-6.047 -1.733 -1.825 0.28
-5.994 -1.738 -1.81 0.25
-5.937 -1.742 -1.794 0.17
-5.893 -1.749 -1.781 0.29
-5.888 -1.767 -1.781 0.19
-5.864 -1.78 -1.775 0.24
-5.89 -1.808 -1.785 0.21
-5.846 -1.815 -1.773 0.22
-5.846 -1.825 -1.774 0.1
-5.844 -1.844 -1.775 0.0
-5.824 -1.858 -1.77 0.0
-5.834 -1.882 -1.776 0.0
-5.886 -1.919 -1.795 0.0
-5.9 -1.944 -1.801 0.0
-5.894 -1.952 -1.8 0.0
-5.893 -1.973 -1.802 0.0
-5.903 -1.997 -1.807 0.0
-5.888 -2.678 -1.88 0.2
-5.903 -2.696 -1.887 0.16
-5.91 -2.722 -1.892 0.21
-5.879 -2.73 -1.885 0.26
-5.786 -2.708 -1.856 0.25
-5.736 -2.707 -1.841 0.27
-5.732 -2.727 -1.843 0.3
-5.803 -2.784 -1.87 0.25
-5.79 -2.789 -1.867 0.16
-5.793 -2.813 -1.872 0.31
-5.769 -2.823 -1.866 0.25
-5.726 -2.824 -1.854 0.2
-5.691 -2.829 -1.846 0.26
-5.679 -2.845 -1.844 0.23
-5.704 -2.881 -1.856 0.27
-5.715 -2.897 -1.861 0.29
-5.687 -2.906 -1.855 0.25
-5.688 -2.929 -1.859 0.27
-5.665 -2.94 -1.854 0.23
-5.676 -2.968 -1.861 0.29
-5.669 -2.987 -1.861 0.25
-5.597 -2.971 -1.84 0.12
-5.577 -2.972 -1.834 0.18
-5.524 -2.966 -1.819 0.21
-5.541 -2.998 -1.828 0.17
-5.505 -3.0 -1.819 0.25
-5.497 -3.019 -1.82 0.19
-5.456 -3.018 -1.808 0.25
-5.428 -3.025 -1.802 0.23
-5.387 -3.024 -1.791 0.17
-5.346 -3.012 -1.778 0.26
-5.323 -3.021 -1.773 0.2
-5.274 -3.015 -1.759 0.25
-5.24 -3.017 -1.75 0.19
-5.173 -3.0 -1.729 0.24
-5.15 -3.008 -1.724 0.19
-5.096 -2.998 -1.708 0.22
-5.062 -2.988 -1.698 0.0
-5.039 -2.996 -1.693 0.0
-5.022 -3.007 -1.69 0.0
-5.05 -3.046 -1.704 0.0
-5.507 -3.372 -1.877 0.08
-5.527 -3.408 -1.888 0.2
-5.548 -3.433 -1.898 0.15
-5.511 -3.434 -1.888 0.28
-5.495 -3.448 -1.886 0.2
-5.434 -3.434 -1.868 0.11
-5.419 -3.448 -1.866 0.19
-5.392 -3.454 -1.86 0.11
-5.392 -3.479 -1.864 0.19
-5.384 -3.485 -1.863 0.11
-5.381 -3.507 -1.866 0.18
-5.357 -3.515 -1.861 0.23
-5.363 -3.544 -1.868 0.18
-5.331 -3.547 -1.86 0.24
-5.33 -3.57 -1.864 0.19
-5.315 -3.585 -1.863 0.25
-5.306 -3.602 -1.863 0.23
-5.297 -3.609 -1.862 0.17
-5.293 -3.631 -1.865 0.27
-5.285 -3.649 -1.866 0.24
-5.277 -3.668 -1.867 0.19
-5.278 -3.694 -1.872 0.28
-5.278 -3.719 -1.877 0.19
-5.265 -3.734 -1.876 0.25
-5.276 -3.755 -1.883 0.23
-5.282 -3.784 -1.889 0.25
-5.256 -3.79 -1.884 0.22
-5.248 -3.81 -1.886 0.28
-5.246 -3.833 -1.889 0.19
-5.231 -3.848 -1.888 0.24
-5.212 -3.859 -1.886 0.23
-5.212 -3.872 -1.888 0.27
-5.205 -3.892 -1.89 0.27
-5.209 -3.921 -1.896 0.28
-5.197 -3.937 -1.896 0.24
-5.187 -3.956 -1.898 0.32
-5.148 -3.951 -1.887 0.29
-5.114 -3.951 -1.879 0.31
-5.113 -3.963 -1.88 0.2
-5.106 -3.983 -1.883 0.13
-5.095 -4.001 -1.883 0.21
-5.088 -4.021 -1.886 0.14
-5.068 -4.031 -1.883 0.28
-5.024 -4.022 -1.87 0.22
-5.024 -4.047 -1.875 0.15
-5.013 -4.052 -1.873 0.3
-5.01 -4.076 -1.877 0.16
-5.014 -4.105 -1.884 0.13
-5.002 -4.122 -1.885 0.21
-4.982 -4.132 -1.882 0.21
-4.991 -4.166 -1.89 0.19
-4.94 -4.149 -1.875 0.24
-4.925 -4.149 -1.872 0.16
-4.904 -4.159 -1.869 0.25
-4.874 -4.159 -1.861 0.23
-4.859 -4.173 -1.861 0.2
-4.839 -4.182 -1.858 0.06
-4.824 -4.196 -1.857 0.17
-4.818 -4.218 -1.86 0.2
-4.794 -4.223 -1.856 0.09
-4.798 -4.24 -1.86 0.14
-4.792 -4.262 -1.863 0.05
-4.776 -4.274 -1.862 0.16
-4.758 -4.285 -1.86 0.19
-4.762 -4.316 -1.867 0.16
-4.737 -4.32 -1.863 0.25
-4.713 -4.326 -1.859 0.18
-4.677 -4.306 -1.846 0.06
-4.64 -4.299 -1.836 0.16
-4.621 -4.308 -1.834 0.19
-4.599 -4.315 -1.83 0.1
-4.595 -4.338 -1.834 0.17
-4.546 -4.318 -1.819 0.05
-4.532 -4.332 -1.819 0.16
-4.521 -4.336 -1.817 0.18
-4.518 -4.36 -1.822 0.17
-4.518 -4.388 -1.828 0.16
-4.51 -4.408 -1.83 0.17
-4.477 -4.403 -1.822 0.23
-4.474 -4.428 -1.827 0.21
-4.449 -4.431 -1.822 0.18
-4.446 -4.442 -1.824 0.31
-4.451 -4.475 -1.832 0.19
-4.41 -4.462 -1.82 0.21
-4.372 -4.451 -1.809 0.18
-4.354 -4.46 -1.808 0.16
-4.328 -4.462 -1.802 0.04
-4.306 -4.467 -1.799 0.15
-4.299 -4.474 -1.799 0.05
-4.285 -4.487 -1.799 0.16
-4.256 -4.484 -1.792 0.05
-4.245 -4.501 -1.794 0.17
-4.213 -4.495 -1.785 0.2
-4.19 -4.499 -1.781 0.1
-4.194 -4.531 -1.789 0.16
-4.149 -4.497 -1.772 0.05
-4.131 -4.506 -1.77 0.18
-4.109 -4.51 -1.767 0.2
-4.071 -4.496 -1.756 0.1
-4.054 -4.506 -1.755 0.18
-4.032 -4.51 -1.751 0.11
-4.002 -4.504 -1.743 0.18
-3.974 -4.501 -1.737 0.11
-3.967 -4.507 -1.737 0.19
-3.94 -4.505 -1.731 0.11
-3.913 -4.503 -1.725 0.19
-3.894 -4.51 -1.723 0.11
-3.879 -4.52 -1.722 0.18
-3.835 -4.497 -1.708 0.21
-3.813 -4.501 -1.704 0.09
-3.774 -4.469 -1.689 0.09
-3.749 -4.467 -1.684 0.09
-3.739 -4.483 -1.685 0.08
-3.721 -4.491 -1.684 0.0
-3.687 -4.477 -1.674 0.0
-3.668 -4.483 -1.671 0.0
-3.637 -4.474 -1.663 0.0
-3.637 -4.488 -1.666 0.0
-3.634 -4.513 -1.672 0.0
-3.598 -4.497 -1.661 0.0
-3.634 -4.632 -1.701 0.0
-3.677 -4.718 -1.73 0.02
-3.809 -4.905 -1.801 0.12
-3.8 -4.925 -1.804 0.22
-3.82 -4.984 -1.822 0.23
-3.828 -5.028 -1.834 0.24
-3.794 -5.015 -1.825 0.27
-3.777 -5.026 -1.824 0.34
-3.754 -5.027 -1.82 0.31
-3.758 -5.05 -1.827 0.23
-3.729 -5.043 -1.82 0.26
-3.706 -5.045 -1.816 0.39
-3.68 -5.043 -1.811 0.21
-3.668 -5.059 -1.812 0.3
-3.628 -5.038 -1.8 0.22
-3.592 -5.02 -1.789 0.3
-3.591 -5.036 -1.793 0.26
-3.563 -5.03 -1.786 0.18
-3.549 -5.043 -1.787 0.29
-3.532 -5.053 -1.786 0.21
-3.507 -5.051 -1.782 0.14
-3.491 -5.062 -1.782 0.29
-3.478 -5.076 -1.783 0.25
-3.472 -5.103 -1.789 0.24
-3.451 -5.089 -1.782 0.3
-3.442 -5.11 -1.785 0.23
-3.447 -5.152 -1.797 0.32
-3.411 -5.133 -1.786 0.31
-3.397 -5.147 -1.787 0.27
-3.37 -5.141 -1.781 0.3
-3.355 -5.154 -1.782 0.28
-3.354 -5.17 -1.786 0.27
-3.326 -5.163 -1.779 0.31
-3.301 -5.159 -1.774 0.32
