# .PCD v.7 - Point Cloud Data file format
VERSION .7
FIELDS x y z intensity
SIZE 4 4 4 4
TYPE F F F F
COUNT 1 1 1 1
WIDTH 1935
HEIGHT 1
VIEWPOINT 0 0 0 1 0 0 0
POINTS 1935
DATA ascii
2.069 9.61 -1.894 0.27
2.041 9.628 -1.896 0.29
2.011 9.634 -1.896 0.28
1.996 9.641 -1.897 0.28
1.97 9.665 -1.901 0.21
1.938 9.667 -1.9 0.26
1.909 9.677 -1.901 0.23
1.883 9.706 -1.905 0.27
1.849 9.695 -1.902 0.29
1.824 9.727 -1.907 0.25
1.81 9.74 -1.909 0.29
1.78 9.747 -1.91 0.28
1.751 9.761 -1.911 0.29
1.722 9.776 -1.913 0.3
1.69 9.773 -1.912 0.29
1.661 9.79 -1.914 0.26
1.633 9.811 -1.917 0.3
1.616 9.806 -1.916 0.27
1.586 9.813 -1.916 0.3
1.555 9.821 -1.917 0.32
1.526 9.838 -1.919 0.29
1.498 9.86 -1.923 0.29
1.468 9.867 -1.923 0.29
1.439 9.887 -1.927 0.26
1.407 9.889 -1.926 0.25
1.391 9.884 -1.925 0.37
1.364 9.915 -1.93 0.27
1.334 9.931 -1.933 0.28
1.304 9.945 -1.935 0.27
1.276 9.972 -1.94 0.26
1.245 9.98 -1.94 0.3
1.212 9.972 -1.938 0.23
1.194 9.957 -1.934 0.27
1.162 9.949 -1.932 0.34
1.131 9.956 -1.933 0.41
1.101 9.967 -1.934 0.38
1.078 10.053 -1.951 0.36
1.048 10.072 -1.954 0.34
1.021 10.114 -1.962 0.29
1.007 10.133 -1.966 0.33
0.975 10.136 -1.966 0.29
0.943 10.141 -1.967 0.31
0.912 10.15 -1.968 0.3
0.878 10.131 -1.963 0.32
0.846 10.136 -1.964 0.37
0.814 10.138 -1.964 0.3
0.797 10.124 -1.96 0.41
0.767 10.14 -1.963 0.36
0.735 10.141 -1.963 0.35
0.701 10.123 -1.959 0.31
0.67 10.133 -1.96 0.48
0.638 10.139 -1.961 0.36
0.606 10.135 -1.96 0.41
0.572 10.104 -1.953 0.31
0.556 10.103 -1.953 0.42
0.525 10.118 -1.956 0.41
0.495 10.149 -1.962 0.36
0.463 10.139 -1.959 0.42
0.432 10.172 -1.966 0.21
0.399 10.149 -1.961 0.55
0.368 10.155 -1.962 0.36
0.353 10.204 -1.972 0.34
0.321 10.188 -1.968 0.44
0.289 10.196 -1.97 0.3
0.257 10.195 -1.969 0.45
0.225 10.192 -1.969 0.43
0.193 10.191 -1.968 0.26
0.161 10.199 -1.97 0.32
0.145 10.195 -1.969 0.43
0.113 10.198 -1.969 0.38
0.081 10.216 -1.973 0.32
0.049 10.218 -1.973 0.35
0.017 10.195 -1.969 0.52
-0.015 10.169 -1.963 0.41
-0.047 10.194 -1.969 0.21
-0.064 10.202 -1.97 0.54
-0.096 10.21 -1.972 0.3
-0.127 10.186 -1.967 0.52
-0.159 10.168 -1.963 0.44
-0.191 10.173 -1.965 0.36
-0.223 10.151 -1.96 0.45
-0.254 10.115 -1.953 0.29
-0.286 10.134 -1.957 0.39
-0.303 10.161 -1.962 0.41
-0.335 10.177 -1.966 0.36
-0.367 10.176 -1.966 0.43
-0.398 10.148 -1.96 0.3
-0.43 10.146 -1.96 0.43
-0.463 10.178 -1.967 0.33
-0.494 10.151 -1.962 0.47
-0.511 10.158 -1.964 0.33
-0.541 10.125 -1.957 0.34
-0.576 10.18 -1.969 0.41
-0.608 10.18 -1.969 0.43
-0.641 10.204 -1.975 0.42
-0.673 10.202 -1.975 0.38
-0.706 10.203 -1.975 0.36
-0.721 10.196 -1.974 0.45
-0.752 10.182 -1.972 0.45
-0.783 10.166 -1.969 0.35
-0.814 10.14 -1.964 0.44
-0.847 10.155 -1.968 0.39
-0.878 10.149 -1.967 0.39
-0.912 10.162 -1.97 0.34
-0.938 10.098 -1.958 0.48
-0.957 10.132 -1.965 0.25
-0.99 10.135 -1.966 0.45
-1.02 10.116 -1.963 0.45
-1.051 10.107 -1.962 0.37
-1.084 10.113 -1.964 0.37
-1.112 10.075 -1.956 0.4
-1.148 10.11 -1.965 0.35
-1.165 10.118 -1.967 0.38
-1.199 10.14 -1.972 0.42
-1.231 10.13 -1.971 0.35
-1.259 10.101 -1.965 0.48
-1.292 10.102 -1.967 0.32
-1.331 10.153 -1.978 0.45
-1.363 10.154 -1.979 0.38
-1.373 10.108 -1.97 0.34
-1.407 10.119 -1.973 0.3
-1.444 10.151 -1.981 0.37
-1.478 10.164 -1.984 0.37
-1.509 10.152 -1.983 0.43
-1.541 10.149 -1.983 0.33
-1.571 10.132 -1.981 0.36
-1.589 10.143 -1.983 0.39
-1.623 10.15 -1.986 0.41
-1.656 10.152 -1.987 0.32
-1.688 10.147 -1.987 0.35
-1.721 10.148 -1.989 0.44
-1.754 10.15 -1.99 0.33
-1.785 10.137 -1.989 0.37
-1.815 10.121 -1.987 0.4
-1.831 10.12 -1.987 0.36
-1.865 10.128 -1.99 0.33
-1.899 10.132 -1.992 0.33
-1.928 10.11 -1.989 0.39
-1.963 10.123 -1.993 0.36
-1.994 10.11 -1.991 0.29
-2.023 10.092 -1.989 0.34
-2.038 10.087 -1.988 0.22
-2.066 10.059 -1.984 0.29
-1.798 8.598 -1.679 0.09
-1.816 8.55 -1.67 0.15
-1.84 8.529 -1.667 0.04
-1.868 8.533 -1.669 0.07
-1.898 8.538 -1.671 0.09
-1.916 8.558 -1.676 0.2
-1.957 8.615 -1.689 0.12
-1.978 8.581 -1.683 0.23
-2.007 8.586 -1.686 0.36
-2.03 8.562 -1.682 0.45
-2.058 8.558 -1.683 0.42
-2.088 8.565 -1.685 0.39
-2.103 8.567 -1.687 0.42
-2.129 8.558 -1.686 0.41
-2.158 8.561 -1.688 0.51
-2.183 8.545 -1.686 0.31
-2.249 8.692 -1.719 0.12
-2.281 8.592 -1.701 0.86
-2.347 8.731 -1.732 0.62
-2.31 8.54 -1.692 0.2
-2.339 8.54 -1.693 0.16
-2.369 8.544 -1.696 0.12
-2.752 9.82 -1.969 0.26
-2.493 8.778 -1.749 0.22
-2.487 8.549 -1.704 0.48
-2.502 8.553 -1.705 0.33
-2.532 8.554 -1.707 0.33
-2.564 8.565 -1.711 0.32
-2.592 8.561 -1.712 0.38
-2.626 8.575 -1.717 0.32
-2.656 8.576 -1.719 0.22
-2.683 8.568 -1.719 0.3
-2.697 8.567 -1.72 0.23
-2.734 8.589 -1.726 0.11
-2.759 8.576 -1.725 0.0
-2.81 8.642 -1.741 0.06
-3.139 9.559 -1.941 0.15
-3.193 9.624 -1.957 0.19
-3.23 9.632 -1.961 0.23
-3.266 9.641 -1.965 0.24
-3.281 9.635 -1.965 0.27
-3.317 9.64 -1.969 0.26
-3.345 9.622 -1.967 0.3
-3.377 9.619 -1.969 0.27
-3.407 9.606 -1.968 0.28
-3.44 9.605 -1.97 0.25
-3.46 9.564 -1.964 0.21
-3.469 9.542 -1.96 0.41
-3.51 9.563 -1.967 0.36
-3.53 9.524 -1.961 0.31
-3.569 9.537 -1.966 0.29
-3.603 9.537 -1.969 0.26
-3.627 9.511 -1.965 0.28
-3.661 9.51 -1.968 0.26
-3.677 9.506 -1.968 0.3
-3.7 9.476 -1.964 0.28
-3.731 9.468 -1.965 0.27
-3.764 9.466 -1.967 0.28
-3.791 9.447 -1.965 0.27
-3.82 9.433 -1.965 0.28
-3.854 9.432 -1.967 0.29
-3.877 9.403 -1.964 0.27
-3.893 9.401 -1.965 0.29
-3.929 9.403 -1.968 0.25
-3.96 9.394 -1.969 0.28
-3.989 9.38 -1.968 0.3
-4.016 9.362 -1.967 0.28
-4.04 9.338 -1.965 0.27
-4.071 9.327 -1.965 0.27
-4.091 9.334 -1.968 0.28
-4.111 9.301 -1.963 0.28
-4.144 9.295 -1.965 0.28
-4.175 9.287 -1.966 0.29
-4.203 9.271 -1.965 0.27
-4.232 9.257 -1.965 0.28
-4.261 9.244 -1.965 0.28
-4.275 9.236 -1.965 0.27
-4.298 9.21 -1.962 0.29
-4.334 9.212 -1.966 0.28
-4.359 9.19 -1.964 0.29
-4.385 9.171 -1.962 0.29
-4.418 9.164 -1.964 0.29
-4.441 9.139 -1.962 0.28
-4.468 9.122 -1.961 0.28
-4.487 9.124 -1.963 0.28
-4.513 9.104 -1.962 0.27
-4.542 9.092 -1.962 0.28
-4.573 9.081 -1.963 0.28
-4.603 9.07 -1.964 0.27
-4.623 9.04 -1.96 0.2
-4.657 9.036 -1.962 0.29
-4.668 9.021 -1.961 0.25
-4.699 9.012 -1.962 0.27
-4.727 8.997 -1.962 0.27
-4.75 8.972 -1.96 0.27
-4.782 8.964 -1.961 0.28
-4.803 8.937 -1.958 0.29
-4.719 8.713 -1.91 0.2
-4.669 8.588 -1.882 0.09
-4.678 8.541 -1.875 0.09
-4.688 8.495 -1.868 0.04
-4.725 8.499 -1.872 0.0
-4.774 8.524 -1.881 0.0
-4.801 8.508 -1.881 0.0
-4.845 8.524 -1.889 0.0
-4.881 8.526 -1.893 0.0
-4.896 8.52 -1.893 0.0
-4.921 8.503 -1.893 0.0
-4.96 8.508 -1.897 0.06
-4.995 8.507 -1.901 0.08
-5.095 8.615 -1.93 0.18
-5.187 8.708 -1.956 0.2
-5.215 8.694 -1.957 0.27
-5.236 8.697 -1.96 0.25
-5.258 8.672 -1.958 0.2
-5.286 8.657 -1.958 0.27
-5.312 8.639 -1.958 0.25
-5.348 8.636 -1.961 0.23
-5.363 8.601 -1.956 0.18
-5.394 8.59 -1.958 0.29
-5.402 8.572 -1.956 0.25
-5.43 8.556 -1.956 0.27
-5.448 8.526 -1.953 0.25
-5.491 8.534 -1.959 0.24
-5.504 8.495 -1.954 0.17
-5.534 8.483 -1.955 0.29
-5.559 8.464 -1.954 0.25
-5.566 8.445 -1.952 0.27
-5.595 8.431 -1.953 0.26
-5.622 8.415 -1.953 0.27
-5.65 8.399 -1.954 0.27
-5.677 8.383 -1.954 0.2
-5.703 8.365 -1.954 0.28
-5.727 8.343 -1.953 0.25
-5.747 8.316 -1.951 0.26
-5.759 8.305 -1.95 0.27
-5.789 8.293 -1.952 0.24
-5.808 8.264 -1.949 0.18
-5.824 8.233 -1.946 0.3
-5.866 8.237 -1.952 0.25
-5.883 8.206 -1.948 0.2
-5.914 8.195 -1.95 0.27
-5.92 8.176 -1.948 0.25
-5.947 8.159 -1.948 0.26
-5.965 8.129 -1.946 0.2
-6.003 8.128 -1.95 0.27
-6.025 8.104 -1.949 0.25
-6.05 8.085 -1.949 0.26
-6.076 8.066 -1.949 0.23
-6.081 8.047 -1.946 0.21
-6.111 8.034 -1.948 0.26
-6.132 8.009 -1.946 0.25
-6.163 7.997 -1.948 0.2
-6.186 7.975 -1.948 0.26
-6.208 7.952 -1.947 0.23
-6.23 7.928 -1.946 0.26
-6.252 7.931 -1.949 0.24
-6.263 7.894 -1.944 0.18
-6.299 7.888 -1.948 0.29
-6.319 7.862 -1.946 0.25
-6.339 7.836 -1.945 0.18
-6.369 7.824 -1.947 0.26
-6.388 7.796 -1.945 0.25
-6.413 7.778 -1.945 0.19
-6.428 7.771 -1.946 0.26
-6.454 7.752 -1.946 0.25
-6.472 7.724 -1.944 0.26
-6.493 7.701 -1.944 0.19
-6.516 7.679 -1.943 0.28
-6.54 7.658 -1.943 0.23
-6.567 7.641 -1.944 0.21
-6.584 7.636 -1.946 0.26
-6.598 7.604 -1.942 0.24
-6.629 7.592 -1.945 0.18
-6.655 7.572 -1.945 0.26
-6.658 7.528 -1.939 0.22
-6.683 7.508 -1.939 0.19
-6.718 7.501 -1.943 0.27
-6.717 7.475 -1.939 0.22
-6.745 7.46 -1.94 0.2
-6.773 7.443 -1.942 0.24
-6.783 7.407 -1.938 0.22
-6.805 7.385 -1.937 0.2
-6.832 7.368 -1.938 0.25
-6.848 7.339 -1.936 0.21
-6.864 7.332 -1.938 0.12
-6.877 7.301 -1.935 0.21
-6.894 7.272 -1.933 0.18
-6.92 7.255 -1.934 0.26
-6.95 7.24 -1.936 0.2
-6.966 7.211 -1.934 0.12
-6.979 7.179 -1.931 0.21
-7.01 7.166 -1.934 0.11
-7.009 7.142 -1.93 0.2
-7.036 7.126 -1.932 0.11
-7.068 7.113 -1.934 0.18
-7.078 7.078 -1.931 0.11
-7.089 7.045 -1.928 0.2
-7.128 7.039 -1.932 0.2
-7.146 7.013 -1.931 0.19
-7.157 7.002 -1.931 0.21
-7.174 6.974 -1.93 0.1
-7.193 6.948 -1.929 0.18
-7.217 6.928 -1.93 0.21
-7.235 6.902 -1.928 0.09
-7.251 6.873 -1.927 0.18
-7.276 6.855 -1.928 0.05
-7.301 6.834 -1.929 0.16
-7.296 6.808 -1.924 0.05
-7.319 6.787 -1.925 0.16
-7.343 6.766 -1.926 0.05
-7.354 6.734 -1.923 0.17
-7.384 6.719 -1.925 0.19
-7.405 6.695 -1.925 0.04
-7.418 6.666 -1.923 0.17
-7.425 6.65 -1.922 0.05
-7.44 6.621 -1.92 0.16
-7.457 6.595 -1.919 0.05
-7.474 6.568 -1.918 0.16
-7.503 6.552 -1.921 0.05
-7.525 6.53 -1.921 0.17
-7.538 6.5 -1.919 0.19
-7.559 6.497 -1.922 0.04
-7.573 6.468 -1.92 0.18
-7.586 6.438 -1.918 0.05
-7.597 6.406 -1.916 0.16
-7.628 6.391 -1.919 0.2
-7.645 6.365 -1.918 0.1
-7.669 6.345 -1.919 0.17
-7.666 6.321 -1.915 0.21
-7.687 6.298 -1.916 0.2
-7.702 6.271 -1.915 0.22
-7.72 6.245 -1.914 0.2
-7.739 6.22 -1.914 0.23
-7.746 6.185 -1.911 0.19
-7.779 6.172 -1.914 0.23
-7.778 6.151 -1.911 0.2
-7.799 6.128 -1.912 0.24
-7.815 6.101 -1.911 0.2
-7.828 6.072 -1.909 0.23
-7.845 6.046 -1.909 0.19
-7.86 6.018 -1.908 0.25
-7.886 5.999 -1.91 0.18
-7.897 5.968 -1.908 0.23
-7.907 5.956 -1.908 0.2
-7.917 5.925 -1.906 0.23
-7.939 5.902 -1.907 0.18
-7.947 5.869 -1.904 0.13
-7.967 5.845 -1.904 0.21
-7.983 5.819 -1.904 0.21
-7.994 5.788 -1.902 0.25
-8.004 5.777 -1.902 0.19
-8.024 5.753 -1.903 0.24
-8.021 5.713 -1.897 0.22
-8.049 5.694 -1.9 0.11
-8.06 5.665 -1.898 0.21
-8.078 5.639 -1.898 0.11
-8.094 5.613 -1.898 0.21
-8.092 5.592 -1.895 0.11
-8.111 5.568 -1.895 0.2
-8.135 5.547 -1.897 0.11
-8.146 5.517 -1.895 0.21
-8.173 5.498 -1.898 0.11
-8.172 5.46 -1.893 0.21
-8.186 5.432 -1.893 0.11
-8.209 5.411 -1.894 0.18
-8.211 5.393 -1.893 0.22
-8.237 5.373 -1.895 0.1
-8.239 5.337 -1.891 0.18
-8.259 5.314 -1.892 0.11
-8.282 5.292 -1.893 0.18
-8.28 5.254 -1.889 0.1
-8.298 5.229 -1.889 0.2
-8.305 5.215 -1.889 0.05
-8.323 5.19 -1.889 0.17
-8.339 5.164 -1.889 0.05
-8.355 5.138 -1.889 0.18
-8.36 5.104 -1.886 0.19
-8.376 5.078 -1.886 0.09
-8.397 5.055 -1.888 0.18
-8.39 5.032 -1.884 0.05
-8.407 5.007 -1.884 0.17
-8.421 4.98 -1.884 0.2
-8.44 4.955 -1.885 0.1
-8.442 4.921 -1.882 0.18
-8.464 4.898 -1.883 0.23
-8.471 4.867 -1.881 0.18
-8.479 4.853 -1.881 0.23
-8.497 4.828 -1.882 0.2
-8.506 4.798 -1.88 0.23
-8.517 4.769 -1.88 0.18
-8.532 4.742 -1.88 0.23
-8.53 4.706 -1.876 0.22
-8.548 4.681 -1.876 0.17
-8.559 4.67 -1.877 0.28
-8.565 4.638 -1.875 0.23
-8.569 4.606 -1.873 0.2
-8.596 4.585 -1.876 0.27
-8.605 4.555 -1.874 0.24
-8.609 4.523 -1.872 0.26
-8.63 4.499 -1.874 0.26
-8.639 4.469 -1.872 0.27
-8.647 4.457 -1.873 0.28
-8.668 4.433 -1.874 0.29
-8.691 4.41 -1.876 0.25
-8.699 4.38 -1.875 0.24
-8.697 4.345 -1.872 0.26
-8.72 4.322 -1.874 0.25
-8.739 4.297 -1.875 0.36
-8.745 4.284 -1.875 0.44
-8.762 4.258 -1.876 0.34
-8.761 4.223 -1.872 0.36
-8.775 4.196 -1.872 0.45
-8.804 4.176 -1.876 0.32
-8.806 4.143 -1.874 0.23
-8.83 4.121 -1.876 0.27
-8.856 4.116 -1.88 0.43
-8.874 4.09 -1.882 0.29
-8.885 4.062 -1.881 0.3
-8.885 4.028 -1.878 0.31
-8.907 4.004 -1.88 0.28
-8.932 3.982 -1.883 0.25
-8.948 3.955 -1.884 0.29
-8.954 3.941 -1.884 0.28
-8.966 3.913 -1.884 0.27
-8.973 3.883 -1.883 0.29
-9.003 3.862 -1.887 0.26
-8.998 3.826 -1.883 0.29
-9.013 3.799 -1.884 0.29
-9.032 3.774 -1.885 0.27
-9.035 3.758 -1.884 0.27
-9.046 3.73 -1.884 0.26
-9.054 3.7 -1.884 0.28
-9.077 3.676 -1.886 0.29
-9.087 3.647 -1.886 0.28
-9.096 3.617 -1.885 0.29
-9.107 3.589 -1.885 0.28
-9.12 3.577 -1.887 0.29
-9.124 3.546 -1.885 0.28
-9.139 3.519 -1.886 0.27
-9.154 3.491 -1.887 0.28
-9.165 3.463 -1.887 0.28
-9.179 3.435 -1.888 0.27
-9.181 3.403 -1.886 0.27
-9.189 3.373 -1.885 0.27
-9.197 3.359 -1.886 0.28
-9.211 3.332 -1.886 0.29
-9.23 3.306 -1.889 0.27
-9.237 3.276 -1.888 0.28
-9.234 3.242 -1.885 0.26
-9.27 3.222 -1.891 0.27
-9.262 3.187 -1.886 0.3
-9.269 3.173 -1.887 0.29
-9.279 3.144 -1.887 0.29
-9.283 3.113 -1.886 0.29
-9.308 3.089 -1.889 0.27
-9.308 3.056 -1.887 0.29
-9.323 3.029 -1.888 0.3
-9.318 2.995 -1.885 0.3
-9.344 2.971 -1.889 0.27
-9.335 2.952 -1.886 0.27
-9.352 2.925 -1.887 0.28
-9.367 2.897 -1.889 0.29
-9.37 2.866 -1.887 0.27
-9.368 2.833 -1.885 0.32
-9.39 2.808 -1.888 0.27
-9.398 2.794 -1.889 0.27
-9.392 2.76 -1.885 0.3
-9.4 2.731 -1.885 0.26
-9.428 2.706 -1.889 0.26
-9.429 2.675 -1.888 0.29
-9.445 2.647 -1.889 0.29
-9.451 2.617 -1.889 0.29
-9.444 2.599 -1.886 0.28
-9.465 2.573 -1.889 0.29
-9.471 2.543 -1.889 0.31
-9.46 2.508 -1.885 0.3
-9.491 2.484 -1.89 0.27
-9.495 2.453 -1.889 0.29
-9.506 2.424 -1.89 0.28
-9.512 2.41 -1.89 0.28
-9.518 2.38 -1.89 0.29
-9.517 2.348 -1.888 0.29
-9.517 2.316 -1.886 0.29
-9.551 2.293 -1.892 0.25
-9.541 2.258 -1.889 0.2
-9.544 2.228 -1.888 0.3
-9.563 2.2 -1.89 0.25
-9.562 2.184 -1.889 0.29
-9.569 2.154 -1.889 0.27
-9.587 2.127 -1.892 0.27
-9.573 2.092 -1.887 0.29
-9.585 2.063 -1.889 0.27
-9.595 2.034 -1.889 0.27
-9.604 2.004 -1.89 0.28
-9.601 1.988 -1.889 0.27
-9.609 1.958 -1.889 0.27
-9.617 1.928 -1.889 0.25
-9.612 1.896 -1.887 0.3
-9.623 1.867 -1.888 0.26
-9.639 1.838 -1.89 0.26
-9.635 1.806 -1.888 0.18
-9.624 1.788 -1.885 0.3
-9.634 1.759 -1.886 0.24
-9.637 1.728 -1.886 0.28
-9.645 1.698 -1.886 0.28
-9.646 1.667 -1.885 0.27
-9.653 1.637 -1.886 0.29
-9.664 1.608 -1.887 0.29
-9.665 1.577 -1.886 0.27
-9.66 1.561 -1.884 0.28
-9.67 1.531 -1.886 0.29
-9.666 1.499 -1.884 0.25
-9.67 1.469 -1.884 0.29
-9.686 1.44 -1.886 0.28
-9.681 1.408 -1.884 0.26
-9.68 1.377 -1.883 0.27
-9.696 1.364 -1.886 0.25
-9.69 1.332 -1.884 0.19
-9.694 1.302 -1.884 0.33
-9.723 1.275 -1.889 0.36
-9.712 1.242 -1.886 0.36
-9.724 1.212 -1.887 0.33
-9.729 1.182 -1.888 0.3
-9.731 1.167 -1.888 0.23
-9.748 1.138 -1.891 0.2
-9.756 1.108 -1.891 0.27
-9.765 1.078 -1.893 0.2
-9.774 1.048 -1.894 0.25
-9.789 1.018 -1.896 0.2
-9.775 0.986 -1.893 0.23
-9.795 0.957 -1.896 0.2
-9.797 0.941 -1.896 0.23
-9.788 0.909 -1.894 0.2
-9.797 0.879 -1.895 0.21
-9.803 0.849 -1.896 0.1
-9.792 0.817 -1.893 0.19
-9.803 0.787 -1.895 0.11
-9.809 0.756 -1.895 0.21
-9.798 0.74 -1.893 0.11
-9.81 0.71 -1.895 0.18
-9.807 0.678 -1.894 0.21
-9.811 0.648 -1.894 0.18
-9.807 0.617 -1.893 0.23
-9.822 0.587 -1.896 0.17
-9.797 0.554 -1.89 0.23
-9.8 0.539 -1.891 0.2
-9.809 0.509 -1.892 0.21
-9.783 0.476 -1.886 0.21
-9.785 0.446 -1.886 0.21
-9.778 0.414 -1.885 0.25
-9.781 0.384 -1.885 0.22
-9.773 0.353 -1.883 0.17
-9.781 0.338 -1.885 0.29
-9.763 0.306 -1.881 0.25
-9.769 0.276 -1.882 0.27
-9.764 0.245 -1.881 0.29
-9.771 0.214 -1.882 0.26
-9.774 0.184 -1.882 0.28
-9.764 0.153 -1.88 0.19
-9.767 0.122 -1.881 0.28
-9.769 0.107 -1.881 0.24
-9.775 0.076 -1.882 0.26
-9.767 0.045 -1.881 0.27
-9.765 0.015 -1.88 0.28
-9.773 -0.016 -1.882 0.26
-9.771 -0.047 -1.882 0.27
-9.779 -0.077 -1.883 0.25
-9.781 -0.093 -1.884 0.21
-9.763 -0.123 -1.88 0.27
-9.766 -0.154 -1.881 0.24
-9.77 -0.185 -1.882 0.27
-9.769 -0.215 -1.882 0.25
-9.772 -0.246 -1.882 0.2
-9.781 -0.277 -1.884 0.27
-9.775 -0.292 -1.883 0.23
-9.784 -0.323 -1.885 0.21
-9.783 -0.354 -1.885 0.24
-9.783 -0.385 -1.886 0.22
-9.782 -0.416 -1.886 0.2
-9.779 -0.446 -1.885 0.24
-9.795 -0.478 -1.889 0.19
-9.781 -0.493 -1.886 0.11
-9.785 -0.524 -1.887 0.2
-9.779 -0.554 -1.886 0.1
-9.773 -0.585 -1.886 0.2
-9.781 -0.616 -1.888 0.11
-9.77 -0.646 -1.886 0.2
-9.779 -0.677 -1.888 0.11
-9.763 -0.692 -1.885 0.19
-9.772 -0.723 -1.887 0.11
-9.758 -0.753 -1.885 0.19
-9.744 -0.783 -1.882 0.23
-9.736 -0.813 -1.881 0.2
-9.727 -0.843 -1.88 0.22
-9.715 -0.873 -1.878 0.18
-9.713 -0.888 -1.878 0.24
-9.722 -0.92 -1.88 0.18
-9.704 -0.949 -1.877 0.24
-9.702 -0.979 -1.878 0.22
-9.692 -1.009 -1.876 0.18
-9.688 -1.039 -1.876 0.27
-9.673 -1.069 -1.874 0.23
-9.672 -1.084 -1.874 0.25
-9.67 -1.114 -1.874 0.26
-9.67 -1.145 -1.875 0.26
-9.667 -1.176 -1.875 0.27
-9.665 -1.206 -1.875 0.28
-9.665 -1.237 -1.876 0.27
-9.663 -1.268 -1.876 0.27
-9.682 -1.286 -1.881 0.26
-9.678 -1.316 -1.881 0.28
-9.678 -1.347 -1.882 0.29
-9.666 -1.376 -1.88 0.27
-9.666 -1.407 -1.881 0.27
-9.661 -1.438 -1.881 0.3
-9.645 -1.466 -1.878 0.29
-9.643 -1.481 -1.878 0.29
-9.644 -1.512 -1.88 0.26
-9.67 -1.548 -1.886 0.25
-9.711 -1.585 -1.896 0.29
-9.714 -1.617 -1.897 0.29
-9.705 -1.647 -1.897 0.3
-9.71 -1.679 -1.899 0.29
-9.707 -1.694 -1.899 0.29
-9.642 -1.714 -1.886 0.36
-9.565 -1.732 -1.871 0.26
-9.426 -1.738 -1.843 0.28
-9.3 -1.745 -1.818 0.33
-9.279 -1.771 -1.815 0.28
-9.269 -1.8 -1.814 0.27
-9.263 -1.829 -1.814 0.26
-9.243 -1.84 -1.81 0.24
-9.255 -1.873 -1.814 0.19
-9.289 -1.91 -1.823 0.32
-9.237 -1.929 -1.813 0.43
-9.304 -1.974 -1.828 0.39
-9.368 -2.018 -1.843 0.29
-9.364 -2.048 -1.843 0.38
-9.303 -2.05 -1.831 0.34
-9.343 -2.089 -1.841 0.34
-9.311 -2.113 -1.836 0.31
-9.327 -2.148 -1.841 0.3
-9.405 -2.196 -1.858 0.33
-9.363 -2.218 -1.851 0.27
-9.324 -2.24 -1.844 0.36
-9.286 -2.246 -1.837 0.38
-9.277 -2.275 -1.837 0.28
-9.283 -2.307 -1.839 0.28
-9.28 -2.337 -1.84 0.32
-9.244 -2.359 -1.834 0.34
-9.25 -2.392 -1.837 0.31
-9.204 -2.411 -1.829 0.28
-9.221 -2.446 -1.834 0.27
-9.255 -2.471 -1.842 0.41
-9.397 -2.54 -1.874 0.23
-9.476 -2.593 -1.893 0.42
-9.466 -2.622 -1.892 0.34
-9.476 -2.657 -1.896 0.31
-9.432 -2.677 -1.889 0.3
-9.475 -2.705 -1.899 0.39
-9.478 -2.738 -1.901 0.32
-9.513 -2.78 -1.91 0.25
-9.53 -2.818 -1.916 0.3
-9.486 -2.837 -1.908 0.35
-9.43 -2.853 -1.898 0.32
-9.423 -2.883 -1.899 0.27
-9.43 -2.918 -1.902 0.35
-9.424 -2.932 -1.902 0.34
-9.409 -2.96 -1.901 0.29
-9.224 -2.934 -1.863 0.18
-9.136 -2.938 -1.846 0.28
-9.148 -2.973 -1.85 0.23
-9.183 -3.016 -1.86 0.26
-9.125 -3.029 -1.849 0.26
-9.051 -3.021 -1.835 0.26
-8.962 -3.023 -1.817 0.26
-8.874 -3.024 -1.8 0.2
-8.746 -3.012 -1.775 0.29
-8.622 -3.0 -1.75 0.25
-8.54 -3.002 -1.734 0.0
-8.492 -3.015 -1.726 0.0
-9.4 -3.384 -1.927 0.19
-9.356 -3.402 -1.919 0.33
-9.346 -3.431 -1.919 0.25
-9.324 -3.456 -1.917 0.26
-9.362 -3.504 -1.928 0.31
-9.339 -3.529 -1.925 0.27
-9.302 -3.532 -1.918 0.3
-9.263 -3.55 -1.912 0.23
-9.323 -3.607 -1.928 0.4
-9.29 -3.628 -1.923 0.31
-9.299 -3.665 -1.928 0.28
-9.263 -3.684 -1.922 0.3
-9.217 -3.7 -1.915 0.29
-9.196 -3.725 -1.913 0.25
-9.16 -3.727 -1.906 0.18
-9.144 -3.754 -1.905 0.28
-9.136 -3.785 -1.906 0.25
-9.115 -3.809 -1.904 0.27
-9.105 -3.839 -1.904 0.24
-9.078 -3.861 -1.901 0.17
-9.048 -3.882 -1.897 0.48
-9.073 -3.909 -1.904 0.29
-9.06 -3.938 -1.904 0.27
-9.05 -3.967 -1.904 0.32
-9.041 -3.997 -1.905 0.31
-9.026 -4.025 -1.905 0.28
-9.003 -4.048 -1.902 0.32
-8.971 -4.068 -1.898 0.3
-8.984 -4.091 -1.902 0.36
-9.01 -4.137 -1.911 0.38
-8.953 -4.145 -1.901 0.29
-8.915 -4.161 -1.895 0.31
-8.983 -4.227 -1.914 0.21
-8.927 -4.235 -1.904 0.27
-8.845 -4.231 -1.889 0.22
-8.89 -4.286 -1.902 0.26
-8.83 -4.275 -1.89 0.21
-8.792 -4.291 -1.884 0.24
-8.773 -4.316 -1.883 0.18
-8.756 -4.341 -1.882 0.13
-8.728 -4.362 -1.879 0.2
-8.741 -4.403 -1.885 0.27
-8.673 -4.403 -1.872 0.11
-8.689 -4.428 -1.878 0.21
-8.725 -4.481 -1.889 0.25
-8.689 -4.497 -1.884 0.22
-8.589 -4.48 -1.864 0.28
-8.415 -4.423 -1.827 0.18
-8.386 -4.441 -1.824 0.23
-8.38 -4.472 -1.826 0.19
-8.417 -4.509 -1.836 0.21
-8.366 -4.515 -1.827 0.2
-8.312 -4.52 -1.818 0.23
-8.264 -4.528 -1.81 0.18
-8.194 -4.523 -1.797 0.24
-8.129 -4.521 -1.785 0.23
-8.085 -4.53 -1.778 0.19
-8.027 -4.514 -1.766 0.26
-7.982 -4.522 -1.759 0.22
-7.888 -4.502 -1.74 0.22
-7.814 -4.492 -1.726 0.1
-7.759 -4.493 -1.716 0.0
-7.694 -4.488 -1.704 0.0
-7.651 -4.496 -1.697 0.0
-8.412 -5.029 -1.888 0.14
-8.4 -5.057 -1.889 0.27
-8.35 -5.064 -1.88 0.33
-8.281 -5.057 -1.868 0.25
-8.225 -5.059 -1.858 0.38
-8.134 -5.038 -1.84 0.27
-8.124 -5.05 -1.839 0.28
-8.066 -5.05 -1.829 0.21
-8.082 -5.095 -1.837 0.3
-8.025 -5.094 -1.827 0.24
-8.017 -5.124 -1.829 0.26
-7.994 -5.145 -1.827 0.28
-7.932 -5.141 -1.816 0.27
-7.93 -5.157 -1.818 0.31
-7.899 -5.173 -1.814 0.3
-7.844 -5.172 -1.804 0.23
-7.798 -5.177 -1.797 0.2
-7.775 -5.197 -1.796 0.4
-7.767 -5.227 -1.798 0.28
-7.759 -5.257 -1.8 0.25
-7.729 -5.255 -1.794 0.3
-7.656 -5.24 -1.78 0.2
-7.617 -5.249 -1.775 0.32
-7.623 -5.288 -1.78 0.24
-7.576 -5.291 -1.773 0.23
-7.541 -5.303 -1.768 0.22
-7.52 -5.323 -1.767 0.38
-7.539 -5.354 -1.774 0.31
-7.514 -5.372 -1.772 0.29
-7.513 -5.407 -1.776 0.3
-7.512 -5.442 -1.78 0.37
-7.46 -5.44 -1.771 0.3
-7.512 -5.514 -1.789 0.27
-7.391 -5.461 -1.762 0.36
-7.393 -5.481 -1.765 0.31
-7.558 -5.64 -1.812 0.32
-7.504 -5.636 -1.802 0.33
-7.482 -5.656 -1.801 0.27
-7.467 -5.682 -1.802 0.26
-7.446 -5.703 -1.801 0.26
-7.441 -5.736 -1.804 0.27
-7.44 -5.754 -1.806 0.3
-7.437 -5.789 -1.81 0.3
-7.423 -5.816 -1.812 0.24
-7.397 -5.833 -1.81 0.27
-7.37 -5.849 -1.807 0.24
-7.371 -5.888 -1.813 0.23
-7.357 -5.915 -1.814 0.27
-7.325 -5.927 -1.81 0.32
-7.325 -5.946 -1.813 0.37
-7.273 -5.942 -1.804 0.25
-7.262 -5.971 -1.806 0.26
-7.22 -5.975 -1.8 0.27
-7.272 -6.056 -1.819 0.39
-7.232 -6.062 -1.813 0.25
-7.168 -6.047 -1.801 0.29
-7.097 -6.006 -1.784 0.22
-7.062 -6.014 -1.78 0.2
-7.029 -6.025 -1.776 0.23
-7.01 -6.047 -1.776 0.2
-6.97 -6.051 -1.771 0.25
-6.932 -6.056 -1.765 0.25
-6.869 -6.039 -1.753 0.2
-6.812 -6.009 -1.741 0.25
-6.799 -6.035 -1.742 0.25
-6.78 -6.057 -1.742 0.26
-6.745 -6.064 -1.738 0.27
-6.707 -6.068 -1.732 0.26
-6.657 -6.061 -1.724 0.27
-6.627 -6.072 -1.721 0.26
-6.601 -6.067 -1.716 0.27
-6.551 -6.059 -1.708 0.28
-6.516 -6.065 -1.703 0.29
-6.482 -6.072 -1.699 0.29
-6.435 -6.066 -1.691 0.29
-6.39 -6.062 -1.684 0.3
-6.351 -6.063 -1.678 0.28
-6.304 -6.038 -1.668 0.27
-6.259 -6.032 -1.66 0.27
-6.235 -6.047 -1.659 0.27
-6.197 -6.048 -1.653 0.29
-6.152 -6.042 -1.646 0.28
-6.128 -6.056 -1.644 0.25
-6.078 -6.045 -1.636 0.25
-6.07 -6.056 -1.636 0.0
-6.018 -6.042 -1.626 0.0
-6.043 -6.105 -1.639 0.04
-6.626 -6.733 -1.815 0.16
-6.569 -6.717 -1.804 0.12
-6.516 -6.705 -1.795 0.25
-6.497 -6.727 -1.796 0.4
-6.485 -6.758 -1.798 0.31
-6.486 -6.78 -1.802 0.32
-6.434 -6.768 -1.793 0.41
-6.438 -6.815 -1.8 0.32
-6.398 -6.816 -1.795 0.34
-6.375 -6.834 -1.794 0.26
-6.358 -6.859 -1.796 0.36
-6.324 -6.866 -1.792 0.32
-6.313 -6.876 -1.792 0.48
-6.306 -6.911 -1.796 0.26
-6.281 -6.927 -1.795 0.31
-6.26 -6.948 -1.796 0.33
-6.196 -6.921 -1.783 0.41
-6.206 -6.975 -1.792 0.43
-6.193 -7.005 -1.795 0.29
-6.185 -7.018 -1.796 0.32
-6.167 -7.041 -1.797 0.33
-6.157 -7.076 -1.801 0.38
-6.117 -7.074 -1.796 0.28
-6.072 -7.067 -1.788 0.3
-6.055 -7.092 -1.79 0.29
-6.036 -7.115 -1.791 0.29
-6.02 -7.119 -1.79 0.24
-6.001 -7.142 -1.791 0.29
-5.985 -7.168 -1.793 0.3
-5.979 -7.207 -1.798 0.33
-5.931 -7.195 -1.79 0.31
-5.931 -7.241 -1.797 0.33
-5.893 -7.241 -1.792 0.21
-5.892 -7.263 -1.796 0.43
-5.859 -7.269 -1.792 0.23
-5.824 -7.272 -1.788 0.32
-5.812 -7.304 -1.792 0.39
-5.778 -7.309 -1.788 0.32
-5.759 -7.331 -1.79 0.24
-5.726 -7.337 -1.786 0.35
-5.717 -7.349 -1.787 0.36
-5.677 -7.345 -1.782 0.31
-5.631 -7.334 -1.774 0.27
-5.63 -7.379 -1.781 0.32
-5.593 -7.38 -1.777 0.3
-5.568 -7.394 -1.776 0.35
-5.529 -7.391 -1.771 0.32
-5.514 -7.42 -1.773 0.41
-5.519 -7.45 -1.779 0.2
-5.521 -7.502 -1.788 0.21
-5.448 -7.452 -1.771 0.3
-5.37 -7.395 -1.752 0.25
-5.351 -7.418 -1.753 0.23
-5.32 -7.423 -1.751 0.12
-5.288 -7.429 -1.748 0.21
-5.281 -7.444 -1.749 0.21
-5.274 -7.482 -1.755 0.25
-5.251 -7.501 -1.755 0.24
-5.243 -7.54 -1.761 0.23
-5.219 -7.554 -1.761 0.27
-5.157 -7.516 -1.747 0.23
-5.125 -7.519 -1.744 0.1
-5.098 -7.506 -1.739 0.18
-5.077 -7.525 -1.739 0.19
-5.041 -7.523 -1.735 0.1
-5.021 -7.544 -1.736 0.18
-4.988 -7.547 -1.733 0.23
-4.959 -7.554 -1.731 0.19
-4.928 -7.558 -1.728 0.24
-4.908 -7.553 -1.725 0.2
-4.874 -7.554 -1.721 0.25
-4.841 -7.554 -1.718 0.23
-4.813 -7.563 -1.716 0.2
-4.779 -7.561 -1.712 0.25
-4.743 -7.558 -1.708 0.19
-4.716 -7.568 -1.706 0.24
-4.694 -7.559 -1.702 0.22
-4.659 -7.555 -1.698 0.18
-4.628 -7.558 -1.695 0.27
-4.595 -7.557 -1.691 0.23
-4.562 -7.557 -1.688 0.2
-4.535 -7.566 -1.687 0.25
-4.504 -7.567 -1.683 0.22
-4.484 -7.56 -1.68 0.2
-4.453 -7.563 -1.677 0.25
-4.416 -7.555 -1.672 0.23
-4.389 -7.563 -1.671 0.2
-4.357 -7.562 -1.667 0.25
-4.321 -7.555 -1.663 0.23
-4.303 -7.579 -1.665 0.2
-4.277 -7.56 -1.659 0.25
-4.245 -7.56 -1.656 0.23
-4.223 -7.575 -1.656 0.2
-4.184 -7.562 -1.65 0.25
-4.151 -7.558 -1.646 0.23
-4.125 -7.566 -1.645 0.21
-4.093 -7.565 -1.642 0.25
-4.063 -7.566 -1.639 0.24
-4.043 -7.557 -1.635 0.2
-4.015 -7.563 -1.634 0.25
-3.991 -7.574 -1.633 0.21
-3.949 -7.551 -1.625 0.23
-3.91 -7.536 -1.619 0.18
-3.885 -7.545 -1.618 0.23
-3.855 -7.545 -1.615 0.19
-3.836 -7.537 -1.612 0.24
-3.812 -7.549 -1.612 0.2
-3.775 -7.535 -1.606 0.12
-3.743 -7.529 -1.602 0.2
-3.72 -7.542 -1.602 0.11
-3.686 -7.533 -1.597 0.19
-3.659 -7.537 -1.596 0.19
-3.645 -7.54 -1.595 0.18
-3.611 -7.53 -1.59 0.04
-3.58 -7.525 -1.587 0.0
-3.558 -7.54 -1.587 0.0
-3.528 -7.539 -1.585 0.0
-3.498 -7.536 -1.581 0.0
-3.486 -7.571 -1.587 0.0
-3.457 -7.541 -1.579 0.0
-3.427 -7.538 -1.576 0.0
-3.408 -7.559 -1.578 0.0
-3.382 -7.565 -1.577 0.0
-3.382 -7.627 -1.589 0.0
-3.398 -7.729 -1.609 0.0
-3.491 -8.007 -1.669 0.0
-3.527 -8.122 -1.693 0.0
-3.484 -8.093 -1.685 0.05
-3.461 -8.11 -1.686 0.14
-3.451 -8.158 -1.694 0.22
-3.424 -8.164 -1.693 0.23
-3.386 -8.146 -1.687 0.29
-3.36 -8.156 -1.687 0.31
-3.352 -8.21 -1.696 0.25
-3.338 -8.212 -1.695 0.42
-3.306 -8.206 -1.692 0.35
-3.258 -8.162 -1.68 0.3
-3.235 -8.179 -1.681 0.45
-3.229 -8.238 -1.692 0.29
-3.191 -8.218 -1.685 0.33
-3.186 -8.243 -1.69 0.35
-3.161 -8.256 -1.691 0.43
-3.133 -8.261 -1.689 0.34
-3.093 -8.234 -1.681 0.39
-3.069 -8.247 -1.682 0.34
-3.037 -8.242 -1.679 0.29
-3.018 -8.27 -1.683 0.28
-3.01 -8.327 -1.693 0.24
-2.996 -8.33 -1.693 0.52
-2.968 -8.334 -1.692 0.32
-2.937 -8.33 -1.689 0.39
-2.909 -8.336 -1.688 0.37
-2.881 -8.338 -1.687 0.39
-2.848 -8.328 -1.683 0.32
-2.814 -8.313 -1.677 0.26
-2.791 -8.289 -1.671 0.35
-2.763 -8.291 -1.67 0.45
-2.733 -8.288 -1.667 0.31
-2.707 -8.297 -1.667 0.32
-2.687 -8.324 -1.671 0.32
-2.662 -8.336 -1.672 0.38
-2.622 -8.301 -1.663 0.34
-2.601 -8.281 -1.658 0.32
-2.576 -8.291 -1.658 0.38
-2.541 -8.271 -1.652 0.29
-2.51 -8.264 -1.649 0.3
-2.478 -8.25 -1.644 0.38
-2.454 -8.267 -1.646 0.35
-2.435 -8.295 -1.65 0.34
-2.427 -8.318 -1.654 0.35
-2.395 -8.304 -1.65 0.33
-2.371 -8.319 -1.652 0.33
-2.344 -8.325 -1.651 0.3
-2.315 -8.321 -1.649 0.41
-2.286 -8.319 -1.647 0.25
-2.263 -8.335 -1.649 0.34
-2.25 -8.341 -1.649 0.31
-2.222 -8.34 -1.648 0.39
-2.195 -8.343 -1.647 0.41
-2.165 -8.339 -1.644 0.33
-2.135 -8.331 -1.641 0.33
-2.109 -8.337 -1.641 0.34
-2.081 -8.336 -1.64 0.38
-2.065 -8.328 -1.637 0.31
-2.026 -8.283 -1.626 0.37
-2.0 -8.291 -1.627 0.33
-1.972 -8.286 -1.624 0.29
-1.962 -8.361 -1.639 0.28
-1.932 -8.35 -1.635 0.53
-1.901 -8.337 -1.631 0.47
-1.884 -8.325 -1.628 0.38
-1.852 -8.304 -1.622 0.35
-1.826 -8.311 -1.623 0.33
-1.805 -8.338 -1.627 0.39
-1.775 -8.326 -1.624 0.4
-1.744 -8.311 -1.619 0.23
-1.725 -8.347 -1.626 0.28
-1.71 -8.34 -1.624 0.43
-1.681 -8.334 -1.621 0.42
-1.654 -8.335 -1.62 0.39
-1.627 -8.335 -1.619 0.36
-1.601 -8.34 -1.619 0.36
-1.573 -8.335 -1.617 0.33
-1.544 -8.33 -1.615 0.35
-1.518 -8.335 -1.615 0.35
-1.505 -8.336 -1.615 0.36
-1.477 -8.331 -1.613 0.36
-1.45 -8.333 -1.612 0.37
-1.425 -8.344 -1.613 0.36
-1.399 -8.346 -1.613 0.38
-1.37 -8.333 -1.609 0.36
-1.343 -8.336 -1.609 0.36
-1.33 -8.336 -1.609 0.36
-1.301 -8.326 -1.606 0.31
-1.267 -8.278 -1.595 0.34
-1.242 -8.292 -1.597 0.39
-1.214 -8.278 -1.593 0.37
-1.185 -8.266 -1.59 0.32
-1.168 -8.33 -1.603 0.27
-1.154 -8.326 -1.601 0.42
-1.131 -8.351 -1.606 0.38
-1.1 -8.32 -1.599 0.32
-1.069 -8.286 -1.591 0.33
-1.046 -8.315 -1.596 0.43
-1.023 -8.339 -1.601 0.34
-0.996 -8.341 -1.6 0.34
-0.982 -8.331 -1.598 0.36
-0.955 -8.328 -1.597 0.36
-0.93 -8.342 -1.599 0.36
-0.904 -8.347 -1.599 0.36
-0.876 -8.334 -1.596 0.35
-0.85 -8.335 -1.596 0.35
-0.823 -8.334 -1.595 0.35
-0.81 -8.331 -1.594 0.34
-0.784 -8.338 -1.595 0.35
-0.757 -8.336 -1.594 0.34
-0.731 -8.341 -1.595 0.32
-0.705 -8.343 -1.595 0.34
-0.679 -8.341 -1.594 0.37
-0.652 -8.337 -1.593 0.33
-0.639 -8.34 -1.593 0.36
-0.613 -8.34 -1.593 0.39
-0.584 -8.313 -1.587 0.23
-0.56 -8.34 -1.592 0.36
-0.534 -8.344 -1.592 0.36
-0.507 -8.328 -1.589 0.35
-0.481 -8.339 -1.591 0.36
-0.455 -8.337 -1.59 0.35
-0.441 -8.337 -1.59 0.36
-0.415 -8.341 -1.59 0.32
-0.389 -8.34 -1.59 0.4
-0.362 -8.333 -1.588 0.31
-0.336 -8.334 -1.588 0.36
-0.31 -8.337 -1.589 0.36
-0.297 -8.338 -1.589 0.35
-0.271 -8.337 -1.588 0.35
-0.245 -8.336 -1.588 0.33
-0.219 -8.34 -1.589 0.35
-0.192 -8.339 -1.588 0.33
-0.166 -8.338 -1.588 0.33
-0.14 -8.334 -1.587 0.34
-0.127 -8.336 -1.587 0.34
-0.1 -8.333 -1.587 0.32
-0.074 -8.337 -1.587 0.32
-0.048 -8.341 -1.588 0.34
-0.022 -8.341 -1.588 0.37
0.004 -8.341 -1.588 0.32
0.03 -8.329 -1.586 0.35
0.057 -8.349 -1.59 0.35
0.07 -8.335 -1.587 0.36
0.096 -8.339 -1.588 0.38
0.122 -8.329 -1.586 0.33
0.148 -8.334 -1.587 0.3
0.174 -8.332 -1.587 0.34
0.2 -8.319 -1.584 0.32
0.227 -8.336 -1.588 0.36
0.24 -8.32 -1.585 0.3
0.266 -8.337 -1.588 0.34
0.293 -8.34 -1.589 0.33
0.319 -8.341 -1.589 0.33
0.345 -8.332 -1.588 0.35
0.371 -8.335 -1.589 0.35
0.398 -8.342 -1.59 0.31
0.411 -8.341 -1.59 0.39
0.435 -8.308 -1.584 0.33
0.462 -8.317 -1.586 0.28
0.489 -8.331 -1.589 0.35
0.516 -8.347 -1.593 0.3
0.542 -8.339 -1.591 0.4
0.567 -8.326 -1.589 0.3
0.58 -8.311 -1.586 0.31
0.608 -8.348 -1.594 0.3
0.634 -8.341 -1.593 0.43
0.66 -8.335 -1.592 0.31
0.685 -8.321 -1.59 0.41
0.708 -8.276 -1.581 0.24
0.736 -8.297 -1.586 0.41
0.746 -8.263 -1.579 0.32
0.774 -8.282 -1.583 0.34
0.801 -8.291 -1.586 0.29
0.829 -8.31 -1.59 0.32
0.86 -8.356 -1.6 0.22
0.884 -8.326 -1.595 0.54
0.906 -8.29 -1.588 0.29
0.92 -8.292 -1.589 0.35
0.945 -8.28 -1.587 0.36
0.969 -8.263 -1.584 0.37
0.999 -8.291 -1.59 0.3
1.025 -8.286 -1.59 0.28
1.054 -8.306 -1.595 0.38
1.075 -8.264 -1.587 0.3
1.094 -8.311 -1.597 0.38
1.119 -8.301 -1.595 0.28
1.147 -8.309 -1.598 0.29
1.175 -8.323 -1.601 0.27
1.195 -8.273 -1.592 0.59
1.221 -8.271 -1.592 0.29
1.249 -8.279 -1.595 0.37
1.263 -8.287 -1.597 0.36
1.294 -8.315 -1.603 0.38
1.312 -8.257 -1.592 0.23
1.344 -8.288 -1.599 0.41
1.368 -8.272 -1.597 0.34
1.382 -8.196 -1.582 0.33
1.404 -8.172 -1.578 0.25
1.445 -8.257 -1.597 0.34
1.453 -8.222 -1.59 0.25
1.485 -8.254 -1.597 0.38
1.511 -8.253 -1.598 0.34
1.541 -8.265 -1.602 0.3
1.563 -8.241 -1.598 0.47
1.58 -8.19 -1.588 0.3
1.604 -8.177 -1.587 0.33
1.623 -8.208 -1.593 0.29
1.652 -8.216 -1.596 0.27
1.672 -8.184 -1.591 0.27
1.702 -8.2 -1.595 0.35
1.733 -8.219 -1.6 0.45
1.754 -8.191 -1.595 0.25
1.774 -8.221 -1.602 0.25
1.796 -8.196 -1.598 0.45
1.823 -8.198 -1.6 0.46
1.856 -8.223 -1.606 0.34
1.884 -8.228 -1.609 0.45
1.903 -8.192 -1.602 0.35
1.93 -8.193 -1.604 0.24
1.966 -8.231 -1.613 0.42
1.978 -8.224 -1.612 0.32
2.002 -8.208 -1.61 0.28
2.031 -8.213 -1.613 0.43
2.06 -8.222 -1.616 0.24
2.066 -8.138 -1.599 0.3
2.1 -8.164 -1.606 0.22
2.135 -8.191 -1.613 0.0
2.138 -8.152 -1.606 0.0
2.132 -8.025 -1.58 0.0
2.113 -7.85 -1.545 0.0
2.098 -7.698 -1.514 0.0
2.096 -7.595 -1.493 0.0
2.113 -7.564 -1.488 0.0
2.138 -7.561 -1.489 0.06
2.154 -7.571 -1.492 0.15
2.175 -7.556 -1.49 0.17
2.202 -7.561 -1.492 0.18
2.229 -7.565 -1.495 0.09
2.247 -7.537 -1.49 0.18
2.276 -7.549 -1.494 0.2
2.307 -7.564 -1.499 0.1
2.316 -7.551 -1.497 0.19
2.342 -7.551 -1.499 0.2
2.371 -7.563 -1.503 0.24
2.392 -7.546 -1.501 0.19
2.421 -7.553 -1.504 0.24
2.448 -7.559 -1.507 0.21
2.473 -7.555 -1.508 0.2
2.487 -7.556 -1.509 0.25
2.514 -7.558 -1.511 0.23
2.541 -7.559 -1.513 0.2
2.567 -7.559 -1.515 0.25
2.597 -7.569 -1.519 0.2
2.621 -7.563 -1.519 0.23
2.653 -7.579 -1.524 0.2
2.669 -7.584 -1.526 0.12
2.695 -7.583 -1.528 0.21
2.723 -7.585 -1.53 0.2
2.75 -7.586 -1.532 0.24
2.774 -7.577 -1.532 0.23
2.803 -7.585 -1.536 0.21
2.832 -7.589 -1.539 0.25
2.84 -7.574 -1.536 0.23
2.873 -7.59 -1.542 0.21
2.9 -7.589 -1.543 0.25
2.925 -7.583 -1.544 0.23
2.955 -7.59 -1.548 0.18
2.982 -7.588 -1.55 0.26
3.006 -7.579 -1.55 0.23
3.02 -7.58 -1.551 0.2
3.051 -7.588 -1.555 0.25
3.075 -7.579 -1.555 0.22
3.107 -7.589 -1.559 0.21
3.135 -7.59 -1.562 0.25
3.16 -7.584 -1.562 0.23
3.191 -7.59 -1.566 0.2
3.218 -7.589 -1.568 0.25
3.231 -7.586 -1.568 0.23
3.26 -7.586 -1.571 0.18
3.289 -7.589 -1.574 0.26
3.316 -7.587 -1.576 0.24
3.346 -7.589 -1.578 0.19
3.372 -7.584 -1.58 0.27
3.39 -7.561 -1.577 0.21
3.417 -7.59 -1.585 0.21
3.411 -7.513 -1.57 0.25
3.443 -7.52 -1.574 0.2
3.478 -7.534 -1.579 0.24
3.516 -7.553 -1.586 0.19
3.552 -7.569 -1.592 0.23
3.576 -7.559 -1.593 0.1
3.594 -7.566 -1.595 0.18
3.623 -7.566 -1.598 0.1
3.649 -7.559 -1.599 0.18
3.676 -7.555 -1.601 0.21
3.696 -7.535 -1.599 0.18
3.726 -7.537 -1.602 0.23
3.754 -7.534 -1.604 0.21
3.777 -7.551 -1.609 0.29
3.806 -7.548 -1.611 0.23
3.848 -7.573 -1.619 0.22
3.88 -7.578 -1.624 0.42
3.873 -7.505 -1.609 0.29
3.897 -7.494 -1.61 0.17
3.953 -7.543 -1.624 0.23
3.961 -7.53 -1.622 0.58
3.989 -7.526 -1.624 0.47
3.988 -7.466 -1.613 0.29
4.009 -7.45 -1.613 0.25
4.046 -7.462 -1.618 0.36
4.07 -7.451 -1.619 0.43
4.084 -7.421 -1.615 0.3
4.091 -7.406 -1.613 0.28
4.114 -7.393 -1.613 0.27
4.143 -7.39 -1.615 0.22
4.171 -7.386 -1.617 0.25
4.189 -7.362 -1.615 0.23
4.21 -7.346 -1.614 0.2
4.274 -7.404 -1.631 0.25
4.305 -7.431 -1.639 0.44
4.323 -7.409 -1.637 0.32
4.359 -7.417 -1.642 0.28
4.385 -7.407 -1.643 0.27
4.367 -7.324 -1.626 0.21
4.388 -7.307 -1.626 0.34
4.406 -7.285 -1.624 0.36
4.436 -7.308 -1.631 0.35
4.442 -7.267 -1.624 0.22
4.45 -7.228 -1.618 0.29
4.456 -7.188 -1.612 0.43
4.518 -7.237 -1.627 0.3
4.505 -7.166 -1.613 0.33
4.552 -7.19 -1.623 0.3
4.567 -7.19 -1.624 0.35
4.59 -7.175 -1.624 0.32
4.609 -7.156 -1.623 0.41
4.607 -7.103 -1.614 0.26
4.635 -7.097 -1.616 0.31
4.649 -7.071 -1.613 0.44
4.658 -7.035 -1.608 0.28
4.68 -7.044 -1.612 0.27
4.71 -7.042 -1.615 0.33
4.742 -7.042 -1.619 0.42
4.766 -7.031 -1.619 0.37
4.805 -7.04 -1.626 0.33
4.812 -7.002 -1.62 0.31
4.825 -6.974 -1.617 0.29
4.83 -6.958 -1.615 0.29
4.87 -6.969 -1.621 0.26
4.885 -6.944 -1.619 0.28
4.901 -6.921 -1.617 0.27
4.93 -6.915 -1.619 0.29
4.942 -6.886 -1.616 0.24
4.956 -6.86 -1.613 0.31
4.955 -6.836 -1.609 0.38
4.979 -6.824 -1.61 0.27
5.029 -6.847 -1.62 0.25
5.046 -6.825 -1.618 0.29
5.017 -6.742 -1.601 0.4
5.088 -6.792 -1.618 0.0
5.104 -6.77 -1.616 0.0
4.691 -6.178 -1.468 0.02
4.64 -6.089 -1.447 0.12
4.674 -6.095 -1.453 0.18
4.693 -6.08 -1.453 0.23
4.726 -6.083 -1.457 0.25
4.754 -6.08 -1.46 0.28
4.784 -6.079 -1.464 0.29
4.821 -6.087 -1.47 0.29
4.838 -6.089 -1.472 0.31
4.868 -6.087 -1.476 0.31
4.907 -6.096 -1.482 0.3
4.942 -6.101 -1.488 0.29
4.976 -6.103 -1.492 0.27
5.014 -6.111 -1.498 0.29
5.042 -6.105 -1.501 0.29
5.072 -6.123 -1.508 0.3
5.102 -6.119 -1.511 0.32
5.135 -6.12 -1.516 0.29
5.156 -6.107 -1.517 0.29
5.194 -6.113 -1.523 0.3
5.235 -6.122 -1.529 0.33
5.258 -6.11 -1.531 0.28
5.275 -6.111 -1.533 0.2
5.311 -6.113 -1.538 0.29
5.337 -6.104 -1.54 0.25
5.373 -6.106 -1.545 0.26
5.409 -6.109 -1.551 0.26
5.446 -6.112 -1.556 0.27
5.477 -6.108 -1.56 0.27
5.484 -6.097 -1.559 0.19
5.519 -6.097 -1.564 0.28
5.543 -6.085 -1.566 0.24
5.561 -6.066 -1.565 0.19
5.591 -6.06 -1.568 0.26
5.575 -6.005 -1.558 0.22
5.617 -6.012 -1.565 0.19
5.645 -6.023 -1.57 0.26
5.672 -6.014 -1.573 0.22
5.735 -6.043 -1.586 0.24
5.797 -6.071 -1.599 0.33
5.847 -6.085 -1.608 0.23
5.834 -6.033 -1.599 0.22
5.819 -5.979 -1.589 0.39
5.825 -5.967 -1.588 0.23
5.873 -5.978 -1.596 0.14
5.865 -5.933 -1.589 0.59
5.899 -5.93 -1.593 0.39
5.952 -5.946 -1.603 0.28
5.971 -5.928 -1.603 0.27
5.978 -5.898 -1.6 0.23
5.95 -5.851 -1.589 0.36
5.968 -5.833 -1.589 0.29
5.984 -5.811 -1.588 0.29
5.998 -5.788 -1.587 0.42
6.053 -5.805 -1.597 0.26
6.082 -5.796 -1.601 0.29
6.093 -5.771 -1.599 0.4
6.075 -5.735 -1.591 0.27
6.129 -5.75 -1.601 0.21
6.116 -5.701 -1.592 0.39
6.123 -5.673 -1.589 0.33
6.059 -5.577 -1.566 0.3
6.065 -5.548 -1.563 0.32
6.031 -5.481 -1.549 0.27
6.036 -5.469 -1.548 0.33
6.085 -5.479 -1.557 0.26
6.117 -5.473 -1.561 0.29
6.126 -5.446 -1.558 0.3
6.153 -5.436 -1.561 0.34
6.177 -5.423 -1.563 0.32
6.185 -5.395 -1.561 0.21
6.185 -5.378 -1.558 0.36
6.203 -5.36 -1.559 0.27
6.226 -5.345 -1.56 0.41
6.209 -5.297 -1.551 0.3
6.21 -5.264 -1.547 0.28
6.254 -5.268 -1.554 0.28
6.303 -5.276 -1.563 0.29
6.345 -5.293 -1.572 0.38
6.354 -5.267 -1.57 0.34
6.329 -5.213 -1.559 0.28
6.361 -5.206 -1.563 0.34
6.385 -5.192 -1.565 0.31
6.448 -5.21 -1.578 0.36
6.489 -5.21 -1.584 0.21
6.485 -5.19 -1.581 0.37
6.49 -5.161 -1.578 0.27
6.522 -5.153 -1.582 0.35
6.601 -5.182 -1.599 0.39
6.582 -5.133 -1.589 0.23
6.634 -5.14 -1.599 0.34
6.661 -5.128 -1.601 0.27
6.695 -5.138 -1.608 0.36
6.636 -5.059 -1.589 0.33
6.705 -5.079 -1.603 0.21
6.757 -5.085 -1.612 0.29
6.77 -5.061 -1.611 0.28
6.789 -5.043 -1.612 0.32
6.809 -5.025 -1.613 0.36
6.798 -5.0 -1.608 0.0
6.686 -4.885 -1.576 0.0
6.325 -4.558 -1.476 0.0
6.352 -4.548 -1.48 0.0
6.403 -4.554 -1.489 0.07
6.44 -4.55 -1.494 0.18
6.472 -4.558 -1.501 0.23
6.541 -4.576 -1.515 0.21
6.572 -4.566 -1.519 0.18
6.634 -4.579 -1.531 0.29
6.674 -4.576 -1.537 0.25
6.724 -4.579 -1.546 0.21
6.769 -4.579 -1.554 0.25
6.823 -4.584 -1.563 0.2
6.846 -4.585 -1.567 0.24
6.898 -4.588 -1.576 0.21
6.943 -4.587 -1.584 0.11
6.961 -4.567 -1.585 0.21
7.005 -4.565 -1.592 0.11
7.035 -4.553 -1.596 0.18
7.063 -4.54 -1.599 0.2
7.086 -4.539 -1.603 0.16
7.139 -4.541 -1.613 0.26
7.145 -4.514 -1.611 0.4
7.137 -4.478 -1.605 0.23
7.163 -4.462 -1.608 0.25
7.154 -4.425 -1.603 0.25
7.182 -4.412 -1.606 0.27
7.193 -4.403 -1.607 0.27
7.198 -4.375 -1.605 0.31
7.277 -4.392 -1.621 0.26
7.271 -4.357 -1.616 0.27
7.306 -4.347 -1.621 0.25
7.318 -4.323 -1.621 0.28
7.327 -4.297 -1.619 0.4
7.369 -4.307 -1.628 0.27
7.369 -4.276 -1.625 0.29
7.384 -4.254 -1.625 0.28
7.421 -4.244 -1.631 0.28
7.429 -4.218 -1.63 0.27
7.451 -4.199 -1.632 0.2
7.449 -4.167 -1.628 0.26
7.472 -4.165 -1.632 0.2
7.479 -4.138 -1.63 0.25
7.491 -4.114 -1.63 0.23
7.508 -4.093 -1.631 0.2
7.522 -4.07 -1.632 0.27
7.533 -4.045 -1.631 0.25
7.546 -4.022 -1.631 0.25
7.573 -4.021 -1.636 0.25
7.594 -4.002 -1.638 0.27
7.626 -3.988 -1.642 0.35
7.609 -3.948 -1.636 0.26
7.644 -3.936 -1.641 0.22
7.632 -3.9 -1.635 0.34
7.66 -3.884 -1.639 0.31
7.652 -3.864 -1.636 0.36
7.697 -3.857 -1.643 0.29
7.681 -3.819 -1.637 0.25
7.735 -3.816 -1.646 0.42
7.723 -3.779 -1.641 0.34
7.629 -3.703 -1.617 0.29
7.752 -3.733 -1.642 0.25
7.743 -3.714 -1.639 0.3
7.751 -3.688 -1.638 0.29
7.779 -3.671 -1.642 0.29
7.806 -3.655 -1.645 0.32
7.827 -3.634 -1.647 0.3
7.826 -3.604 -1.644 0.25
7.835 -3.578 -1.644 0.38
7.818 -3.555 -1.639 0.3
7.852 -3.541 -1.644 0.25
7.845 -3.509 -1.64 0.29
7.833 -3.474 -1.635 0.23
7.858 -3.455 -1.638 0.0
7.844 -3.42 -1.632 0.0
7.168 -3.082 -1.478 0.13
7.21 -3.074 -1.485 0.17
7.275 -3.075 -1.497 0.25
7.35 -3.079 -1.512 0.23
7.454 -3.096 -1.533 0.3
7.527 -3.099 -1.547 0.29
7.583 -3.094 -1.557 0.29
7.64 -3.09 -1.568 0.28
7.703 -3.101 -1.58 0.27
7.755 -3.094 -1.59 0.25
7.804 -3.086 -1.599 0.21
7.823 -3.065 -1.601 0.25
7.86 -3.051 -1.607 0.23
7.888 -3.033 -1.611 0.25
7.905 -3.011 -1.612 0.29
7.911 -2.999 -1.613 0.33
7.961 -2.99 -1.621 0.31
7.99 -2.972 -1.626 0.31
8.003 -2.949 -1.627 0.31
8.029 -2.93 -1.63 0.25
8.029 -2.901 -1.628 0.3
7.985 -2.856 -1.617 0.29
7.98 -2.841 -1.615 0.25
8.004 -2.821 -1.618 0.37
7.933 -2.768 -1.601 0.27
7.949 -2.745 -1.602 0.21
8.002 -2.736 -1.612 0.43
8.025 -2.715 -1.615 0.34
8.056 -2.698 -1.62 0.29
8.053 -2.683 -1.618 0.28
8.034 -2.648 -1.612 0.23
8.033 -2.62 -1.61 0.38
7.957 -2.567 -1.592 0.24
7.989 -2.55 -1.597 0.32
7.805 -2.463 -1.556 0.37
7.897 -2.479 -1.575 0.32
7.925 -2.461 -1.579 0.3
7.919 -2.432 -1.576 0.31
7.948 -2.413 -1.581 0.3
7.946 -2.385 -1.579 0.35
7.974 -2.367 -1.583 0.31
7.964 -2.336 -1.58 0.41
7.934 -2.3 -1.572 0.25
7.872 -2.269 -1.558 0.39
7.913 -2.254 -1.565 0.33
7.95 -2.237 -1.571 0.3
7.91 -2.199 -1.561 0.27
7.904 -2.171 -1.558 0.41
7.948 -2.156 -1.566 0.3
7.955 -2.131 -1.566 0.33
7.909 -2.106 -1.556 0.34
7.919 -2.082 -1.557 0.28
7.916 -2.054 -1.555 0.25
7.927 -2.03 -1.556 0.36
7.954 -2.011 -1.56 0.42
7.962 -1.986 -1.56 0.29
7.964 -1.96 -1.56 0.36
7.956 -1.945 -1.557 0.32
7.945 -1.916 -1.554 0.3
7.94 -1.888 -1.551 0.34
7.873 -1.846 -1.536 0.27
7.888 -1.823 -1.538 0.26
7.9 -1.8 -1.539 0.28
7.882 -1.77 -1.534 0.31
7.908 -1.763 -1.539 0.27
7.916 -1.738 -1.539 0.3
7.976 -1.726 -1.551 0.29
8.07 -1.72 -1.57 0.27
8.169 -1.714 -1.589 0.26
8.272 -1.709 -1.61 0.24
8.379 -1.704 -1.631 0.27
8.476 -1.71 -1.651 0.3
8.533 -1.694 -1.662 0.3
8.531 -1.666 -1.66 0.29
8.538 -1.639 -1.661 0.29
8.526 -1.609 -1.657 0.29
8.533 -1.583 -1.657 0.3
8.522 -1.553 -1.654 0.3
8.544 -1.543 -1.658 0.27
8.533 -1.513 -1.655 0.3
8.53 -1.485 -1.653 0.28
8.535 -1.458 -1.653 0.26
8.541 -1.432 -1.654 0.28
8.55 -1.406 -1.654 0.27
8.552 -1.379 -1.654 0.29
8.55 -1.365 -1.653 0.29
8.543 -1.336 -1.651 0.29
8.549 -1.309 -1.651 0.28
8.547 -1.282 -1.65 0.27
8.549 -1.254 -1.65 0.29
8.565 -1.229 -1.652 0.26
8.569 -1.202 -1.652 0.28
8.561 -1.174 -1.65 0.2
8.563 -1.16 -1.65 0.3
8.56 -1.133 -1.648 0.25
8.562 -1.105 -1.648 0.27
8.569 -1.079 -1.649 0.2
8.567 -1.051 -1.648 0.28
8.564 -1.024 -1.646 0.23
8.579 -0.998 -1.649 0.21
8.575 -0.984 -1.648 0.24
8.576 -0.957 -1.647 0.19
8.585 -0.931 -1.648 0.24
8.584 -0.903 -1.648 0.19
8.585 -0.876 -1.647 0.24
8.585 -0.849 -1.647 0.18
8.582 -0.821 -1.646 0.23
8.605 -0.81 -1.65 0.2
8.582 -0.78 -1.645 0.22
8.584 -0.754 -1.645 0.2
8.583 -0.726 -1.644 0.21
8.595 -0.7 -1.646 0.2
8.589 -0.672 -1.644 0.21
8.607 -0.647 -1.648 0.21
8.582 -0.631 -1.642 0.22
8.577 -0.604 -1.641 0.18
8.58 -0.577 -1.641 0.23
8.6 -0.551 -1.645 0.21
8.578 -0.523 -1.64 0.22
8.585 -0.496 -1.641 0.2
8.591 -0.469 -1.642 0.25
8.596 -0.456 -1.643 0.19
8.591 -0.429 -1.642 0.22
8.583 -0.401 -1.64 0.18
8.582 -0.374 -1.639 0.24
8.583 -0.347 -1.639 0.18
8.584 -0.32 -1.639 0.25
8.581 -0.293 -1.638 0.21
8.587 -0.28 -1.64 0.18
8.578 -0.252 -1.638 0.27
8.581 -0.226 -1.638 0.25
8.584 -0.199 -1.638 0.21
8.58 -0.172 -1.638 0.23
8.581 -0.145 -1.638 0.22
8.572 -0.118 -1.636 0.18
8.568 -0.104 -1.635 0.3
8.56 -0.077 -1.633 0.24
8.578 -0.05 -1.637 0.25
8.555 -0.023 -1.632 0.18
8.296 0.006 -1.657 0.35
8.296 0.032 -1.657 0.34
8.288 0.045 -1.655 0.34
8.282 0.071 -1.654 0.27
8.283 0.097 -1.655 0.37
8.285 0.123 -1.655 0.33
8.292 0.15 -1.657 0.34
8.288 0.176 -1.656 0.32
8.278 0.201 -1.654 0.32
8.283 0.215 -1.655 0.37
8.275 0.24 -1.653 0.29
8.27 0.266 -1.653 0.32
8.265 0.292 -1.652 0.29
8.262 0.318 -1.651 0.35
8.263 0.344 -1.652 0.34
8.268 0.37 -1.653 0.31
8.261 0.396 -1.652 0.34
8.254 0.409 -1.65 0.32
8.255 0.435 -1.651 0.31
8.265 0.461 -1.653 0.31
8.266 0.487 -1.654 0.34
8.272 0.514 -1.655 0.32
8.276 0.54 -1.657 0.32
8.278 0.566 -1.658 0.3
8.266 0.579 -1.655 0.29
8.276 0.605 -1.658 0.34
8.289 0.633 -1.661 0.34
8.266 0.657 -1.656 0.29
8.266 0.683 -1.657 0.29
8.261 0.709 -1.656 0.31
8.275 0.736 -1.66 0.33
8.285 0.75 -1.662 0.29
8.281 0.776 -1.662 0.31
8.265 0.801 -1.659 0.27
8.26 0.827 -1.658 0.29
8.277 0.855 -1.663 0.32
8.257 0.879 -1.659 0.3
8.248 0.904 -1.658 0.26
8.251 0.917 -1.658 0.33
8.25 0.943 -1.659 0.31
8.241 0.969 -1.658 0.3
8.232 0.994 -1.656 0.3
8.235 1.02 -1.658 0.31
8.231 1.046 -1.658 0.29
8.211 1.07 -1.654 0.27
8.217 1.084 -1.655 0.3
8.215 1.11 -1.656 0.29
8.214 1.136 -1.656 0.31
8.216 1.163 -1.658 0.34
8.202 1.187 -1.655 0.3
8.181 1.21 -1.652 0.18
8.156 1.232 -1.647 0.23
8.152 1.245 -1.647 0.33
8.145 1.27 -1.646 0.48
8.139 1.295 -1.645 0.34
8.144 1.322 -1.648 0.42
8.144 1.349 -1.648 0.53
8.136 1.374 -1.648 0.3
8.127 1.398 -1.647 0.32
8.135 1.413 -1.649 0.37
8.119 1.436 -1.646 0.29
8.12 1.463 -1.648 0.35
8.11 1.487 -1.646 0.35
8.105 1.513 -1.646 0.34
8.094 1.537 -1.645 0.31
8.088 1.562 -1.645 0.33
8.083 1.575 -1.644 0.35
8.084 1.601 -1.645 0.32
8.077 1.626 -1.645 0.32
8.07 1.651 -1.645 0.32
8.076 1.679 -1.647 0.33
8.067 1.703 -1.646 0.35
8.05 1.726 -1.644 0.3
8.05 1.753 -1.645 0.36
8.042 1.764 -1.644 0.31
8.048 1.792 -1.646 0.36
8.042 1.817 -1.646 0.33
8.033 1.842 -1.645 0.35
8.023 1.866 -1.645 0.34
8.023 1.892 -1.646 0.34
8.013 1.917 -1.645 0.33
8.008 1.929 -1.645 0.32
8.008 1.955 -1.646 0.32
8.005 1.982 -1.647 0.34
7.993 2.005 -1.645 0.33
7.989 2.031 -1.646 0.31
7.975 2.054 -1.644 0.27
7.976 2.081 -1.646 0.36
7.973 2.094 -1.646 0.32
7.962 2.118 -1.645 0.32
7.957 2.143 -1.645 0.34
7.953 2.169 -1.646 0.33
7.931 2.189 -1.642 0.3
7.943 2.22 -1.647 0.38
7.934 2.244 -1.646 0.33
7.93 2.256 -1.646 0.33
7.917 2.28 -1.645 0.33
7.905 2.303 -1.644 0.34
7.895 2.327 -1.643 0.31
7.886 2.351 -1.643 0.38
7.875 2.375 -1.642 0.31
7.871 2.401 -1.643 0.36
7.862 2.411 -1.642 0.32
7.86 2.438 -1.643 0.34
7.848 2.461 -1.642 0.32
7.837 2.485 -1.641 0.33
7.831 2.51 -1.642 0.37
7.825 2.535 -1.642 0.35
7.811 2.558 -1.641 0.32
7.802 2.568 -1.64 0.32
7.788 2.591 -1.638 0.33
7.797 2.621 -1.642 0.34
7.779 2.642 -1.64 0.31
7.773 2.668 -1.64 0.4
7.76 2.691 -1.64 0.3
7.756 2.716 -1.64 0.32
7.748 2.727 -1.64 0.39
7.752 2.756 -1.642 0.31
7.74 2.779 -1.642 0.29
7.733 2.804 -1.642 0.41
7.716 2.826 -1.64 0.31
7.713 2.852 -1.642 0.33
7.706 2.877 -1.642 0.34
7.683 2.882 -1.638 0.35
7.679 2.908 -1.639 0.34
7.667 2.931 -1.638 0.36
7.659 2.956 -1.639 0.3
7.664 2.986 -1.642 0.41
7.648 3.007 -1.64 0.31
7.638 3.031 -1.64 0.34
7.633 3.043 -1.64 0.32
7.629 3.069 -1.642 0.33
7.614 3.091 -1.64 0.33
7.608 3.116 -1.641 0.37
7.595 3.138 -1.64 0.31
7.592 3.165 -1.642 0.32
7.584 3.19 -1.642 0.37
7.564 3.196 -1.639 0.31
7.556 3.22 -1.64 0.33
7.548 3.245 -1.64 0.32
7.539 3.269 -1.64 0.33
7.543 3.299 -1.644 0.39
7.522 3.318 -1.641 0.3
7.515 3.343 -1.642 0.35
7.517 3.358 -1.644 0.35
7.496 3.377 -1.641 0.29
7.489 3.402 -1.642 0.35
7.464 3.419 -1.639 0.29
7.462 3.447 -1.641 0.36
7.451 3.47 -1.641 0.34
7.426 3.487 -1.637 0.29
7.443 3.509 -1.643 0.38
7.422 3.528 -1.64 0.31
7.404 3.548 -1.639 0.32
7.391 3.57 -1.638 0.32
7.395 3.601 -1.642 0.35
7.382 3.623 -1.642 0.34
7.364 3.643 -1.64 0.3
7.359 3.67 -1.642 0.36
7.35 3.679 -1.641 0.33
7.337 3.702 -1.64 0.29
7.316 3.72 -1.638 0.35
7.306 3.744 -1.639 0.32
7.293 3.766 -1.638 0.28
7.283 3.79 -1.639 0.37
7.279 3.817 -1.641 0.34
7.259 3.821 -1.637 0.31
7.258 3.85 -1.64 0.37
7.234 3.866 -1.637 0.3
7.23 3.893 -1.639 0.36
7.214 3.914 -1.638 0.35
7.197 3.934 -1.637 0.3
7.179 3.954 -1.636 0.34
7.178 3.968 -1.637 0.38
7.162 3.988 -1.636 0.35
7.157 4.015 -1.638 0.3
7.144 4.037 -1.638 0.37
7.126 4.057 -1.637 0.3
7.117 4.081 -1.637 0.33
7.1 4.101 -1.637 0.32
7.087 4.109 -1.635 0.33
7.078 4.133 -1.636 0.25
7.068 4.157 -1.637 0.38
7.053 4.178 -1.636 0.38
7.035 4.197 -1.635 0.49
7.024 4.22 -1.635 0.38
7.004 4.238 -1.634 0.5
7.002 4.253 -1.635 0.4
6.987 4.273 -1.634 0.51
6.98 4.3 -1.636 0.39
6.963 4.319 -1.635 0.51
6.953 4.343 -1.636 0.38
6.936 4.363 -1.635 0.5
6.921 4.384 -1.635 0.38
6.905 4.389 -1.633 0.57
6.908 4.422 -1.637 0.42
6.901 4.448 -1.639 0.34
6.875 4.462 -1.636 0.3
6.869 4.489 -1.638 0.37
6.863 4.516 -1.64 0.34
6.846 4.535 -1.639 0.29
6.845 4.55 -1.641 0.36
6.832 4.573 -1.641 0.34
6.825 4.598 -1.643 0.33
6.808 4.619 -1.642 0.33
6.799 4.643 -1.644 0.34
6.787 4.667 -1.645 0.32
6.774 4.689 -1.645 0.33
6.767 4.7 -1.645 0.32
6.765 4.73 -1.648 0.34
6.755 4.755 -1.65 0.32
6.738 4.775 -1.649 0.29
6.734 4.804 -1.652 0.32
6.724 4.829 -1.653 0.33
6.721 4.859 -1.657 0.33
6.714 4.87 -1.657 0.32
6.703 4.894 -1.658 0.35
6.689 4.916 -1.658 0.29
6.675 4.938 -1.659 0.31
6.661 4.961 -1.659 0.29
6.649 4.984 -1.66 0.3
6.65 5.018 -1.665 0.32
6.639 5.026 -1.664 0.31
6.631 5.053 -1.666 0.29
6.614 5.072 -1.666 0.28
6.604 5.098 -1.667 0.29
6.591 5.121 -1.668 0.29
6.578 5.144 -1.669 0.29
6.562 5.165 -1.669 0.28
6.554 5.175 -1.669 0.34
6.545 5.202 -1.671 0.26
6.542 5.233 -1.675 0.26
6.524 5.252 -1.674 0.28
6.5 5.267 -1.672 0.3
6.496 5.297 -1.676 0.26
6.482 5.32 -1.676 0.28
6.472 5.329 -1.676 0.27
6.46 5.353 -1.677 0.31
6.457 5.385 -1.681 0.27
6.432 5.398 -1.679 0.26
6.417 5.42 -1.679 0.29
6.407 5.446 -1.682 0.32
6.399 5.474 -1.684 0.28
6.374 5.488 -1.682 0.32
6.36 5.493 -1.68 0.29
6.359 5.527 -1.685 0.29
6.334 5.54 -1.683 0.29
6.321 5.564 -1.684 0.3
6.312 5.592 -1.687 0.29
6.293 5.61 -1.686 0.33
6.278 5.633 -1.687 0.31
6.287 5.658 -1.692 0.3
6.252 5.662 -1.687 0.27
6.247 5.694 -1.691 0.3
6.236 5.72 -1.693 0.29
6.222 5.743 -1.694 0.32
6.2 5.759 -1.693 0.32
