# .PCD v.7 - Point Cloud Data file format
VERSION .7
FIELDS x y z intensity
SIZE 4 4 4 4
TYPE F F F F
COUNT 1 1 1 1
WIDTH 1860
HEIGHT 1
VIEWPOINT 0 0 0 1 0 0 0
POINTS 1860
DATA ascii
-24.263 14.95 -2.249 0.19
-24.352 14.9 -2.253 0.38
-24.06 14.617 -2.219 0.21
-23.781 14.346 -2.187 0.42
-23.952 14.398 -2.202 0.29
-24.066 14.364 -2.208 0.36
-24.066 14.262 -2.204 0.36
-24.286 14.289 -2.221 0.29
-24.326 14.21 -2.221 0.21
-24.372 14.134 -2.221 0.29
-24.574 14.148 -2.237 0.18
-24.689 14.163 -2.246 0.18
-24.763 14.102 -2.249 0.46
-24.92 14.087 -2.26 0.29
-25.138 14.106 -2.277 0.22
-24.89 13.865 -2.248 0.28
-25.076 13.865 -2.262 0.29
-25.321 13.897 -2.282 0.42
-25.646 13.97 -2.31 0.24
-25.866 14.037 -2.329 0.37
-26.212 14.118 -2.358 0.27
-26.474 14.152 -2.38 0.23
-26.629 14.127 -2.39 0.33
-27.051 14.242 -2.427 0.21
-27.765 14.506 -2.492 0.49
-27.54 14.279 -2.466 0.17
-27.989 14.456 -2.507 0.35
-28.059 14.38 -2.51 0.19
-28.142 14.311 -2.513 0.1
-28.25 14.255 -2.519 0.14
-28.167 14.102 -2.507 0.14
-28.409 14.111 -2.526 0.16
-28.498 14.044 -2.53 0.1
-28.555 13.961 -2.531 0.15
-28.584 13.919 -2.532 0.1
-28.651 13.841 -2.534 0.15
-28.71 13.758 -2.536 0.23
-28.809 13.695 -2.541 0.11
-28.868 13.612 -2.543 0.14
-28.934 13.532 -2.545 0.09
-28.977 13.496 -2.547 0.14
-29.052 13.42 -2.55 0.09
-29.132 13.346 -2.554 0.09
-29.203 13.268 -2.556 0.14
-29.262 13.184 -2.558 0.09
-29.367 13.121 -2.564 0.14
-29.418 13.032 -2.565 0.1
-29.507 13.017 -2.572 0.14
-29.59 12.942 -2.576 0.09
-29.687 12.874 -2.581 0.0
-29.753 12.791 -2.583 0.0
-29.826 12.712 -2.586 0.0
-29.89 12.628 -2.589 0.0
-29.988 12.559 -2.594 0.0
-30.045 12.527 -2.597 0.0
-30.117 12.446 -2.601 0.0
-30.169 12.357 -2.602 0.0
-30.182 12.252 -2.599 0.0
-30.217 12.155 -2.599 0.0
-30.221 12.047 -2.596 0.0
-30.261 11.953 -2.596 0.0
-30.332 11.871 -2.599 0.0
-30.413 11.847 -2.605 0.0
-30.467 11.758 -2.607 0.0
-30.55 11.68 -2.611 0.0
-25.783 9.769 -2.169 0.13
-25.769 9.672 -2.165 0.21
-25.738 9.568 -2.16 0.2
-25.727 9.472 -2.156 0.17
-25.726 9.426 -2.154 0.42
-25.707 9.327 -2.15 0.25
-25.654 9.217 -2.142 0.23
-25.724 9.151 -2.146 0.3
-25.721 9.059 -2.143 0.28
-25.719 8.968 -2.141 0.28
-25.721 8.878 -2.138 0.3
-25.731 8.791 -2.137 0.31
-25.736 8.747 -2.136 0.31
-25.748 8.661 -2.134 0.29
-25.777 8.581 -2.135 0.31
-25.84 8.512 -2.138 0.3
-25.912 8.445 -2.142 0.18
-26.029 8.393 -2.15 0.16
-26.371 8.366 -2.177 0.17
-26.556 8.333 -2.192 0.18
-26.838 8.329 -2.215 0.0
-27.077 8.309 -2.234 0.0
-27.353 8.3 -2.256 0.0
-27.646 8.294 -2.28 0.0
-27.938 8.285 -2.304 0.0
-28.241 8.327 -2.33 0.0
-28.591 8.332 -2.359 0.0
-29.009 8.256 -2.392 0.0
-29.234 8.221 -2.41 0.05
-32.401 8.999 -2.69 0.14
-32.356 8.877 -2.683 0.09
-32.299 8.807 -2.677 0.0
-32.236 8.681 -2.669 0.0
-31.556 8.393 -2.606 0.0
-31.521 8.277 -2.601 0.0
-31.927 8.276 -2.634 0.0
-32.028 8.195 -2.641 0.12
-31.914 8.06 -2.629 0.12
-31.919 8.008 -2.628 0.09
-31.929 7.903 -2.627 0.14
-31.884 7.786 -2.621 0.09
-31.862 7.675 -2.616 0.0
-31.839 7.564 -2.612 0.0
-31.791 7.447 -2.606 0.0
-31.709 7.323 -2.597 0.0
-31.619 7.197 -2.587 0.13
-31.582 7.137 -2.583 0.0
-31.577 7.032 -2.58 0.0
-31.508 6.912 -2.572 0.0
-31.477 6.802 -2.567 0.0
-31.424 6.687 -2.561 0.0
-31.396 6.578 -2.557 0.0
-31.36 6.468 -2.552 0.0
-31.35 6.415 -2.55 0.0
-31.333 6.309 -2.547 0.0
-31.263 6.193 -2.539 0.0
-31.186 6.076 -2.53 0.0
-31.09 5.956 -2.52 0.0
-31.014 5.841 -2.512 0.0
-30.958 5.729 -2.506 0.0
-30.906 5.67 -2.5 0.0
-30.843 5.558 -2.493 0.0
-30.8 5.45 -2.488 0.0
-30.746 5.341 -2.482 0.0
-30.722 5.238 -2.478 0.0
-30.691 5.133 -2.474 0.0
-30.658 5.029 -2.47 0.0
-30.61 4.923 -2.464 0.0
-30.559 4.865 -2.459 0.0
-30.531 4.762 -2.455 0.0
-30.449 4.652 -2.447 0.0
-30.373 4.543 -2.439 0.07
-30.302 4.435 -2.432 0.08
-30.239 4.329 -2.425 0.2
-30.075 4.161 -2.409 0.47
-30.122 4.071 -2.412 0.22
-30.117 3.974 -2.411 0.34
-30.159 3.883 -2.413 0.27
-30.206 3.793 -2.416 0.25
-30.256 3.702 -2.419 0.25
-30.287 3.61 -2.421 0.25
-30.328 3.566 -2.424 0.25
-30.341 3.471 -2.424 0.1
-30.386 3.38 -2.427 0.15
-30.412 3.286 -2.429 0.16
-30.416 3.19 -2.428 0.16
-30.428 3.094 -2.428 0.16
-30.438 2.999 -2.428 0.16
-30.43 2.95 -2.427 0.16
-30.455 2.856 -2.429 0.17
-30.452 2.759 -2.428 0.17
-30.465 2.663 -2.428 0.18
-30.483 2.568 -2.429 0.17
-30.501 2.474 -2.43 0.17
-30.524 2.379 -2.431 0.17
-30.532 2.331 -2.431 0.17
-30.561 2.237 -2.433 0.17
-30.582 2.142 -2.435 0.16
-30.59 2.046 -2.435 0.1
-30.821 1.964 -2.454 0.15
-30.827 1.867 -2.454 0.1
-30.859 1.772 -2.456 0.14
-30.858 1.674 -2.456 0.09
-30.893 1.579 -2.458 0.15
-30.884 1.481 -2.457 0.1
-30.915 1.385 -2.459 0.15
-30.901 1.336 -2.458 0.1
-30.915 1.239 -2.459 0.15
-30.923 1.142 -2.459 0.1
-30.956 1.046 -2.462 0.0
-30.999 0.95 -2.465 0.0
-31.075 0.855 -2.472 0.0
-31.076 0.757 -2.471 0.0
-31.121 0.709 -2.475 0.0
-31.135 0.612 -2.476 0.0
-31.147 0.514 -2.477 0.0
-31.096 0.416 -2.473 0.0
-31.074 0.318 -2.47 0.07
-31.015 0.22 -2.465 0.08
-30.961 0.122 -2.461 0.09
-30.968 0.073 -2.461 0.14
-30.974 -0.024 -2.462 0.09
-31.005 -0.121 -2.464 0.16
-31.017 -0.219 -2.466 0.09
-31.038 -0.317 -2.467 0.15
-31.019 -0.414 -2.466 0.09
-31.035 -0.512 -2.467 0.0
-31.068 -0.561 -2.47 0.0
-31.094 -0.659 -2.473 0.0
-31.066 -0.756 -2.47 0.0
-31.103 -0.855 -2.474 0.0
-31.112 -0.953 -2.475 0.0
-31.091 -1.05 -2.473 0.0
-31.088 -1.148 -2.473 0.07
-31.094 -1.197 -2.474 0.08
-31.106 -1.295 -2.475 0.14
-31.118 -1.394 -2.477 0.22
-31.127 -1.492 -2.478 0.24
-31.152 -1.591 -2.481 0.24
-31.165 -1.69 -2.482 0.1
-31.241 -1.793 -2.489 0.14
-31.195 -1.889 -2.486 0.14
-30.992 -1.925 -2.468 0.26
-30.192 -1.97 -2.4 0.18
-29.214 -1.997 -2.316 0.16
-29.148 -2.085 -2.311 0.14
-29.232 -2.183 -2.319 0.34
-29.396 -2.289 -2.334 0.21
-29.363 -2.379 -2.332 0.4
-29.5 -2.437 -2.344 0.23
-29.657 -2.544 -2.358 0.24
-29.804 -2.651 -2.371 0.14
-29.956 -2.759 -2.385 0.46
-30.078 -2.866 -2.396 0.19
-30.146 -2.968 -2.403 0.17
-30.089 -3.058 -2.399 0.18
-29.755 -3.071 -2.371 0.1
-29.647 -3.154 -2.362 0.09
-28.83 -3.158 -2.292 0.0
-28.017 -3.157 -2.223 0.09
-30.498 -3.536 -2.438 0.21
-30.517 -3.636 -2.441 0.11
-30.531 -3.735 -2.443 0.16
-30.422 -3.77 -2.434 0.27
-30.39 -3.863 -2.433 0.27
-30.212 -3.936 -2.418 0.22
-30.245 -4.037 -2.422 0.22
-30.133 -4.119 -2.414 0.36
-30.164 -4.22 -2.417 0.11
-30.127 -4.311 -2.415 0.0
-30.149 -4.363 -2.418 0.0
-30.0 -4.437 -2.406 0.0
-29.867 -4.513 -2.396 0.0
-29.646 -4.575 -2.378 0.0
-29.401 -4.632 -2.358 0.0
-29.102 -4.678 -2.333 0.0
-28.568 -4.684 -2.288 0.0
-27.955 -4.673 -2.236 0.0
-29.386 -5.056 -2.362 0.29
-29.333 -5.142 -2.359 0.23
-29.242 -5.22 -2.353 0.22
-28.957 -5.263 -2.329 0.17
-28.825 -5.333 -2.319 0.5
-28.577 -5.38 -2.299 0.23
-28.232 -5.36 -2.269 0.24
-28.152 -5.437 -2.264 0.3
-28.072 -5.513 -2.258 0.31
-28.088 -5.608 -2.261 0.25
-28.105 -5.703 -2.264 0.27
-28.025 -5.778 -2.259 0.26
-28.549 -6.027 -2.307 0.44
-28.569 -6.125 -2.311 0.11
-28.065 -6.109 -2.268 0.14
-27.971 -6.181 -2.262 0.09
-27.67 -6.205 -2.237 0.14
-27.303 -6.213 -2.206 0.09
-26.887 -6.207 -2.171 0.09
-26.505 -6.162 -2.138 0.0
-26.163 -6.169 -2.11 0.09
-28.643 -6.851 -2.331 0.15
-28.562 -6.926 -2.326 0.38
-28.538 -7.016 -2.325 0.2
-28.318 -7.056 -2.308 0.36
-28.308 -7.148 -2.309 0.22
-28.262 -7.183 -2.306 0.2
-28.314 -7.292 -2.313 0.41
-28.255 -7.371 -2.309 0.18
-28.131 -7.433 -2.3 0.14
-28.061 -7.509 -2.296 0.14
-27.88 -7.554 -2.282 0.32
-27.837 -7.637 -2.281 0.19
-27.596 -7.664 -2.261 0.21
-27.221 -7.605 -2.229 0.11
-27.165 -7.681 -2.226 0.09
-26.874 -7.69 -2.202 0.08
-26.59 -7.699 -2.179 0.09
-26.298 -7.704 -2.155 0.09
-25.996 -7.704 -2.13 0.0
-25.661 -7.692 -2.102 0.0
-25.397 -7.656 -2.079 0.0
-25.154 -7.669 -2.06 0.03
-26.797 -8.264 -2.21 0.17
-26.581 -8.289 -2.193 0.16
-26.479 -8.348 -2.186 0.43
-26.365 -8.403 -2.178 0.22
-26.282 -8.468 -2.173 0.22
-26.079 -8.447 -2.156 0.41
-25.84 -8.46 -2.136 0.25
-25.6 -8.47 -2.117 0.23
-25.333 -8.47 -2.095 0.18
-25.091 -8.476 -2.076 0.43
-24.849 -8.481 -2.056 0.25
-24.612 -8.487 -2.037 0.26
-24.444 -8.472 -2.023 0.23
-24.367 -8.53 -2.018 0.19
-24.238 -8.571 -2.009 0.32
-24.014 -8.577 -1.991 0.36
-23.867 -8.609 -1.98 0.34
-23.786 -8.664 -1.975 0.32
-23.669 -8.705 -1.967 0.32
-23.705 -8.761 -1.972 0.31
-23.51 -8.773 -1.956 0.44
-23.281 -8.77 -1.938 0.24
-23.06 -8.77 -1.92 0.36
-22.989 -8.826 -1.916 0.3
-22.761 -8.82 -1.897 0.38
-22.651 -8.859 -1.89 0.28
-22.63 -8.892 -1.889 0.35
-22.341 -8.859 -1.865 0.26
-22.037 -8.819 -1.84 0.38
-22.002 -8.885 -1.839 0.29
-21.904 -8.925 -1.832 0.36
-21.752 -8.943 -1.821 0.27
-21.623 -8.969 -1.811 0.39
-21.42 -8.964 -1.795 0.26
-21.14 -8.885 -1.77 0.32
-21.174 -8.978 -1.776 0.36
-21.252 -9.09 -1.786 0.34
-21.183 -9.139 -1.782 0.29
-20.944 -9.114 -1.763 0.34
-20.917 -9.181 -1.763 0.29
-20.716 -9.17 -1.747 0.46
-20.414 -9.074 -1.719 0.27
-20.372 -9.132 -1.718 0.3
-20.412 -9.228 -1.725 0.36
-20.349 -9.276 -1.722 0.32
-20.204 -9.286 -1.711 0.36
-20.178 -9.352 -1.711 0.44
-19.763 -9.234 -1.674 0.34
-19.606 -9.198 -1.661 0.3
-19.564 -9.253 -1.659 0.35
-19.612 -9.352 -1.667 0.32
-19.466 -9.357 -1.656 0.38
-19.438 -9.419 -1.656 0.34
-19.33 -9.442 -1.648 0.38
-19.223 -9.464 -1.641 0.32
-19.146 -9.464 -1.635 0.38
-19.125 -9.528 -1.636 0.27
-18.922 -9.501 -1.619 0.43
-18.921 -9.575 -1.622 0.27
-18.777 -9.576 -1.611 0.39
-18.926 -9.728 -1.628 0.36
-18.916 -9.798 -1.63 0.29
-18.896 -9.863 -1.631 0.31
-18.909 -9.907 -1.634 0.3
-18.946 -10.003 -1.641 0.32
-18.89 -10.049 -1.638 0.31
-18.787 -10.07 -1.631 0.34
-18.734 -10.118 -1.629 0.14
-17.378 -9.454 -1.5 0.5
-21.053 -11.546 -1.863 0.2
-17.422 -9.585 -1.508 0.19
-20.906 -11.593 -1.854 0.21
-17.193 -9.6 -1.492 0.15
-20.765 -11.686 -1.847 0.32
-20.687 -11.728 -1.843 0.19
-20.607 -11.768 -1.839 0.34
-20.516 -11.802 -1.834 0.24
-20.484 -11.826 -1.832 0.25
-20.416 -11.872 -1.829 0.3
-20.34 -11.914 -1.825 0.21
-20.248 -11.946 -1.82 0.31
-20.097 -11.942 -1.809 0.32
-19.969 -11.951 -1.8 0.36
-19.843 -11.96 -1.791 0.45
-19.741 -11.94 -1.782 0.27
-19.604 -11.942 -1.772 0.39
-19.389 -11.894 -1.754 0.33
-19.302 -11.924 -1.749 0.34
-19.239 -11.969 -1.747 0.42
-19.107 -11.97 -1.737 0.27
-19.042 -12.013 -1.735 0.54
-16.008 -10.129 -1.428 0.24
-18.838 -12.008 -1.719 0.36
-18.812 -12.075 -1.721 0.3
-18.727 -12.103 -1.716 0.54
-18.699 -12.169 -1.717 0.29
-18.485 -12.113 -1.699 0.24
-18.436 -12.163 -1.698 0.23
-18.448 -12.213 -1.701 0.28
-18.708 -12.47 -1.732 0.21
-17.484 -11.812 -1.613 0.36
-17.742 -12.068 -1.644 0.18
-17.605 -12.137 -1.637 0.39
-17.417 -12.048 -1.62 0.18
-18.16 -12.647 -1.701 0.32
-18.174 -12.742 -1.707 0.23
-18.114 -12.785 -1.705 0.22
-18.032 -12.812 -1.701 0.19
-17.966 -12.85 -1.698 0.19
-17.904 -12.891 -1.696 0.41
-17.855 -12.899 -1.693 0.17
-17.789 -12.936 -1.69 0.28
-17.733 -12.981 -1.688 0.19
-17.686 -13.032 -1.688 0.25
-17.61 -13.061 -1.684 0.29
-17.543 -13.097 -1.681 0.3
-17.456 -13.118 -1.676 0.28
-17.356 -13.128 -1.67 0.24
-17.319 -13.143 -1.668 0.19
-15.538 -11.865 -1.48 0.45
-17.192 -13.218 -1.663 0.26
-17.124 -13.251 -1.66 0.3
-17.054 -13.282 -1.657 0.31
-16.982 -13.313 -1.654 0.28
-16.922 -13.351 -1.652 0.29
-16.88 -13.361 -1.65 0.29
-16.813 -13.395 -1.647 0.29
-16.759 -13.437 -1.646 0.29
-16.687 -13.466 -1.642 0.29
-16.623 -13.501 -1.64 0.29
-16.554 -13.532 -1.637 0.29
-16.472 -13.55 -1.633 0.29
-16.432 -13.561 -1.631 0.31
-16.369 -13.596 -1.628 0.29
-16.296 -13.622 -1.625 0.31
-16.236 -13.659 -1.623 0.33
-16.149 -13.672 -1.618 0.34
-14.009 -11.932 -1.381 0.21
-15.991 -13.711 -1.61 0.29
-15.94 -13.712 -1.607 0.35
-15.875 -13.742 -1.604 0.29
-15.804 -13.768 -1.601 0.35
-15.745 -13.803 -1.599 0.23
-15.662 -13.818 -1.595 0.36
-15.586 -13.838 -1.591 0.31
-15.5 -13.849 -1.586 0.31
-15.456 -13.853 -1.583 0.38
-15.378 -13.871 -1.579 0.33
-15.308 -13.895 -1.576 0.34
-15.248 -13.928 -1.574 0.3
-15.17 -13.945 -1.57 0.41
-15.109 -13.976 -1.568 0.38
-15.033 -13.994 -1.565 0.33
-14.967 -13.977 -1.559 0.39
-14.917 -14.018 -1.559 0.36
-14.844 -14.037 -1.555 0.34
-14.77 -14.055 -1.552 0.33
-14.697 -14.074 -1.548 0.39
-14.633 -14.101 -1.546 0.38
-14.593 -14.151 -1.546 0.25
-14.547 -14.151 -1.544 0.49
-14.472 -14.166 -1.54 0.33
-14.362 -14.147 -1.532 0.32
-14.303 -14.178 -1.53 0.43
-14.228 -14.192 -1.527 0.36
-14.155 -14.208 -1.523 0.3
-14.113 -14.256 -1.523 0.38
-14.049 -14.28 -1.521 0.39
-14.007 -14.282 -1.519 0.35
-13.937 -14.3 -1.516 0.31
-13.871 -14.322 -1.513 0.37
-13.789 -14.327 -1.508 0.44
-13.744 -14.37 -1.508 0.38
-13.66 -14.373 -1.504 0.4
-13.585 -14.384 -1.5 0.36
-13.52 -14.36 -1.495 0.37
-13.442 -14.368 -1.49 0.43
-13.36 -14.37 -1.486 0.27
-13.278 -14.373 -1.481 0.4
-13.2 -14.378 -1.477 0.33
-13.116 -14.376 -1.472 0.35
-13.042 -14.386 -1.468 0.42
-12.981 -14.364 -1.463 0.33
-12.906 -14.372 -1.46 0.34
-12.82 -14.366 -1.454 0.45
-12.753 -14.381 -1.451 0.36
-12.664 -14.372 -1.446 0.42
-12.607 -14.398 -1.444 0.23
-12.512 -14.38 -1.438 0.52
-12.458 -14.409 -1.436 0.27
-12.384 -14.37 -1.43 0.58
-12.32 -14.386 -1.427 0.23
-12.223 -14.364 -1.42 0.57
-12.151 -14.37 -1.417 0.3
-12.082 -14.38 -1.414 0.46
-11.993 -14.365 -1.408 0.37
-11.945 -14.353 -1.404 0.38
-11.872 -14.357 -1.4 0.41
-11.796 -14.357 -1.396 0.35
-11.722 -14.358 -1.392 0.35
-11.658 -14.372 -1.39 0.39
-11.585 -14.374 -1.386 0.34
-11.512 -14.375 -1.382 0.4
-11.463 -14.36 -1.379 0.38
-11.393 -14.365 -1.375 0.31
-11.317 -14.361 -1.371 0.46
-11.242 -14.359 -1.367 0.35
-11.168 -14.356 -1.363 0.41
-11.098 -14.36 -1.359 0.33
-11.033 -14.368 -1.356 0.38
-10.963 -14.371 -1.353 0.36
-10.912 -14.35 -1.349 0.4
-10.845 -14.355 -1.346 0.31
-10.78 -14.362 -1.343 0.34
-10.712 -14.366 -1.339 0.34
-10.65 -14.377 -1.337 0.43
-10.576 -14.37 -1.333 0.45
-10.515 -14.382 -1.331 0.31
-10.461 -14.355 -1.326 0.46
-10.399 -14.365 -1.324 0.32
-10.326 -14.359 -1.319 0.46
-10.258 -14.359 -1.316 0.38
-10.183 -14.349 -1.312 0.45
-10.12 -14.355 -1.309 0.39
-10.061 -14.367 -1.307 0.29
-10.015 -14.35 -1.303 0.45
-9.954 -14.358 -1.301 0.35
-9.882 -14.35 -1.297 0.42
-9.812 -14.345 -1.293 0.42
-9.758 -14.362 -1.292 0.35
-9.686 -14.353 -1.288 0.43
-9.625 -14.359 -1.285 0.35
-9.592 -14.359 -1.283 0.38
-9.523 -14.352 -1.28 0.4
-9.453 -14.344 -1.276 0.36
-9.395 -14.355 -1.274 0.4
-9.324 -14.345 -1.27 0.32
-9.264 -14.35 -1.267 0.39
-9.213 -14.369 -1.266 0.34
-9.186 -14.377 -1.266 0.4
-9.114 -14.364 -1.261 0.34
-9.059 -14.377 -1.26 0.42
-8.985 -14.36 -1.255 0.41
-8.931 -14.373 -1.254 0.37
-8.862 -14.362 -1.25 0.39
-8.799 -14.361 -1.247 0.43
-8.74 -14.366 -1.245 0.33
-8.7 -14.351 -1.242 0.41
-8.631 -14.339 -1.238 0.36
-8.573 -14.343 -1.235 0.36
-8.516 -14.35 -1.233 0.39
-8.461 -14.359 -1.232 0.3
-8.404 -14.367 -1.23 0.21
-8.356 -14.388 -1.229 0.57
-8.301 -14.344 -1.224 0.25
-8.236 -14.335 -1.22 0.21
-8.188 -14.356 -1.22 0.45
-8.125 -14.35 -1.217 0.23
-8.068 -14.355 -1.215 0.3
-8.018 -14.372 -1.214 0.48
-7.945 -14.346 -1.209 0.3
-7.91 -14.336 -1.207 0.27
-7.856 -14.345 -1.205 0.18
-7.798 -14.345 -1.203 0.2
-7.741 -14.347 -1.2 0.51
-7.69 -14.36 -1.199 0.27
-7.634 -14.363 -1.197 0.25
-7.524 -14.264 -1.185 0.3
-7.482 -14.238 -1.182 0.23
-7.429 -14.246 -1.18 0.32
-7.369 -14.241 -1.177 0.25
-7.314 -14.243 -1.175 0.42
-7.256 -14.241 -1.173 0.29
-7.201 -14.242 -1.171 0.42
-7.145 -14.243 -1.169 0.32
-7.114 -14.237 -1.167 0.36
-7.055 -14.23 -1.164 0.27
-7.003 -14.238 -1.163 0.32
-6.995 -14.335 -1.17 0.25
-6.942 -14.341 -1.169 0.34
-6.888 -14.343 -1.167 0.43
-6.838 -14.356 -1.166 0.32
-6.802 -14.338 -1.163 0.43
-6.745 -14.334 -1.161 0.41
-6.695 -14.344 -1.16 0.37
-6.641 -14.345 -1.158 0.38
-6.588 -14.349 -1.156 0.4
-6.535 -14.352 -1.155 0.4
-6.482 -14.354 -1.153 0.4
-6.447 -14.337 -1.15 0.41
-6.4 -14.354 -1.15 0.45
-6.334 -14.326 -1.146 0.43
-6.283 -14.331 -1.144 0.38
-6.231 -14.335 -1.143 0.38
-6.192 -14.369 -1.144 0.19
-6.132 -14.353 -1.141 0.58
-6.102 -14.346 -1.139 0.36
-6.043 -14.332 -1.136 0.3
-5.992 -14.335 -1.135 0.29
-5.944 -14.348 -1.134 0.33
-5.888 -14.339 -1.132 0.39
-5.838 -14.346 -1.13 0.32
-5.788 -14.352 -1.129 0.41
-5.752 -14.327 -1.126 0.38
-5.704 -14.338 -1.126 0.31
-5.652 -14.337 -1.124 0.39
-5.599 -14.335 -1.122 0.34
-5.545 -14.33 -1.12 0.39
-5.494 -14.332 -1.118 0.35
-5.449 -14.347 -1.118 0.21
-5.423 -14.347 -1.117 0.56
-5.365 -14.33 -1.114 0.32
-5.312 -14.326 -1.112 0.34
-5.262 -14.328 -1.111 0.36
-5.211 -14.328 -1.11 0.36
-5.159 -14.325 -1.108 0.34
-5.109 -14.326 -1.106 0.38
-5.084 -14.329 -1.106 0.26
-5.037 -14.339 -1.105 0.41
-4.987 -14.339 -1.104 0.36
-4.936 -14.338 -1.103 0.41
-4.886 -14.34 -1.101 0.29
-4.834 -14.333 -1.099 0.39
-4.784 -14.335 -1.098 0.34
-4.76 -14.339 -1.098 0.38
-4.71 -14.338 -1.096 0.27
-4.659 -14.334 -1.095 0.48
-4.607 -14.328 -1.093 0.29
-4.56 -14.335 -1.092 0.43
-4.511 -14.337 -1.091 0.29
-4.464 -14.344 -1.09 0.28
-4.412 -14.335 -1.088 0.41
-4.385 -14.327 -1.087 0.29
-4.342 -14.348 -1.088 0.34
-4.29 -14.339 -1.086 0.43
-4.243 -14.344 -1.085 0.37
-4.198 -14.358 -1.085 0.34
-4.146 -14.348 -1.083 0.45
-4.103 -14.368 -1.084 0.29
-4.07 -14.336 -1.08 0.63
-4.021 -14.336 -1.079 0.35
-3.971 -14.331 -1.077 0.27
-3.922 -14.328 -1.076 0.31
-3.874 -14.329 -1.075 0.31
-3.825 -14.327 -1.074 0.21
-3.783 -14.349 -1.075 0.4
-3.752 -14.324 -1.072 0.37
-3.703 -14.32 -1.071 0.39
-3.657 -14.326 -1.07 0.35
-3.609 -14.326 -1.069 0.44
-3.559 -14.32 -1.067 0.37
-3.516 -14.337 -1.068 0.31
-3.468 -14.338 -1.067 0.43
-3.444 -14.334 -1.066 0.36
-3.396 -14.333 -1.065 0.38
-3.346 -14.324 -1.063 0.44
-3.3 -14.329 -1.063 0.34
-3.251 -14.323 -1.062 0.44
-3.208 -14.339 -1.062 0.34
-3.162 -14.347 -1.062 0.38
-3.134 -14.325 -1.06 0.45
-3.087 -14.329 -1.059 0.35
-3.04 -14.327 -1.058 0.43
-2.992 -14.325 -1.057 0.4
-2.951 -14.35 -1.058 0.22
-2.902 -14.341 -1.057 0.55
-2.855 -14.339 -1.056 0.34
-2.83 -14.333 -1.055 0.38
-2.783 -14.332 -1.054 0.41
-2.737 -14.333 -1.053 0.39
-2.688 -14.32 -1.052 0.43
-2.642 -14.323 -1.051 0.35
-2.596 -14.327 -1.051 0.41
-2.546 -14.307 -1.048 0.41
-2.504 -14.2 -1.038 0.18
-1.622 -9.315 -0.612 0.14
-1.587 -9.287 -0.609 0.14
-1.558 -9.295 -0.609 0.24
-1.513 -9.202 -0.601 0.55
-1.501 -9.315 -0.61 0.2
-2.227 -14.332 -1.046 0.43
-2.18 -14.33 -1.045 0.39
-2.135 -14.336 -1.045 0.42
-2.088 -14.331 -1.044 0.41
-2.043 -14.334 -1.044 0.41
-1.996 -14.328 -1.043 0.39
-1.952 -14.338 -1.043 0.39
-1.904 -14.329 -1.042 0.41
-1.882 -14.335 -1.042 0.39
-1.837 -14.337 -1.042 0.38
-1.791 -14.339 -1.041 0.35
-1.745 -14.333 -1.04 0.47
-1.698 -14.324 -1.039 0.39
-1.651 -14.314 -1.038 0.39
-1.63 -14.322 -1.038 0.3
-1.583 -14.311 -1.037 0.46
-1.54 -14.334 -1.038 0.23
-1.493 -14.323 -1.037 0.46
-1.45 -14.35 -1.039 0.22
-1.403 -14.33 -1.037 0.54
-1.357 -14.325 -1.036 0.33
-1.334 -14.327 -1.036 0.31
-1.289 -14.327 -1.036 0.42
-1.244 -14.327 -1.035 0.34
-1.198 -14.323 -1.035 0.45
-1.153 -14.327 -1.035 0.33
-1.108 -14.328 -1.034 0.44
-1.062 -14.326 -1.034 0.39
-1.017 -14.327 -1.034 0.36
-0.997 -14.356 -1.036 0.23
-0.95 -14.337 -1.034 0.51
-0.904 -14.32 -1.032 0.36
-0.859 -14.319 -1.032 0.44
-0.814 -14.326 -1.032 0.35
-0.77 -14.346 -1.034 0.18
-0.723 -14.323 -1.032 0.59
-0.701 -14.328 -1.032 0.24
-0.657 -14.344 -1.033 0.34
-0.611 -14.324 -1.031 0.53
-0.562 -14.214 -1.022 0.38
-0.517 -14.214 -1.022 0.35
-0.472 -14.222 -1.022 0.2
-0.428 -14.221 -1.022 0.5
-0.405 -14.218 -1.022 0.35
-0.361 -14.227 -1.022 0.39
-0.316 -14.212 -1.021 0.48
-0.271 -14.217 -1.021 0.33
-0.226 -14.22 -1.022 0.29
-0.182 -14.218 -1.021 0.52
-0.137 -14.219 -1.021 0.28
-0.115 -14.221 -1.022 0.29
-0.07 -14.239 -1.023 0.48
-0.025 -14.329 -1.031 0.32
0.02 -14.319 -1.03 0.25
0.065 -14.331 -1.031 0.31
0.109 -14.307 -1.029 0.22
0.155 -14.318 -1.03 0.38
0.177 -14.314 -1.03 0.23
0.222 -14.319 -1.03 0.34
0.267 -14.315 -1.03 0.29
0.312 -14.31 -1.029 0.22
0.357 -14.327 -1.031 0.46
0.402 -14.313 -1.03 0.22
0.447 -14.308 -1.03 0.39
0.469 -14.307 -1.03 0.29
0.515 -14.318 -1.031 0.35
0.559 -14.314 -1.03 0.28
0.605 -14.314 -1.031 0.36
0.65 -14.318 -1.031 0.26
0.695 -14.326 -1.032 0.41
0.739 -14.308 -1.031 0.26
0.763 -14.325 -1.032 0.41
0.808 -14.332 -1.033 0.36
0.854 -14.331 -1.033 0.2
0.899 -14.333 -1.034 0.37
0.944 -14.334 -1.034 0.32
0.989 -14.329 -1.034 0.25
1.034 -14.326 -1.034 0.36
1.057 -14.324 -1.034 0.34
1.102 -14.329 -1.034 0.31
1.148 -14.333 -1.035 0.28
1.193 -14.333 -1.035 0.3
1.238 -14.331 -1.036 0.26
1.283 -14.327 -1.036 0.32
1.328 -14.317 -1.035 0.25
1.351 -14.323 -1.036 0.2
1.397 -14.331 -1.037 0.5
1.441 -14.312 -1.036 0.27
1.488 -14.324 -1.037 0.23
1.533 -14.327 -1.038 0.41
1.579 -14.326 -1.038 0.32
1.624 -14.323 -1.038 0.27
1.669 -14.32 -1.038 0.37
1.691 -14.313 -1.038 0.26
1.739 -14.329 -1.04 0.36
1.783 -14.318 -1.039 0.3
1.83 -14.328 -1.041 0.2
1.878 -14.344 -1.043 0.45
1.921 -14.324 -1.041 0.48
1.944 -14.321 -1.041 0.32
1.995 -14.356 -1.045 0.18
2.038 -14.338 -1.044 0.57
2.081 -14.318 -1.043 0.38
2.129 -14.329 -1.044 0.3
2.175 -14.334 -1.045 0.39
2.221 -14.329 -1.046 0.38
2.245 -14.336 -1.046 0.38
2.288 -14.317 -1.045 0.41
2.336 -14.327 -1.047 0.34
2.383 -14.335 -1.048 0.43
2.427 -14.32 -1.048 0.36
2.473 -14.32 -1.048 0.43
2.522 -14.332 -1.05 0.23
2.568 -14.33 -1.05 0.59
2.59 -14.322 -1.05 0.31
2.635 -14.316 -1.05 0.4
2.682 -14.317 -1.051 0.35
2.728 -14.316 -1.052 0.38
2.776 -14.321 -1.053 0.37
2.822 -14.317 -1.053 0.43
2.872 -14.335 -1.056 0.23
2.897 -14.342 -1.057 0.55
2.938 -14.313 -1.055 0.4
2.985 -14.314 -1.056 0.38
3.032 -14.314 -1.057 0.39
3.08 -14.318 -1.058 0.38
3.126 -14.314 -1.059 0.31
3.171 -14.304 -1.059 0.44
3.199 -14.323 -1.061 0.31
3.251 -14.344 -1.063 0.43
3.297 -14.337 -1.064 0.31
3.341 -14.323 -1.063 0.5
3.39 -14.33 -1.065 0.32
3.437 -14.327 -1.066 0.46
3.487 -14.335 -1.067 0.27
3.507 -14.32 -1.066 0.55
3.555 -14.323 -1.068 0.32
3.603 -14.321 -1.068 0.5
3.651 -14.323 -1.07 0.38
3.7 -14.325 -1.071 0.32
3.745 -14.314 -1.071 0.42
3.794 -14.317 -1.072 0.35
3.821 -14.326 -1.074 0.42
3.87 -14.33 -1.075 0.41
3.916 -14.321 -1.075 0.38
3.967 -14.33 -1.077 0.39
4.02 -14.348 -1.08 0.34
4.061 -14.32 -1.079 0.45
4.108 -14.315 -1.079 0.37
4.138 -14.334 -1.081 0.39
4.182 -14.319 -1.081 0.41
4.232 -14.323 -1.083 0.32
4.28 -14.319 -1.084 0.45
4.33 -14.32 -1.085 0.39
4.377 -14.312 -1.086 0.38
4.424 -14.308 -1.086 0.38
4.446 -14.299 -1.086 0.38
4.504 -14.325 -1.09 0.42
4.561 -14.349 -1.093 0.26
4.603 -14.325 -1.092 0.53
4.653 -14.326 -1.094 0.31
4.702 -14.322 -1.095 0.44
4.755 -14.334 -1.097 0.36
4.779 -14.328 -1.097 0.43
4.829 -14.33 -1.099 0.45
4.885 -14.347 -1.102 0.23
4.923 -14.311 -1.1 0.49
4.974 -14.312 -1.102 0.36
5.021 -14.302 -1.102 0.46
5.076 -14.315 -1.105 0.35
5.102 -14.318 -1.106 0.44
5.141 -14.283 -1.104 0.32
5.175 -14.239 -1.101 0.59
5.257 -14.323 -1.111 0.27
5.25 -14.167 -1.098 0.55
5.353 -14.307 -1.112 0.32
5.41 -14.32 -1.115 0.48
5.435 -14.319 -1.116 0.35
5.47 -14.275 -1.113 0.38
5.53 -14.299 -1.117 0.4
5.543 -14.2 -1.109 0.45
5.596 -14.203 -1.111 0.41
5.635 -14.17 -1.11 0.4
5.678 -14.151 -1.11 0.34
5.695 -14.127 -1.108 0.43
5.756 -14.152 -1.112 0.34
5.797 -14.124 -1.111 0.45
5.834 -14.089 -1.11 0.4
5.884 -14.084 -1.111 0.37
5.924 -14.056 -1.11 0.39
5.964 -14.026 -1.109 0.43
5.983 -14.01 -1.109 0.34
6.031 -14.002 -1.11 0.37
6.079 -13.99 -1.11 0.38
6.124 -13.975 -1.111 0.38
6.164 -13.946 -1.11 0.35
6.207 -13.925 -1.11 0.41
6.251 -13.907 -1.11 0.33
6.279 -13.91 -1.111 0.5
6.313 -13.868 -1.109 0.2
6.364 -13.865 -1.11 0.28
6.411 -13.852 -1.111 0.39
6.45 -13.823 -1.11 0.35
6.495 -13.806 -1.111 0.27
5.491 -11.587 -0.901 0.32
5.487 -11.486 -0.893 0.53
5.501 -11.468 -0.892 0.29
6.646 -13.734 -1.111 0.21
6.66 -13.652 -1.105 0.55
6.702 -13.629 -1.105 0.32
5.639 -11.387 -0.891 0.29
6.822 -13.656 -1.111 0.38
6.866 -13.637 -1.111 0.34
6.887 -13.626 -1.111 0.33
6.933 -13.609 -1.112 0.38
6.972 -13.581 -1.111 0.31
7.013 -13.555 -1.111 0.32
7.064 -13.549 -1.112 0.36
7.103 -13.521 -1.112 0.3
7.149 -13.504 -1.112 0.37
7.176 -13.505 -1.114 0.35
7.219 -13.483 -1.114 0.34
7.263 -13.463 -1.114 0.29
7.298 -13.426 -1.113 0.31
7.336 -13.396 -1.112 0.39
7.393 -13.401 -1.115 0.35
7.434 -13.376 -1.115 0.34
7.457 -13.368 -1.115 0.34
7.506 -13.357 -1.116 0.34
7.548 -13.333 -1.116 0.34
7.588 -13.306 -1.116 0.34
7.633 -13.287 -1.116 0.35
7.671 -13.258 -1.116 0.28
7.722 -13.249 -1.117 0.38
7.743 -13.237 -1.117 0.33
7.791 -13.223 -1.118 0.28
7.836 -13.205 -1.119 0.35
7.874 -13.175 -1.118 0.29
7.917 -13.152 -1.119 0.37
7.958 -13.127 -1.119 0.29
8.002 -13.107 -1.119 0.36
8.023 -13.095 -1.119 0.33
8.069 -13.078 -1.12 0.34
8.114 -13.058 -1.121 0.33
8.16 -13.041 -1.121 0.32
8.202 -13.017 -1.122 0.34
8.242 -12.989 -1.121 0.34
8.282 -12.963 -1.121 0.33
8.304 -12.952 -1.122 0.35
8.349 -12.932 -1.122 0.32
8.397 -12.918 -1.123 0.32
8.434 -12.886 -1.123 0.33
8.48 -12.868 -1.124 0.32
8.526 -12.85 -1.125 0.32
8.57 -12.828 -1.125 0.35
8.591 -12.816 -1.125 0.3
8.632 -12.79 -1.126 0.34
8.684 -12.78 -1.127 0.33
8.688 -12.7 -1.122 0.23
8.77 -12.733 -1.128 0.36
8.795 -12.684 -1.126 0.27
8.846 -12.673 -1.128 0.28
8.869 -12.664 -1.128 0.33
8.914 -12.642 -1.129 0.32
8.951 -12.611 -1.128 0.29
9.002 -12.599 -1.13 0.37
9.045 -12.576 -1.131 0.32
9.084 -12.546 -1.13 0.31
9.126 -12.522 -1.131 0.31
9.154 -12.519 -1.132 0.3
9.195 -12.491 -1.132 0.31
9.236 -12.466 -1.133 0.31
9.28 -12.443 -1.133 0.31
9.325 -12.422 -1.134 0.32
9.345 -12.367 -1.132 0.27
9.096 -11.961 -1.091 0.32
9.423 -12.348 -1.134 0.24
9.46 -12.317 -1.134 0.45
9.513 -12.306 -1.136 0.32
9.497 -12.205 -1.128 0.28
9.48 -12.105 -1.121 0.24
9.413 -11.942 -1.106 0.33
9.433 -11.891 -1.104 0.33
9.454 -11.879 -1.104 0.39
9.487 -11.845 -1.104 0.3
9.505 -11.79 -1.101 0.5
9.569 -11.794 -1.105 0.32
9.619 -11.779 -1.106 0.5
9.644 -11.735 -1.105 0.37
9.754 -11.792 -1.115 0.42
9.788 -11.795 -1.117 0.5
9.904 -11.859 -1.127 0.38
9.966 -11.857 -1.13 0.36
10.096 -11.935 -1.143 0.27
10.116 -11.884 -1.141 0.43
10.121 -11.814 -1.136 0.41
10.195 -11.824 -1.141 0.28
10.187 -11.778 -1.138 0.5
10.241 -11.766 -1.14 0.32
10.279 -11.735 -1.14 0.53
10.324 -11.711 -1.141 0.37
10.377 -11.697 -1.143 0.45
10.447 -11.701 -1.147 0.35
10.495 -11.682 -1.149 0.41
10.592 -11.752 -1.159 0.43
10.637 -11.728 -1.16 0.3
10.693 -11.715 -1.163 0.58
10.776 -11.731 -1.168 0.28
10.776 -11.658 -1.164 0.62
10.874 -11.69 -1.171 0.25
10.914 -11.66 -1.172 0.6
10.979 -11.692 -1.178 0.29
11.024 -11.666 -1.179 0.42
11.051 -11.621 -1.178 0.27
11.057 -11.555 -1.174 0.34
11.095 -11.521 -1.174 0.41
11.146 -11.502 -1.176 0.34
11.189 -11.474 -1.177 0.31
11.221 -11.435 -1.176 0.34
11.236 -11.414 -1.176 0.3
11.28 -11.387 -1.177 0.34
11.316 -11.352 -1.177 0.29
11.35 -11.315 -1.177 0.31
11.4 -11.293 -1.178 0.33
11.438 -11.26 -1.179 0.28
11.474 -11.26 -1.181 0.33
11.5 -11.214 -1.18 0.29
11.551 -11.193 -1.182 0.34
11.597 -11.168 -1.183 0.32
11.638 -11.137 -1.184 0.31
11.672 -11.099 -1.184 0.27
11.719 -11.075 -1.185 0.36
11.735 -11.055 -1.185 0.26
11.779 -11.026 -1.186 0.3
11.826 -11.001 -1.188 0.33
11.807 -10.914 -1.181 0.31
11.901 -10.932 -1.188 0.25
11.933 -10.892 -1.188 0.31
11.429 -10.368 -1.126 0.2
12.044 -10.856 -1.193 0.34
12.055 -10.831 -1.192 0.27
12.126 -10.826 -1.196 0.33
11.409 -10.124 -1.11 0.31
11.393 -10.046 -1.105 0.29
12.235 -10.718 -1.197 0.3
11.587 -10.088 -1.12 0.16
11.514 -9.962 -1.108 0.44
11.601 -10.005 -1.116 0.27
11.648 -9.981 -1.118 0.23
11.691 -9.955 -1.119 0.36
11.753 -9.944 -1.122 0.39
11.804 -9.924 -1.125 0.25
11.91 -9.949 -1.133 0.4
11.867 -9.851 -1.125 0.29
11.76 -9.73 -1.111 0.48
11.938 -9.815 -1.128 0.3
11.896 -9.718 -1.12 0.41
12.034 -9.767 -1.131 0.43
11.984 -9.664 -1.122 0.33
12.121 -9.712 -1.134 0.37
12.124 -9.652 -1.131 0.44
12.078 -9.585 -1.124 0.29
12.078 -9.523 -1.121 0.5
12.124 -9.498 -1.123 0.32
12.217 -9.508 -1.13 0.42
12.242 -9.466 -1.129 0.41
12.257 -9.417 -1.128 0.42
12.225 -9.331 -1.121 0.34
12.281 -9.343 -1.126 0.46
12.335 -9.324 -1.128 0.3
12.371 -9.29 -1.129 0.45
12.421 -9.266 -1.131 0.33
12.4 -9.191 -1.126 0.46
12.442 -9.161 -1.127 0.27
12.49 -9.136 -1.129 0.5
12.398 -9.039 -1.118 0.25
12.501 -9.054 -1.126 0.43
12.574 -9.047 -1.131 0.38
12.515 -8.945 -1.121 0.43
12.564 -8.921 -1.124 0.24
12.547 -8.849 -1.119 0.54
12.627 -8.846 -1.124 0.27
12.675 -8.85 -1.128 0.48
12.752 -8.844 -1.133 0.37
12.781 -8.805 -1.133 0.42
12.84 -8.786 -1.136 0.43
12.896 -8.765 -1.139 0.46
12.974 -8.759 -1.145 0.34
13.025 -8.734 -1.147 0.45
13.071 -8.705 -1.149 0.45
13.108 -8.7 -1.151 0.45
13.08 -8.622 -1.146 0.39
13.19 -8.636 -1.154 0.36
13.157 -8.555 -1.148 0.37
13.184 -8.514 -1.148 0.52
13.212 -8.473 -1.148 0.4
13.221 -8.449 -1.148 0.29
13.279 -8.428 -1.151 0.32
13.365 -8.423 -1.157 0.35
13.445 -8.415 -1.163 0.35
13.536 -8.413 -1.169 0.36
13.632 -8.413 -1.176 0.36
13.702 -8.397 -1.181 0.32
13.801 -8.427 -1.189 0.21
13.757 -8.342 -1.182 0.49
13.975 -8.413 -1.201 0.34
14.069 -8.41 -1.208 0.38
14.159 -8.403 -1.214 0.36
14.266 -8.406 -1.222 0.36
14.356 -8.398 -1.229 0.32
14.452 -8.393 -1.236 0.4
14.551 -8.42 -1.244 0.3
14.654 -8.418 -1.252 0.32
14.755 -8.414 -1.259 0.3
14.849 -8.406 -1.266 0.37
14.946 -8.399 -1.273 0.33
15.047 -8.394 -1.28 0.25
15.119 -8.372 -1.285 0.39
15.139 -8.352 -1.285 0.37
15.206 -8.326 -1.289 0.18
15.184 -8.253 -1.285 0.55
15.196 -8.197 -1.283 0.34
15.224 -8.151 -1.283 0.39
15.244 -8.1 -1.283 0.4
15.276 -8.086 -1.285 0.31
15.206 -7.988 -1.276 0.35
15.257 -7.954 -1.278 0.0
14.794 -7.654 -1.231 0.11
14.892 -7.646 -1.238 0.24
14.989 -7.636 -1.245 0.24
15.118 -7.642 -1.255 0.25
15.231 -7.639 -1.264 0.29
15.312 -7.649 -1.27 0.18
15.415 -7.64 -1.278 0.23
15.419 -7.582 -1.276 0.54
15.504 -7.563 -1.282 0.43
15.513 -7.507 -1.281 0.3
15.521 -7.451 -1.279 0.25
15.561 -7.44 -1.282 0.37
15.518 -7.36 -1.275 0.29
15.524 -7.303 -1.274 0.37
15.544 -7.253 -1.274 0.23
15.581 -7.211 -1.275 0.35
15.584 -7.153 -1.273 0.35
15.508 -7.059 -1.264 0.29
15.541 -7.015 -1.265 0.36
15.552 -6.991 -1.265 0.38
15.519 -6.918 -1.26 0.29
15.572 -6.883 -1.263 0.29
15.557 -6.818 -1.259 0.41
15.543 -6.754 -1.256 0.27
15.594 -6.718 -1.259 0.38
15.569 -6.649 -1.254 0.37
15.545 -6.61 -1.251 0.3
15.631 -6.589 -1.257 0.34
15.604 -6.52 -1.253 0.33
15.621 -6.469 -1.252 0.27
15.687 -6.439 -1.257 0.4
15.61 -6.35 -1.248 0.27
15.485 -6.243 -1.234 0.14
15.408 -6.184 -1.226 0.16
15.5 -6.164 -1.233 0.25
15.639 -6.163 -1.244 0.28
15.832 -6.181 -1.26 0.28
15.983 -6.182 -1.272 0.27
16.127 -6.179 -1.284 0.23
16.2 -6.149 -1.289 0.48
16.193 -6.117 -1.287 0.3
16.166 -6.049 -1.283 0.21
16.13 -5.978 -1.278 0.36
16.183 -5.939 -1.281 0.29
16.239 -5.902 -1.284 0.28
16.222 -5.838 -1.281 0.34
16.225 -5.782 -1.28 0.22
15.975 -5.665 -1.256 0.37
16.28 -5.715 -1.282 0.37
16.289 -5.661 -1.281 0.3
16.255 -5.592 -1.277 0.2
16.213 -5.521 -1.271 0.45
16.232 -5.47 -1.271 0.39
16.22 -5.41 -1.269 0.36
16.221 -5.382 -1.268 0.27
16.253 -5.336 -1.27 0.36
16.306 -5.296 -1.273 0.35
16.302 -5.239 -1.271 0.27
16.29 -5.178 -1.268 0.36
16.279 -5.119 -1.266 0.28
16.312 -5.073 -1.268 0.29
16.334 -5.051 -1.269 0.4
16.422 -5.022 -1.275 0.3
16.415 -4.964 -1.273 0.33
16.51 -4.936 -1.28 0.36
16.545 -4.89 -1.282 0.3
16.564 -4.839 -1.282 0.32
16.583 -4.788 -1.283 0.39
16.59 -4.733 -1.282 0.39
16.458 -4.668 -1.27 0.0
16.463 -4.613 -1.269 0.0
16.523 -4.574 -1.273 0.15
16.572 -4.532 -1.276 0.22
16.657 -4.499 -1.282 0.19
16.648 -4.44 -1.28 0.3
16.649 -4.385 -1.279 0.32
16.644 -4.355 -1.278 0.32
16.644 -4.3 -1.277 0.41
16.648 -4.245 -1.276 0.34
16.648 -4.189 -1.275 0.34
16.641 -4.132 -1.273 0.43
16.641 -4.076 -1.272 0.3
16.651 -4.024 -1.272 0.37
16.636 -3.992 -1.27 0.3
16.645 -3.939 -1.269 0.39
16.646 -3.884 -1.268 0.28
16.66 -3.832 -1.269 0.34
16.672 -3.78 -1.269 0.31
16.67 -3.725 -1.267 0.3
16.687 -3.673 -1.268 0.29
16.693 -3.647 -1.268 0.32
16.681 -3.59 -1.266 0.25
16.7 -3.539 -1.266 0.32
16.692 -3.483 -1.265 0.3
16.722 -3.434 -1.266 0.25
16.746 -3.384 -1.268 0.17
16.783 -3.364 -1.27 0.43
16.809 -3.314 -1.272 0.25
16.872 -3.272 -1.276 0.23
16.902 -3.222 -1.278 0.0
17.077 -3.2 -1.293 0.0
16.975 -3.126 -1.283 0.1
17.0 -3.075 -1.284 0.23
16.93 -3.035 -1.278 0.17
16.899 -2.975 -1.274 0.44
16.888 -2.919 -1.272 0.22
16.858 -2.859 -1.269 0.15
16.786 -2.793 -1.262 0.44
16.736 -2.73 -1.257 0.2
16.648 -2.662 -1.248 0.2
16.757 -2.626 -1.257 0.41
16.883 -2.618 -1.268 0.27
16.909 -2.568 -1.269 0.23
16.907 -2.513 -1.268 0.29
16.929 -2.462 -1.27 0.27
16.956 -2.412 -1.271 0.25
16.981 -2.361 -1.273 0.19
16.983 -2.307 -1.272 0.25
17.034 -2.286 -1.276 0.44
17.086 -2.239 -1.28 0.28
17.111 -2.187 -1.282 0.3
17.161 -2.139 -1.286 0.24
17.198 -2.088 -1.288 0.29
17.214 -2.035 -1.289 0.31
17.266 -1.987 -1.293 0.3
17.293 -1.962 -1.295 0.32
17.334 -1.912 -1.298 0.28
17.366 -1.86 -1.3 0.23
17.443 -1.813 -1.307 0.38
17.502 -1.763 -1.311 0.3
17.53 -1.71 -1.313 0.29
17.577 -1.659 -1.317 0.29
17.932 -1.664 -1.347 0.28
18.45 -1.652 -1.391 0.27
18.808 -1.625 -1.422 0.3
18.835 -1.567 -1.424 0.29
18.834 -1.508 -1.423 0.28
18.807 -1.446 -1.421 0.26
18.758 -1.383 -1.416 0.26
18.76 -1.354 -1.416 0.31
18.772 -1.295 -1.417 0.37
18.788 -1.237 -1.418 0.36
18.795 -1.178 -1.418 0.35
18.803 -1.119 -1.418 0.34
18.812 -1.061 -1.419 0.35
18.836 -1.003 -1.421 0.36
18.851 -0.974 -1.422 0.37
18.84 -0.914 -1.421 0.29
18.837 -0.854 -1.42 0.33
18.84 -0.795 -1.42 0.37
18.84 -0.736 -1.42 0.32
18.848 -0.677 -1.42 0.37
18.84 -0.617 -1.419 0.29
18.845 -0.588 -1.42 0.36
18.847 -0.529 -1.42 0.29
18.848 -0.469 -1.42 0.35
18.844 -0.41 -1.419 0.3
18.853 -0.351 -1.42 0.35
18.866 -0.292 -1.421 0.3
18.857 -0.233 -1.42 0.33
18.849 -0.203 -1.419 0.31
18.846 -0.144 -1.419 0.34
18.84 -0.084 -1.419 0.36
18.838 -0.025 -1.418 0.38
17.911 0.053 -1.445 0.16
17.921 0.11 -1.446 0.17
17.91 0.166 -1.445 0.16
17.898 0.222 -1.444 0.1
17.9 0.25 -1.444 0.15
17.887 0.306 -1.443 0.16
17.878 0.362 -1.443 0.09
17.888 0.419 -1.444 0.0
17.881 0.475 -1.443 0.0
17.891 0.531 -1.444 0.0
17.908 0.588 -1.446 0.0
17.928 0.645 -1.448 0.0
17.974 0.675 -1.452 0.0
17.958 0.731 -1.451 0.0
17.976 0.788 -1.453 0.0
18.013 0.846 -1.456 0.0
18.0 0.902 -1.455 0.0
17.977 0.958 -1.454 0.0
17.966 1.014 -1.453 0.0
17.957 1.042 -1.452 0.0
17.959 1.099 -1.453 0.0
17.938 1.154 -1.451 0.0
17.92 1.209 -1.45 0.13
17.924 1.266 -1.451 0.18
17.908 1.322 -1.449 0.2
17.882 1.376 -1.447 0.32
17.866 1.403 -1.446 0.18
17.862 1.459 -1.446 0.16
17.863 1.516 -1.447 0.17
17.848 1.571 -1.446 0.18
17.857 1.628 -1.447 0.17
17.848 1.684 -1.447 0.18
17.85 1.741 -1.447 0.18
17.84 1.768 -1.447 0.17
17.828 1.824 -1.446 0.17
17.838 1.881 -1.448 0.17
17.838 1.938 -1.448 0.16
17.834 1.994 -1.448 0.16
17.839 2.052 -1.449 0.17
17.837 2.108 -1.45 0.16
17.834 2.136 -1.45 0.16
17.829 2.192 -1.45 0.23
17.824 2.249 -1.45 0.24
17.811 2.304 -1.45 0.24
17.807 2.36 -1.45 0.25
17.784 2.414 -1.449 0.25
17.78 2.471 -1.449 0.11
17.77 2.498 -1.448 0.15
17.757 2.553 -1.448 0.12
17.76 2.61 -1.449 0.16
17.736 2.664 -1.447 0.27
17.726 2.719 -1.447 0.26
17.719 2.775 -1.447 0.27
17.706 2.83 -1.447 0.1
17.706 2.858 -1.447 0.16
17.703 2.915 -1.448 0.28
17.68 2.968 -1.447 0.26
17.678 3.025 -1.447 0.27
17.671 3.081 -1.448 0.11
17.671 3.138 -1.449 0.15
17.659 3.193 -1.448 0.28
17.644 3.219 -1.447 0.26
17.634 3.275 -1.447 0.27
17.621 3.33 -1.447 0.11
17.634 3.39 -1.449 0.16
17.622 3.445 -1.449 0.17
17.628 3.503 -1.451 0.17
17.627 3.561 -1.452 0.16
17.617 3.588 -1.451 0.1
17.612 3.644 -1.452 0.16
17.608 3.701 -1.453 0.16
17.583 3.754 -1.451 0.16
17.575 3.81 -1.452 0.16
17.569 3.866 -1.452 0.17
17.547 3.919 -1.451 0.17
17.544 3.947 -1.452 0.17
17.528 4.002 -1.451 0.18
17.515 4.057 -1.451 0.18
17.522 4.116 -1.453 0.16
17.509 4.171 -1.453 0.22
17.488 4.224 -1.453 0.34
17.463 4.277 -1.451 0.29
17.436 4.328 -1.45 0.3
17.458 4.363 -1.453 0.38
17.415 4.41 -1.45 0.24
17.434 4.473 -1.453 0.17
17.459 4.538 -1.457 0.18
17.452 4.595 -1.458 0.16
17.462 4.656 -1.46 0.17
17.455 4.713 -1.461 0.16
17.471 4.747 -1.463 0.1
17.479 4.808 -1.465 0.15
17.489 4.87 -1.468 0.1
17.493 4.93 -1.469 0.0
17.492 4.989 -1.471 0.0
17.488 5.048 -1.472 0.0
17.54 5.092 -1.478 0.0
17.514 5.144 -1.477 0.0
17.545 5.213 -1.481 0.0
17.563 5.279 -1.485 0.0
17.533 5.33 -1.483 0.0
17.52 5.386 -1.484 0.07
17.539 5.452 -1.487 0.08
17.556 5.488 -1.49 0.08
17.567 5.552 -1.492 0.09
17.574 5.615 -1.495 0.09
17.575 5.676 -1.496 0.09
17.584 5.74 -1.499 0.14
17.592 5.804 -1.502 0.09
17.596 5.866 -1.504 0.15
17.601 5.929 -1.506 0.09
17.631 5.97 -1.51 0.15
17.635 6.033 -1.512 0.09
17.668 6.107 -1.517 0.15
17.662 6.167 -1.518 0.1
17.662 6.229 -1.52 0.0
17.683 6.299 -1.524 0.0
17.691 6.365 -1.527 0.0
17.695 6.397 -1.528 0.0
17.732 6.474 -1.534 0.0
17.714 6.53 -1.534 0.0
17.759 6.61 -1.541 0.0
17.758 6.673 -1.543 0.0
17.769 6.741 -1.546 0.0
17.759 6.801 -1.547 0.0
17.791 6.846 -1.551 0.0
17.79 6.909 -1.553 0.0
17.809 6.981 -1.557 0.0
17.777 7.033 -1.556 0.0
17.783 7.1 -1.559 0.07
17.79 7.168 -1.562 0.08
17.79 7.233 -1.564 0.08
17.813 7.275 -1.568 0.09
17.822 7.344 -1.571 0.08
17.832 7.413 -1.574 0.09
17.843 7.484 -1.577 0.09
17.851 7.553 -1.581 0.09
17.851 7.619 -1.583 0.09
17.863 7.691 -1.587 0.14
17.87 7.727 -1.588 0.09
17.878 7.797 -1.592 0.15
17.866 7.859 -1.593 0.1
17.862 7.924 -1.595 0.16
17.873 7.996 -1.599 0.1
17.859 8.057 -1.6 0.15
17.844 8.118 -1.601 0.1
17.855 8.157 -1.603 0.15
17.844 8.22 -1.605 0.16
17.83 8.282 -1.606 0.1
17.813 8.342 -1.607 0.15
17.807 8.407 -1.609 0.09
17.822 8.483 -1.613 0.16
17.806 8.544 -1.614 0.1
17.818 8.584 -1.617 0.09
17.817 8.653 -1.619 0.09
17.812 8.719 -1.622 0.09
17.82 8.793 -1.625 0.09
17.821 8.863 -1.628 0.09
17.821 8.933 -1.631 0.09
17.83 9.008 -1.635 0.14
17.85 9.053 -1.639 0.09
17.845 9.12 -1.641 0.09
17.853 9.196 -1.645 0.14
17.835 9.257 -1.646 0.09
17.844 9.333 -1.65 0.14
17.841 9.403 -1.653 0.09
17.858 9.484 -1.657 0.14
17.867 9.525 -1.66 0.1
17.879 9.603 -1.664 0.15
17.861 9.666 -1.666 0.1
17.868 9.742 -1.669 0.16
17.863 9.813 -1.672 0.16
17.858 9.883 -1.675 0.1
17.859 9.956 -1.678 0.15
17.881 10.006 -1.682 0.1
17.91 10.096 -1.689 0.16
17.901 10.165 -1.691 0.09
17.926 10.254 -1.697 0.14
17.953 10.344 -1.703 0.16
17.965 10.426 -1.708 0.23
17.968 10.504 -1.712 0.11
17.977 10.547 -1.715 0.15
17.973 10.621 -1.718 0.09
17.993 10.708 -1.723 0.14
17.973 10.773 -1.725 0.09
18.002 10.867 -1.732 0.14
17.995 10.941 -1.735 0.09
17.986 11.013 -1.737 0.09
18.005 11.063 -1.741 0.14
17.997 11.136 -1.744 0.09
17.999 11.216 -1.748 0.15
17.979 11.282 -1.75 0.09
17.972 11.356 -1.753 0.15
17.958 11.426 -1.755 0.09
18.036 11.556 -1.768 0.14
18.033 11.594 -1.769 0.29
18.114 11.726 -1.782 0.28
18.099 11.797 -1.785 0.14
17.961 11.788 -1.774 0.54
17.946 11.859 -1.776 0.25
17.857 11.881 -1.77 0.25
17.795 11.92 -1.768 0.31
17.678 11.923 -1.759 0.23
17.478 11.828 -1.739 0.34
17.322 11.802 -1.725 0.29
17.239 11.825 -1.72 0.36
17.192 11.872 -1.719 0.28
17.061 11.862 -1.709 0.29
17.058 11.939 -1.713 0.41
17.023 11.995 -1.713 0.31
16.817 11.89 -1.692 0.27
16.582 11.802 -1.67 0.31
16.496 11.819 -1.664 0.2
16.459 11.871 -1.664 0.45
16.451 11.944 -1.667 0.3
16.307 11.918 -1.655 0.34
16.157 11.887 -1.643 0.23
16.262 12.003 -1.657 0.45
16.219 12.05 -1.656 0.32
15.913 11.901 -1.625 0.33
15.871 11.947 -1.625 0.32
15.803 11.974 -1.621 0.2
15.621 11.914 -1.605 0.42
15.515 11.911 -1.597 0.26
15.415 11.873 -1.587 0.31
15.415 11.95 -1.592 0.4
15.415 12.028 -1.596 0.32
15.341 12.048 -1.592 0.32
15.191 12.007 -1.579 0.31
15.162 12.062 -1.58 0.39
15.07 12.067 -1.573 0.32
14.86 11.937 -1.551 0.3
14.769 11.941 -1.545 0.36
14.627 11.902 -1.532 0.31
14.498 11.874 -1.521 0.34
14.448 11.909 -1.52 0.26
14.334 11.891 -1.511 0.35
14.182 11.84 -1.497 0.34
14.113 11.82 -1.491 0.33
14.091 11.878 -1.493 0.32
14.015 11.89 -1.488 0.37
13.869 11.841 -1.475 0.33
13.751 11.815 -1.465 0.3
13.793 11.926 -1.475 0.36
13.668 11.894 -1.464 0.3
13.604 11.876 -1.459 0.29
13.469 11.833 -1.447 0.41
13.346 11.799 -1.436 0.29
13.343 11.872 -1.44 0.39
13.183 11.805 -1.425 0.32
13.089 11.794 -1.418 0.31
13.077 11.858 -1.421 0.37
13.005 11.868 -1.417 0.31
12.966 11.87 -1.415 0.34
12.87 11.856 -1.407 0.33
12.782 11.85 -1.401 0.38
12.753 11.898 -1.402 0.3
12.659 11.885 -1.395 0.39
12.621 11.924 -1.395 0.32
12.512 11.895 -1.386 0.28
12.431 11.856 -1.378 0.38
12.365 11.868 -1.374 0.3
12.292 11.872 -1.37 0.39
12.226 11.883 -1.366 0.3
12.158 11.892 -1.362 0.38
12.094 11.903 -1.359 0.28
12.071 11.955 -1.361 0.37
12.008 11.931 -1.355 0.28
11.97 11.969 -1.355 0.38
11.92 11.993 -1.353 0.36
11.844 11.993 -1.348 0.33
11.849 12.072 -1.354 0.39
11.761 12.058 -1.347 0.27
11.7 12.072 -1.344 0.38
11.598 12.005 -1.333 0.28
11.53 12.01 -1.329 0.35
11.48 12.033 -1.328 0.37
11.365 11.988 -1.317 0.27
11.256 11.948 -1.308 0.34
11.194 11.958 -1.304 0.33
11.135 11.969 -1.302 0.38
11.09 11.959 -1.298 0.3
10.989 11.925 -1.289 0.39
10.941 11.948 -1.288 0.27
10.91 11.99 -1.289 0.36
10.847 11.996 -1.285 0.31
10.838 12.062 -1.289 0.36
10.725 12.012 -1.279 0.3
10.752 12.081 -1.285 0.29
10.655 12.047 -1.277 0.39
10.575 12.033 -1.271 0.34
10.571 12.105 -1.276 0.26
10.45 12.044 -1.265 0.42
10.417 12.081 -1.265 0.34
10.41 12.15 -1.27 0.22
10.324 12.126 -1.263 0.48
10.307 12.146 -1.263 0.29
10.193 12.088 -1.252 0.34
10.049 11.994 -1.237 0.3
10.034 12.053 -1.24 0.29
10.038 12.135 -1.246 0.46
9.95 12.106 -1.239 0.25
9.79 11.988 -1.222 0.38
9.869 12.124 -1.236 0.3
9.8 12.116 -1.231 0.38
9.8 12.195 -1.237 0.27
9.778 12.246 -1.239 0.47
9.794 12.345 -1.247 0.22
9.676 12.276 -1.236 0.27
9.629 12.295 -1.234 0.51
9.532 12.211 -1.223 0.21
9.554 12.318 -1.232 0.39
9.514 12.347 -1.232 0.29
9.455 12.35 -1.229 0.33
9.285 12.208 -1.209 0.35
9.273 12.272 -1.213 0.32
9.151 12.19 -1.2 0.32
9.163 12.246 -1.205 0.25
9.056 12.184 -1.194 0.35
9.144 12.382 -1.214 0.2
9.008 12.279 -1.199 0.47
8.887 12.194 -1.186 0.33
8.791 12.143 -1.177 0.33
8.802 12.239 -1.185 0.27
8.824 12.35 -1.194 0.35
8.762 12.304 -1.187 0.28
8.76 12.384 -1.193 0.32
8.707 12.392 -1.191 0.29
8.657 12.403 -1.189 0.47
8.643 12.466 -1.193 0.25
8.565 12.437 -1.187 0.38
8.528 12.467 -1.187 0.37
8.545 12.533 -1.193 0.3
8.39 12.39 -1.174 0.34
8.307 12.352 -1.167 0.29
8.238 12.332 -1.162 0.3
8.203 12.364 -1.163 0.31
8.158 12.38 -1.162 0.3
8.096 12.371 -1.158 0.35
8.05 12.344 -1.153 0.32
8.012 12.37 -1.154 0.3
7.98 12.406 -1.155 0.23
7.904 12.374 -1.149 0.34
7.955 12.539 -1.164 0.28
7.796 12.374 -1.143 0.18
8.345 13.335 -1.245 0.48
8.057 12.922 -1.199 0.18
7.739 12.501 -1.15 0.27
7.673 12.481 -1.146 0.3
7.623 12.488 -1.144 0.35
7.593 12.527 -1.145 0.39
7.574 12.585 -1.149 0.31
7.548 12.631 -1.151 0.33
7.41 12.535 -1.137 0.53
9.569 16.288 -1.535 0.12
7.341 12.598 -1.139 0.3
7.282 12.587 -1.136 0.37
7.27 12.658 -1.141 0.28
7.61 13.344 -1.211 0.32
7.55 13.337 -1.208 0.19
7.364 13.056 -1.177 0.2
7.281 13.005 -1.169 0.54
7.437 13.38 -1.206 0.23
8.984 16.273 -1.507 0.21
7.184 13.12 -1.174 0.32
7.043 12.96 -1.155 0.3
7.033 13.039 -1.161 0.25
8.747 16.264 -1.496 0.25
9.188 17.21 -1.592 0.2
9.12 17.214 -1.589 0.37
8.567 16.296 -1.491 0.17
8.456 16.209 -1.479 0.54
9.371 18.094 -1.672 0.22
8.892 17.306 -1.587 0.24
8.322 16.262 -1.478 0.28
8.811 17.347 -1.587 0.3
8.752 17.366 -1.586 0.47
8.177 16.358 -1.48 0.19
8.083 16.298 -1.471 0.2
8.638 17.55 -1.597 0.45
8.507 17.423 -1.581 0.38
7.916 16.28 -1.463 0.21
7.86 16.296 -1.462 0.38
8.298 17.338 -1.566 0.26
8.426 17.747 -1.605 0.39
7.668 16.288 -1.454 0.22
7.593 16.262 -1.449 0.36
8.177 17.651 -1.587 0.18
7.475 16.275 -1.445 0.25
7.453 16.294 -1.446 0.16
7.403 16.321 -1.446 0.41
7.362 16.367 -1.449 0.24
7.272 16.303 -1.44 0.37
8.709 19.677 -1.777 0.14
7.153 16.312 -1.436 0.51
8.576 19.711 -1.775 0.21
7.052 16.289 -1.43 0.29
6.993 16.295 -1.429 0.26
6.944 16.32 -1.429 0.25
6.89 16.336 -1.429 0.38
6.842 16.365 -1.429 0.27
6.784 16.372 -1.428 0.32
8.114 19.742 -1.761 0.19
8.086 19.762 -1.762 0.48
6.642 16.392 -1.425 0.26
6.57 16.361 -1.419 0.23
7.88 19.788 -1.757 0.29
7.91 20.046 -1.78 0.19
7.741 19.8 -1.753 0.15
5.065 13.101 -1.09 0.15
7.606 19.822 -1.75 0.35
7.575 19.836 -1.751 0.25
4.855 12.859 -1.062 0.28
4.807 12.855 -1.061 0.27
4.772 12.883 -1.062 0.37
4.74 12.923 -1.064 0.29
4.726 13.009 -1.071 0.29
4.673 12.992 -1.068 0.28
4.648 12.986 -1.067 0.38
4.594 12.963 -1.063 0.31
4.574 13.037 -1.069 0.25
4.546 13.087 -1.072 0.31
4.465 12.987 -1.061 0.3
4.3 12.637 -1.026 0.26
4.325 12.843 -1.045 0.25
4.411 13.165 -1.075 0.32
4.348 13.112 -1.069 0.29
4.291 13.079 -1.064 0.36
4.226 13.018 -1.057 0.3
4.185 13.033 -1.057 0.24
4.174 13.139 -1.066 0.29
4.13 13.143 -1.065 0.28
4.122 13.189 -1.069 0.38
3.82 12.366 -0.989 0.15
4.03 13.187 -1.066 0.51
3.821 12.647 -1.013 0.17
3.752 12.563 -1.004 0.33
3.75 12.699 -1.016 0.13
3.687 12.634 -1.009 0.5
3.661 12.619 -1.007 0.21
3.636 12.682 -1.012 0.24
3.911 13.795 -1.117 0.21
4.573 16.306 -1.356 0.23
4.513 16.29 -1.353 0.15
5.508 20.106 -1.715 0.16
5.446 20.127 -1.715 0.47
3.31 12.504 -0.988 0.19
3.337 12.764 -1.012 0.18
5.215 20.149 -1.712 0.27
5.151 20.161 -1.712 0.27
4.108 16.315 -1.345 0.25
3.244 13.078 -1.037 0.27
3.163 12.925 -1.022 0.3
3.116 12.822 -1.012 0.27
3.059 12.764 -1.005 0.16
3.024 12.795 -1.007 0.5
2.972 12.754 -1.003 0.2
4.668 20.25 -1.709 0.34
2.96 13.069 -1.031 0.17
2.863 12.832 -1.007 0.32
2.84 12.823 -1.006 0.2
2.794 12.804 -1.004 0.48
2.691 12.523 -0.976 0.21
2.733 12.915 -1.012 0.3
2.641 12.676 -0.989 0.23
2.631 12.831 -1.003 0.3
2.574 12.757 -0.995 0.31
2.582 13.005 -1.018 0.26
2.555 12.976 -1.015 0.29
2.497 12.896 -1.006 0.35
2.437 12.8 -0.997 0.29
2.47 13.195 -1.033 0.19
2.467 13.412 -1.052 0.3
2.333 12.916 -1.005 0.34
2.283 12.871 -1.0 0.29
2.257 12.839 -0.997 0.33
2.215 12.838 -0.996 0.36
2.18 12.876 -0.999 0.36
2.14 12.885 -1.0 0.32
2.098 12.884 -0.999 0.41
2.058 12.893 -0.999 0.3
2.02 12.917 -1.001 0.32
2.004 12.949 -1.003 0.39
1.972 13.009 -1.008 0.16
1.945 13.111 -1.017 0.5
2.727 18.705 -1.536 0.23
2.925 20.5 -1.702 0.21
2.265 16.281 -1.31 0.23
2.798 20.534 -1.704 0.21
2.768 20.554 -1.705 0.6
2.397 18.252 -1.491 0.17
2.084 16.289 -1.308 0.36
2.03 16.268 -1.306 0.35
2.219 18.712 -1.531 0.55
2.156 18.678 -1.527 0.16
1.849 16.277 -1.305 0.32
1.8 16.297 -1.306 0.3
1.756 16.367 -1.312 0.29
2.152 20.613 -1.704 0.29
1.644 16.291 -1.304 0.34
1.589 16.264 -1.301 0.21
1.959 20.643 -1.705 0.33
1.897 20.684 -1.708 0.28
1.861 20.652 -1.705 0.63
1.412 16.297 -1.302 0.34
1.359 16.283 -1.301 0.2
1.669 20.692 -1.707 0.33
1.608 20.755 -1.712 0.56
1.206 16.301 -1.301 0.2
1.153 16.283 -1.299 0.22
1.442 20.719 -1.708 0.36
1.379 20.759 -1.711 0.32
1.317 20.813 -1.716 0.65
0.973 16.271 -1.297 0.28
0.924 16.312 -1.301 0.14
1.118 20.777 -1.711 0.46
1.054 20.798 -1.713 0.29
1.02 20.78 -1.711 0.58
0.742 16.281 -1.297 0.24
0.891 20.808 -1.713 0.29
0.826 20.819 -1.714 0.39
0.761 20.851 -1.717 0.6
0.695 20.827 -1.714 0.23
0.564 20.841 -1.715 0.45
0.532 20.876 -1.718 0.3
0.468 20.909 -1.721 0.63
0.308 16.297 -1.297 0.29
0.27 20.907 -1.721 0.61
0.201 20.529 -1.686 0.18
0.139 20.894 -1.719 0.32
0.077 16.304 -1.298 0.34
0.036 19.562 -1.597 0.16
-0.025 19.682 -1.608 0.19
-0.128 16.357 -1.302 0.3
-0.179 16.307 -1.298 0.39
-0.234 16.611 -1.326 0.23
-0.289 16.805 -1.344 0.25
-0.316 16.823 -1.345 0.35
-0.359 16.336 -1.301 0.32
-0.412 16.392 -1.306 0.39
-0.468 16.56 -1.322 0.29
-0.519 16.533 -1.319 0.24
-0.57 16.499 -1.316 0.27
-0.59 16.345 -1.302 0.39
-0.643 16.367 -1.304 0.23
-0.698 16.457 -1.313 0.15
-0.747 16.397 -1.308 0.49
-0.799 16.406 -1.309 0.27
-0.848 16.362 -1.305 0.45
-0.917 16.689 -1.335 0.23
-0.936 16.554 -1.323 0.37
-0.99 16.577 -1.325 0.3
-1.032 16.409 -1.31 0.3
-1.081 16.364 -1.306 0.36
-1.144 16.541 -1.323 0.28
-1.201 16.611 -1.33 0.35
-1.255 16.631 -1.332 0.23
-1.289 16.383 -1.309 0.43
-1.316 16.401 -1.311 0.2
-1.38 16.545 -1.325 0.29
-1.436 16.587 -1.329 0.43
-1.476 16.449 -1.317 0.3
-1.52 16.355 -1.309 0.4
-1.89 19.723 -1.62 0.22
-1.943 19.632 -1.612 0.18
-1.71 16.969 -1.367 0.14
-1.704 16.381 -1.313 0.39
-1.768 16.492 -1.324 0.38
-2.145 19.484 -1.601 0.27
-1.89 16.651 -1.339 0.15
-1.915 16.408 -1.317 0.38
-1.921 16.016 -1.282 0.25
-1.947 16.023 -1.283 0.24
-1.998 16.021 -1.283 0.57
-2.047 15.998 -1.281 0.3
-2.098 16.002 -1.282 0.19
-2.15 16.005 -1.283 0.3
-2.202 16.01 -1.284 0.38
-2.253 16.013 -1.285 0.17
-2.305 16.017 -1.286 0.51
-2.331 16.016 -1.287 0.29
-2.379 15.999 -1.286 0.38
-2.435 16.026 -1.289 0.14
-2.465 15.889 -1.277 0.38
-2.536 16.011 -1.289 0.15
-2.587 16.009 -1.289 0.2
-2.639 16.01 -1.29 0.31
-2.666 16.016 -1.291 0.55
-2.834 16.709 -1.357 0.21
-2.831 16.38 -1.327 0.42
-2.948 16.744 -1.362 0.18
-3.017 16.826 -1.37 0.46
-3.087 16.913 -1.379 0.2
-3.043 16.378 -1.33 0.31
-3.107 16.433 -1.336 0.46
-3.169 16.62 -1.354 0.26
-3.296 16.997 -1.39 0.14
-3.233 16.393 -1.335 0.39
-3.292 16.419 -1.338 0.3
-3.456 16.967 -1.391 0.32
-3.494 16.882 -1.384 0.37
-3.461 16.46 -1.345 0.27
-3.476 16.4 -1.34 0.35
