# .PCD v.7 - Point Cloud Data file format
VERSION .7
FIELDS x y z intensity
SIZE 4 4 4 4
TYPE F F F F
COUNT 1 1 1 1
WIDTH 1897
HEIGHT 1
VIEWPOINT 0 0 0 1 0 0 0
POINTS 1897
DATA ascii
12.244 0.952 -1.54 0.08
12.233 0.99 -1.539 0.08
12.231 1.029 -1.539 0.14
12.23 1.067 -1.54 0.09
12.213 1.105 -1.538 0.09
12.217 1.124 -1.539 0.15
12.213 1.163 -1.539 0.09
12.202 1.2 -1.537 0.14
12.212 1.24 -1.539 0.12
12.176 1.275 -1.535 0.3
12.178 1.314 -1.536 0.3
12.162 1.351 -1.534 0.21
12.142 1.368 -1.532 0.47
12.15 1.408 -1.533 0.27
12.126 1.444 -1.53 0.11
12.117 1.481 -1.53 0.16
12.12 1.52 -1.531 0.29
12.119 1.559 -1.532 0.26
12.114 1.597 -1.532 0.26
12.114 1.616 -1.532 0.2
12.101 1.653 -1.531 0.18
12.076 1.688 -1.528 0.12
12.084 1.728 -1.53 0.17
12.089 1.768 -1.531 0.28
12.093 1.807 -1.533 0.2
12.073 1.843 -1.531 0.18
12.068 1.881 -1.531 0.12
12.072 1.901 -1.532 0.17
12.066 1.939 -1.532 0.29
12.043 1.974 -1.529 0.11
12.046 2.013 -1.531 0.16
12.053 2.054 -1.533 0.29
12.037 2.09 -1.531 0.11
12.036 2.129 -1.532 0.16
12.045 2.15 -1.534 0.28
12.046 2.189 -1.535 0.27
12.031 2.225 -1.534 0.26
12.01 2.26 -1.532 0.1
12.013 2.3 -1.533 0.16
12.009 2.338 -1.534 0.29
12.0 2.376 -1.534 0.19
11.985 2.392 -1.532 0.18
11.971 2.429 -1.531 0.12
11.969 2.468 -1.532 0.17
11.96 2.505 -1.532 0.12
11.954 2.543 -1.532 0.16
11.957 2.583 -1.534 0.3
11.943 2.619 -1.533 0.2
11.943 2.639 -1.533 0.18
11.921 2.673 -1.531 0.3
11.92 2.712 -1.532 0.2
11.9 2.747 -1.531 0.18
11.905 2.788 -1.533 0.3
11.896 2.825 -1.533 0.27
11.891 2.863 -1.533 0.21
11.881 2.881 -1.532 0.18
11.868 2.917 -1.532 0.31
11.855 2.953 -1.531 0.2
11.851 2.992 -1.532 0.18
11.848 3.031 -1.533 0.31
11.848 3.07 -1.534 0.2
11.849 3.111 -1.536 0.17
11.825 3.124 -1.533 0.13
11.817 3.162 -1.534 0.17
11.809 3.199 -1.534 0.28
11.807 3.239 -1.535 0.18
11.793 3.275 -1.534 0.18
11.796 3.315 -1.536 0.18
11.772 3.349 -1.534 0.12
11.769 3.388 -1.535 0.17
11.762 3.406 -1.535 0.12
11.764 3.446 -1.537 0.16
11.752 3.483 -1.537 0.27
11.727 3.516 -1.535 0.11
11.724 3.555 -1.536 0.17
11.716 3.593 -1.537 0.12
11.699 3.628 -1.536 0.16
11.695 3.647 -1.536 0.28
11.697 3.688 -1.538 0.11
11.686 3.724 -1.538 0.17
11.679 3.763 -1.539 0.28
11.664 3.798 -1.538 0.19
11.642 3.832 -1.537 0.18
11.642 3.852 -1.538 0.19
11.639 3.892 -1.539 0.31
11.625 3.928 -1.539 0.2
11.611 3.964 -1.539 0.18
11.589 3.997 -1.537 0.21
11.588 4.037 -1.539 0.18
11.573 4.073 -1.539 0.32
11.574 4.094 -1.54 0.21
11.557 4.129 -1.539 0.18
11.537 4.162 -1.538 0.15
11.514 4.195 -1.537 0.37
11.497 4.23 -1.536 0.32
11.486 4.267 -1.536 0.31
11.474 4.303 -1.537 0.32
11.466 4.342 -1.537 0.31
11.467 4.362 -1.539 0.2
11.394 4.376 -1.53 0.53
11.449 4.438 -1.54 0.21
11.457 4.482 -1.543 0.32
11.446 4.52 -1.544 0.2
11.449 4.562 -1.546 0.16
11.427 4.595 -1.545 0.13
11.436 4.62 -1.548 0.17
11.434 4.661 -1.55 0.29
11.429 4.701 -1.551 0.2
11.418 4.738 -1.552 0.17
11.408 4.776 -1.553 0.17
11.413 4.82 -1.556 0.16
11.404 4.859 -1.557 0.18
11.403 4.88 -1.558 0.17
11.397 4.919 -1.559 0.09
11.396 4.961 -1.561 0.15
11.397 5.004 -1.564 0.1
11.399 5.048 -1.567 0.14
11.383 5.084 -1.567 0.09
11.385 5.128 -1.569 0.09
11.388 5.15 -1.571 0.14
11.386 5.193 -1.573 0.09
11.373 5.23 -1.574 0.09
11.366 5.27 -1.575 0.08
11.364 5.312 -1.578 0.08
11.359 5.354 -1.58 0.13
11.35 5.393 -1.581 0.1
11.366 5.423 -1.585 0.14
11.337 5.452 -1.583 0.09
11.339 5.497 -1.586 0.14
11.336 5.54 -1.588 0.09
11.333 5.582 -1.59 0.15
11.338 5.629 -1.594 0.16
11.317 5.663 -1.593 0.1
11.319 5.686 -1.595 0.16
11.32 5.732 -1.598 0.17
11.316 5.774 -1.6 0.1
11.317 5.82 -1.603 0.16
11.313 5.863 -1.606 0.16
11.305 5.904 -1.607 0.16
11.302 5.947 -1.61 0.17
11.307 5.972 -1.612 0.16
11.29 6.009 -1.612 0.16
11.297 6.058 -1.617 0.17
11.283 6.097 -1.617 0.16
11.287 6.144 -1.621 0.17
11.287 6.19 -1.624 0.16
11.279 6.232 -1.626 0.16
11.282 6.257 -1.628 0.23
11.274 6.299 -1.63 0.11
11.268 6.342 -1.632 0.15
11.262 6.385 -1.634 0.16
11.243 6.421 -1.635 0.1
11.227 6.459 -1.635 0.0
11.23 6.508 -1.639 0.13
11.22 6.525 -1.639 0.09
11.242 6.586 -1.646 0.0
11.194 6.605 -1.642 0.0
11.182 6.741 -1.65 0.08
11.17 6.781 -1.652 0.09
11.178 6.81 -1.655 0.08
11.156 6.845 -1.655 0.08
11.153 6.891 -1.658 0.09
11.148 6.937 -1.661 0.09
11.128 6.973 -1.661 0.08
11.13 7.022 -1.665 0.14
11.107 7.057 -1.665 0.1
11.118 7.088 -1.668 0.14
11.106 7.13 -1.67 0.1
11.098 7.174 -1.673 0.14
11.096 7.222 -1.676 0.23
11.086 7.265 -1.678 0.25
11.068 7.304 -1.679 0.25
11.06 7.348 -1.682 0.25
11.057 7.371 -1.683 0.24
11.047 7.414 -1.685 0.24
11.037 7.458 -1.687 0.25
11.039 7.51 -1.692 0.26
11.034 7.557 -1.695 0.27
11.015 7.595 -1.696 0.25
10.996 7.633 -1.697 0.26
11.008 7.667 -1.701 0.26
10.994 7.709 -1.703 0.25
10.982 7.752 -1.705 0.26
10.973 7.797 -1.707 0.26
10.958 7.838 -1.709 0.27
10.951 7.886 -1.712 0.27
10.928 7.921 -1.712 0.11
10.925 7.972 -1.716 0.16
10.916 7.991 -1.717 0.12
10.914 8.043 -1.721 0.16
10.894 8.081 -1.722 0.12
10.889 8.13 -1.726 0.16
10.883 8.179 -1.729 0.28
10.869 8.222 -1.731 0.2
10.858 8.267 -1.734 0.16
10.857 8.294 -1.736 0.32
10.833 8.329 -1.736 0.2
10.835 8.385 -1.741 0.16
10.807 8.418 -1.741 0.32
10.791 8.46 -1.743 0.21
10.78 8.506 -1.746 0.19
10.772 8.555 -1.749 0.29
10.76 8.573 -1.749 0.19
10.756 8.625 -1.754 0.18
10.722 8.653 -1.752 0.13
10.707 8.696 -1.754 0.17
10.699 8.746 -1.758 0.29
10.684 8.79 -1.76 0.2
10.67 8.807 -1.76 0.18
10.659 8.854 -1.763 0.3
10.644 8.898 -1.766 0.2
10.626 8.94 -1.768 0.18
10.606 8.98 -1.769 0.12
10.582 9.017 -1.77 0.18
10.576 9.069 -1.774 0.21
10.554 9.108 -1.775 0.18
10.563 9.145 -1.78 0.21
10.53 9.174 -1.779 0.18
10.52 9.224 -1.782 0.3
10.502 9.266 -1.784 0.2
10.492 9.316 -1.788 0.17
10.472 9.357 -1.79 0.31
10.46 9.406 -1.793 0.2
10.449 9.426 -1.794 0.18
10.454 9.489 -1.8 0.22
10.451 9.548 -1.806 0.17
10.446 9.603 -1.811 0.32
10.467 9.683 -1.82 0.26
10.516 9.79 -1.836 0.27
10.529 9.863 -1.844 0.2
10.528 9.893 -1.847 0.19
10.526 9.953 -1.853 0.22
10.512 10.003 -1.856 0.18
10.487 10.043 -1.857 0.12
10.467 10.087 -1.86 0.18
10.462 10.146 -1.865 0.21
10.336 10.15 -1.853 0.36
10.32 10.166 -1.853 0.16
10.304 10.214 -1.856 0.52
10.27 10.245 -1.855 0.26
10.223 10.262 -1.852 0.3
10.172 10.276 -1.849 0.47
10.12 10.288 -1.845 0.28
10.07 10.301 -1.841 0.31
10.012 10.274 -1.833 0.23
9.965 10.29 -1.83 0.36
9.892 10.28 -1.821 0.3
9.833 10.283 -1.816 0.27
9.791 10.303 -1.814 0.26
9.717 10.291 -1.805 0.18
9.682 10.286 -1.802 0.46
9.639 10.305 -1.799 0.25
9.617 10.347 -1.802 0.18
9.589 10.381 -1.802 0.39
9.558 10.413 -1.803 0.23
9.518 10.435 -1.801 0.26
9.503 10.484 -1.805 0.2
9.486 10.499 -1.805 0.4
9.456 10.532 -1.805 0.24
9.429 10.569 -1.807 0.2
9.326 10.52 -1.792 0.26
9.361 10.627 -1.807 0.41
9.34 10.669 -1.809 0.23
9.277 10.666 -1.803 0.16
9.185 10.628 -1.79 0.35
9.139 10.608 -1.784 0.32
9.097 10.626 -1.782 0.45
9.18 10.791 -1.807 0.16
9.146 10.82 -1.807 0.18
9.11 10.846 -1.807 0.29
9.075 10.874 -1.807 0.2
9.044 10.906 -1.807 0.21
9.033 10.928 -1.809 0.21
8.991 10.947 -1.807 0.18
8.969 10.99 -1.81 0.15
8.916 10.995 -1.806 0.13
8.876 11.017 -1.805 0.17
8.844 11.048 -1.805 0.28
8.804 11.07 -1.804 0.25
8.785 11.08 -1.804 0.26
8.751 11.109 -1.804 0.25
8.712 11.132 -1.803 0.11
8.677 11.159 -1.803 0.15
8.649 11.196 -1.805 0.27
8.614 11.223 -1.805 0.21
8.573 11.242 -1.803 0.16
8.546 11.243 -1.801 0.1
8.522 11.286 -1.804 0.15
8.48 11.303 -1.802 0.29
8.446 11.333 -1.803 0.26
8.405 11.351 -1.801 0.11
8.375 11.386 -1.803 0.15
8.335 11.405 -1.802 0.3
8.308 11.444 -1.804 0.2
8.277 11.44 -1.801 0.32
8.251 11.479 -1.803 0.19
8.212 11.501 -1.802 0.36
8.178 11.53 -1.803 0.19
8.141 11.554 -1.803 0.35
8.109 11.586 -1.804 0.19
8.069 11.607 -1.803 0.35
8.054 11.624 -1.804 0.22
8.023 11.658 -1.805 0.22
7.968 11.655 -1.8 0.28
7.889 11.618 -1.79 0.41
7.903 11.718 -1.803 0.39
7.871 11.749 -1.804 0.31
7.823 11.758 -1.801 0.28
7.78 11.734 -1.795 0.27
7.755 11.776 -1.798 0.31
7.694 11.764 -1.792 0.39
7.65 11.777 -1.79 0.45
7.618 11.809 -1.791 0.34
7.534 11.759 -1.779 0.34
7.446 11.703 -1.765 0.32
7.459 11.765 -1.774 0.34
7.399 11.751 -1.768 0.36
7.345 11.748 -1.763 0.29
7.329 11.804 -1.769 0.49
7.238 11.74 -1.754 0.3
7.147 11.675 -1.74 0.35
7.156 11.771 -1.752 0.35
7.172 11.84 -1.761 0.34
7.154 11.895 -1.767 0.38
7.084 11.863 -1.758 0.4
6.997 11.802 -1.744 0.34
6.978 11.854 -1.749 0.3
6.923 11.845 -1.744 0.36
6.899 11.889 -1.748 0.39
6.834 11.821 -1.735 0.34
6.79 11.831 -1.733 0.3
6.751 11.849 -1.732 0.37
6.686 11.82 -1.724 0.39
6.648 11.841 -1.724 0.34
6.611 11.862 -1.724 0.34
6.569 11.874 -1.723 0.45
6.492 11.821 -1.711 0.36
6.455 11.799 -1.706 0.33
6.45 11.878 -1.715 0.31
6.415 11.903 -1.716 0.45
6.361 11.892 -1.711 0.3
6.31 11.886 -1.707 0.38
6.276 11.913 -1.708 0.43
6.25 11.953 -1.711 0.37
6.225 11.953 -1.71 0.39
6.194 11.984 -1.712 0.4
6.087 11.868 -1.69 0.32
6.094 11.974 -1.704 0.42
5.948 11.781 -1.67 0.38
5.948 11.872 -1.682 0.32
5.961 11.992 -1.698 0.38
5.912 11.941 -1.688 0.35
5.873 11.956 -1.687 0.34
5.808 11.919 -1.679 0.37
5.765 11.925 -1.677 0.3
5.746 11.982 -1.683 0.37
5.724 12.032 -1.688 0.39
5.679 12.036 -1.686 0.38
5.645 12.061 -1.687 0.36
5.611 12.037 -1.682 0.37
5.575 12.06 -1.683 0.29
5.528 12.056 -1.679 0.42
5.569 12.246 -1.706 0.35
5.557 12.323 -1.715 0.36
5.512 12.326 -1.713 0.38
5.484 12.367 -1.717 0.35
5.473 12.395 -1.72 0.38
5.436 12.418 -1.721 0.39
5.397 12.433 -1.721 0.39
5.355 12.445 -1.72 0.38
5.314 12.456 -1.719 0.4
5.294 12.518 -1.726 0.39
5.264 12.557 -1.729 0.28
5.222 12.512 -1.721 0.52
5.189 12.543 -1.723 0.2
5.16 12.587 -1.728 0.5
5.128 12.621 -1.73 0.37
5.091 12.643 -1.731 0.26
5.051 12.659 -1.731 0.49
5.059 12.794 -1.749 0.35
5.03 12.78 -1.746 0.39
5.0 12.821 -1.75 0.34
4.977 12.881 -1.757 0.36
4.959 12.954 -1.765 0.29
4.933 13.009 -1.771 0.47
4.908 13.067 -1.778 0.32
4.862 13.069 -1.776 0.47
5.014 13.54 -1.846 0.23
5.055 13.783 -1.88 0.36
5.02 13.821 -1.883 0.34
4.987 13.865 -1.888 0.28
4.952 13.904 -1.891 0.31
4.911 13.927 -1.892 0.33
4.874 13.963 -1.895 0.31
4.607 13.337 -1.799 0.22
4.772 13.881 -1.88 0.29
4.778 14.041 -1.901 0.15
3.967 11.794 -1.563 0.25
4.015 12.057 -1.601 0.38
4.017 12.192 -1.619 0.33
3.938 12.081 -1.601 0.27
3.872 12.006 -1.588 0.38
3.858 12.026 -1.59 0.35
3.799 11.972 -1.58 0.42
3.772 12.017 -1.585 0.3
3.731 12.02 -1.583 0.3
3.683 11.997 -1.578 0.38
3.592 11.837 -1.553 0.29
3.617 12.053 -1.583 0.43
3.589 12.028 -1.579 0.3
3.5 11.868 -1.553 0.34
3.475 11.919 -1.559 0.3
3.435 11.922 -1.558 0.34
3.409 11.973 -1.564 0.38
3.354 11.923 -1.555 0.39
3.307 11.899 -1.55 0.36
3.301 11.948 -1.557 0.33
3.252 11.916 -1.55 0.32
3.207 11.902 -1.547 0.35
3.177 11.938 -1.551 0.34
3.136 11.933 -1.548 0.3
3.111 11.993 -1.556 0.43
3.068 11.981 -1.553 0.31
3.004 11.887 -1.537 0.44
3.015 12.011 -1.555 0.26
2.976 12.013 -1.554 0.36
2.929 11.985 -1.548 0.35
2.881 11.954 -1.542 0.28
2.844 11.965 -1.543 0.46
2.772 11.825 -1.521 0.29
2.749 11.898 -1.53 0.32
2.727 11.887 -1.528 0.33
2.693 11.909 -1.53 0.38
2.674 11.998 -1.542 0.36
2.617 11.921 -1.53 0.3
2.586 11.961 -1.534 0.34
2.545 11.953 -1.532 0.38
2.525 12.044 -1.544 0.33
2.501 12.021 -1.54 0.29
2.452 11.975 -1.532 0.44
2.392 11.876 -1.517 0.3
2.359 11.903 -1.52 0.36
2.314 11.873 -1.514 0.37
2.278 11.884 -1.515 0.34
2.25 11.94 -1.522 0.37
2.214 11.957 -1.523 0.38
2.196 11.962 -1.523 0.38
2.158 11.967 -1.523 0.36
2.109 11.913 -1.514 0.26
2.081 11.97 -1.522 0.41
2.036 11.936 -1.516 0.35
2.003 11.97 -1.52 0.25
1.967 11.988 -1.521 0.48
1.942 11.948 -1.515 0.36
1.912 12.001 -1.522 0.34
1.863 11.938 -1.512 0.39
1.824 11.932 -1.511 0.29
1.782 11.91 -1.507 0.4
1.738 11.873 -1.5 0.29
1.704 11.9 -1.504 0.36
1.686 11.906 -1.504 0.41
1.646 11.892 -1.501 0.3
1.61 11.909 -1.503 0.31
1.573 11.92 -1.504 0.34
1.535 11.919 -1.503 0.32
1.501 11.951 -1.507 0.42
1.465 11.964 -1.508 0.36
1.445 11.958 -1.507 0.4
1.403 11.923 -1.501 0.25
1.368 11.955 -1.505 0.35
1.33 11.953 -1.504 0.39
1.297 11.995 -1.51 0.36
1.253 11.948 -1.502 0.34
1.222 12.011 -1.511 0.36
1.184 12.012 -1.511 0.36
1.167 12.03 -1.513 0.38
1.127 12.014 -1.51 0.34
1.089 12.013 -1.509 0.39
1.047 11.968 -1.502 0.33
1.009 11.967 -1.502 0.38
0.966 11.907 -1.493 0.35
0.939 12.034 -1.511 0.33
0.918 12.01 -1.507 0.32
0.884 12.07 -1.515 0.38
0.844 12.043 -1.511 0.33
0.808 12.063 -1.513 0.36
0.767 12.03 -1.508 0.32
0.73 12.033 -1.508 0.32
0.691 12.017 -1.506 0.42
0.671 11.997 -1.503 0.37
0.63 11.943 -1.495 0.27
0.596 12.026 -1.506 0.42
0.558 12.014 -1.504 0.41
0.518 11.97 -1.498 0.28
0.481 11.978 -1.499 0.42
0.449 12.122 -1.519 0.29
0.427 12.037 -1.507 0.28
0.389 12.043 -1.507 0.47
0.35 12.004 -1.502 0.29
0.313 12.041 -1.507 0.29
0.276 12.085 -1.513 0.39
0.237 12.041 -1.507 0.32
0.201 12.101 -1.515 0.38
0.162 12.079 -1.512 0.41
0.143 12.068 -1.51 0.26
0.106 12.102 -1.515 0.45
0.068 12.154 -1.522 0.29
0.029 11.934 -1.491 0.36
-0.009 11.972 -1.497 0.29
-0.046 12.051 -1.508 0.35
-0.084 12.078 -1.512 0.36
-0.103 12.09 -1.513 0.36
-0.142 12.102 -1.515 0.33
-0.179 12.059 -1.509 0.41
-0.217 12.055 -1.509 0.28
-0.256 12.11 -1.516 0.35
-0.294 12.111 -1.517 0.33
-0.332 12.11 -1.517 0.32
-0.349 12.05 -1.508 0.18
-0.39 12.148 -1.522 0.5
-0.428 12.14 -1.521 0.37
-0.468 12.198 -1.53 0.38
-0.502 12.068 -1.512 0.27
-0.543 12.142 -1.522 0.38
-0.58 12.114 -1.519 0.34
-0.602 12.179 -1.528 0.35
-0.639 12.161 -1.526 0.24
-0.679 12.186 -1.53 0.44
-0.714 12.127 -1.521 0.44
-0.754 12.154 -1.526 0.29
-0.794 12.185 -1.53 0.34
-0.833 12.197 -1.532 0.32
-0.87 12.164 -1.528 0.36
-0.884 12.096 -1.519 0.36
-0.924 12.125 -1.523 0.36
-0.964 12.145 -1.527 0.3
-1.007 12.201 -1.535 0.33
-1.04 12.139 -1.527 0.36
-1.085 12.213 -1.537 0.22
-1.114 12.101 -1.522 0.51
-1.135 12.123 -1.525 0.29
-1.171 12.091 -1.521 0.32
-1.213 12.131 -1.528 0.29
-1.248 12.096 -1.523 0.27
-1.286 12.092 -1.523 0.49
-1.325 12.095 -1.524 0.36
-1.384 12.29 -1.553 0.25
-1.392 12.183 -1.538 0.44
-1.433 12.205 -1.541 0.26
-1.456 12.07 -1.523 0.33
-1.492 12.044 -1.52 0.27
-1.533 12.069 -1.524 0.43
-1.574 12.091 -1.528 0.35
-1.611 12.075 -1.526 0.32
-1.649 12.068 -1.526 0.4
-1.67 12.085 -1.529 0.36
-1.713 12.115 -1.534 0.33
-1.753 12.123 -1.536 0.32
-1.792 12.123 -1.537 0.32
-1.828 12.102 -1.534 0.4
-1.869 12.116 -1.537 0.31
-1.92 12.192 -1.549 0.34
-1.945 12.23 -1.555 0.27
-1.979 12.198 -1.551 0.36
-2.012 12.157 -1.546 0.49
-2.062 12.221 -1.556 0.24
-2.097 12.193 -1.553 0.3
-2.103 12.003 -1.527 0.43
-2.163 12.121 -1.545 0.31
-2.192 12.172 -1.553 0.26
-2.235 12.194 -1.557 0.36
-2.282 12.232 -1.563 0.32
-2.314 12.194 -1.559 0.42
-2.339 12.114 -1.548 0.35
-2.395 12.2 -1.562 0.36
-2.434 12.196 -1.562 0.3
-2.457 12.212 -1.565 0.31
-2.498 12.216 -1.567 0.45
-2.539 12.22 -1.569 0.31
-2.568 12.171 -1.563 0.29
-2.606 12.159 -1.562 0.38
-2.634 12.106 -1.556 0.35
-2.654 12.015 -1.544 0.24
-2.716 12.113 -1.559 0.49
-2.723 12.058 -1.552 0.26
-2.775 12.111 -1.561 0.25
-2.812 12.099 -1.56 0.49
-2.849 12.084 -1.559 0.3
-2.898 12.123 -1.566 0.36
-2.919 12.041 -1.556 0.35
-2.972 12.095 -1.565 0.33
-2.995 12.108 -1.567 0.35
-3.007 11.992 -1.552 0.32
-3.062 12.052 -1.562 0.27
-3.118 12.113 -1.572 0.4
-3.149 12.075 -1.568 0.3
-3.191 12.082 -1.571 0.35
-3.226 12.059 -1.569 0.37
-3.242 12.044 -1.567 0.33
-3.304 12.124 -1.581 0.35
-3.345 12.125 -1.582 0.32
-3.374 12.082 -1.578 0.42
-3.422 12.103 -1.582 0.31
-3.455 12.075 -1.58 0.28
-3.517 12.148 -1.592 0.36
-3.541 12.162 -1.595 0.42
-3.559 12.082 -1.585 0.24
-3.613 12.122 -1.592 0.44
-3.645 12.092 -1.59 0.36
-3.695 12.12 -1.595 0.36
-3.723 12.074 -1.59 0.4
-3.748 12.023 -1.585 0.34
-3.82 12.119 -1.601 0.31
-3.829 12.082 -1.596 0.36
-3.853 12.025 -1.589 0.38
-3.903 12.051 -1.595 0.33
-3.937 12.027 -1.593 0.33
-3.986 12.05 -1.599 0.33
-4.026 12.043 -1.599 0.36
-4.059 12.016 -1.597 0.39
-4.102 12.081 -1.608 0.3
-4.166 12.146 -1.62 0.41
-4.215 12.163 -1.624 0.29
-4.231 12.086 -1.615 0.33
-4.257 12.039 -1.61 0.38
-4.282 11.988 -1.604 0.3
-4.357 12.081 -1.62 0.38
-4.392 12.058 -1.618 0.36
-4.42 12.077 -1.622 0.38
-4.433 11.995 -1.612 0.32
-4.458 11.945 -1.607 0.3
-4.559 12.102 -1.632 0.4
-4.61 12.123 -1.638 0.36
-4.653 12.119 -1.64 0.36
-4.684 12.088 -1.637 0.33
-4.704 12.082 -1.637 0.29
-4.743 12.071 -1.638 0.38
-4.781 12.056 -1.638 0.39
-4.837 12.085 -1.645 0.38
-4.875 12.072 -1.645 0.3
-4.912 12.053 -1.644 0.39
-4.933 11.997 -1.638 0.32
-4.98 12.057 -1.648 0.27
-5.041 12.098 -1.657 0.42
-5.087 12.1 -1.66 0.29
-5.108 12.044 -1.654 0.42
-5.166 12.077 -1.661 0.36
-5.204 12.061 -1.661 0.34
-5.234 12.025 -1.658 0.45
-5.278 12.025 -1.661 0.29
-5.298 12.018 -1.661 0.36
-5.332 11.992 -1.66 0.4
-5.386 12.012 -1.665 0.36
-5.418 11.982 -1.663 0.3
-5.406 11.857 -1.647 0.44
-5.476 11.912 -1.658 0.34
-5.523 11.914 -1.661 0.31
-5.611 12.055 -1.684 0.32
-5.649 12.039 -1.684 0.32
-5.685 12.017 -1.684 0.34
-5.695 11.94 -1.675 0.39
-5.753 11.965 -1.681 0.3
-5.859 12.088 -1.703 0.37
-5.893 12.063 -1.702 0.38
-5.913 12.055 -1.703 0.29
-5.969 12.074 -1.708 0.36
-6.027 12.096 -1.715 0.31
-6.11 12.167 -1.729 0.38
-6.105 12.061 -1.715 0.34
-6.206 12.167 -1.735 0.3
-6.221 12.102 -1.728 0.46
-6.102 11.778 -1.68 0.34
-6.21 11.941 -1.707 0.32
-6.321 12.061 -1.729 0.3
-6.394 12.11 -1.74 0.38
-6.447 12.118 -1.745 0.36
-6.437 12.007 -1.73 0.39
-6.515 12.061 -1.742 0.29
-6.591 12.112 -1.754 0.43
-6.578 12.043 -1.744 0.37
-6.627 12.041 -1.747 0.37
-6.676 12.041 -1.751 0.38
-6.727 12.044 -1.755 0.38
-6.766 12.025 -1.755 0.34
-6.792 11.983 -1.752 0.38
-6.851 11.999 -1.758 0.36
-6.868 11.985 -1.757 0.41
-6.87 11.901 -1.747 0.29
-6.927 11.914 -1.753 0.43
-6.992 11.938 -1.76 0.3
-7.074 11.993 -1.773 0.37
-7.131 12.003 -1.778 0.42
-7.168 11.979 -1.778 0.37
-7.215 12.016 -1.786 0.21
-7.27 12.022 -1.791 0.54
-7.291 11.972 -1.786 0.29
-7.356 11.993 -1.793 0.38
-7.356 11.909 -1.783 0.45
-7.479 12.024 -1.806 0.33
-7.474 11.931 -1.795 0.39
-7.477 11.854 -1.786 0.32
-7.584 11.981 -1.809 0.31
-7.596 11.917 -1.802 0.41
-7.652 11.923 -1.807 0.3
-7.708 11.928 -1.812 0.42
-7.71 11.848 -1.803 0.29
-7.79 11.891 -1.814 0.36
-7.828 11.866 -1.814 0.42
-7.812 11.802 -1.805 0.3
-7.923 11.888 -1.824 0.38
-7.964 11.868 -1.825 0.36
-7.963 11.787 -1.816 0.33
-8.09 11.895 -1.838 0.3
-8.082 11.803 -1.827 0.4
-8.104 11.756 -1.823 0.44
-8.3 11.96 -1.863 0.0
-7.022 10.077 -1.541 0.0
-7.011 9.995 -1.53 0.0
-7.001 9.913 -1.52 0.0
-6.998 9.843 -1.511 0.0
-6.992 9.769 -1.502 0.0
-6.987 9.697 -1.494 0.0
-6.969 9.641 -1.486 0.0
-6.971 9.579 -1.479 0.0
-6.969 9.514 -1.471 0.0
-6.969 9.451 -1.464 0.0
-6.963 9.381 -1.456 0.0
-6.964 9.321 -1.449 0.0
-6.968 9.266 -1.443 0.0
-6.962 9.196 -1.435 0.0
-6.968 9.174 -1.433 0.0
-6.959 9.103 -1.424 0.06
-6.975 9.064 -1.421 0.18
-6.991 9.027 -1.418 0.2
-7.002 8.983 -1.414 0.15
-6.984 8.901 -1.403 0.16
-7.026 8.896 -1.407 0.28
-7.019 8.859 -1.402 0.6
-7.029 8.815 -1.398 0.79
-7.03 8.759 -1.392 0.93
-6.994 8.658 -1.377 0.99
-7.048 8.67 -1.384 0.99
-7.107 8.686 -1.391 0.99
-7.144 8.676 -1.393 0.93
-7.166 8.647 -1.392 0.62
-7.169 8.622 -1.389 0.28
-7.218 8.627 -1.394 0.21
-7.247 8.606 -1.394 0.36
-7.301 8.615 -1.4 0.2
-7.326 8.591 -1.4 0.23
-7.374 8.592 -1.405 0.2
-7.406 8.574 -1.406 0.23
-7.438 8.584 -1.41 0.2
-7.48 8.578 -1.413 0.21
-7.52 8.57 -1.416 0.2
-7.556 8.556 -1.418 0.3
-7.609 8.562 -1.423 0.21
-7.645 8.549 -1.425 0.18
-7.691 8.545 -1.429 0.21
-7.717 8.548 -1.432 0.19
-7.759 8.54 -1.435 0.21
-7.799 8.53 -1.438 0.2
-7.83 8.51 -1.439 0.0
-7.93 8.565 -1.454 0.12
-8.171 8.771 -1.499 0.16
-8.217 8.766 -1.503 0.22
-8.26 8.783 -1.509 0.25
-8.316 8.787 -1.514 0.19
-8.347 8.766 -1.515 0.0
-8.338 8.701 -1.508 0.0
-8.295 8.602 -1.493 0.12
-8.253 8.504 -1.479 0.1
-8.304 8.502 -1.484 0.14
-8.35 8.496 -1.488 0.1
-8.392 8.513 -1.494 0.16
-8.436 8.503 -1.497 0.09
-8.494 8.509 -1.504 0.15
-8.541 8.502 -1.508 0.09
-8.588 8.496 -1.512 0.15
-8.642 8.495 -1.517 0.1
-8.698 8.497 -1.523 0.15
-8.727 8.499 -1.526 0.09
-8.789 8.506 -1.533 0.15
-8.837 8.499 -1.537 0.1
-8.894 8.5 -1.543 0.15
-8.945 8.495 -1.548 0.09
-8.997 8.491 -1.553 0.14
-9.053 8.49 -1.559 0.09
-9.104 8.511 -1.566 0.13
-9.162 8.512 -1.572 0.13
-9.196 8.49 -1.574 0.09
-9.262 8.498 -1.581 0.09
-9.324 8.501 -1.588 0.14
-9.377 8.495 -1.593 0.09
-9.423 8.483 -1.597 0.09
-9.468 8.497 -1.603 0.09
-9.52 8.49 -1.608 0.09
-9.582 8.492 -1.614 0.0
-9.637 8.486 -1.62 0.0
-9.698 8.486 -1.626 0.0
-9.754 8.482 -1.632 0.0
-9.814 8.48 -1.638 0.0
-9.873 8.477 -1.644 0.0
-9.915 8.486 -1.649 0.0
-9.996 8.501 -1.659 0.0
-10.036 8.481 -1.662 0.0
-10.122 8.499 -1.673 0.0
-10.152 8.47 -1.673 0.0
-10.225 8.478 -1.682 0.0
-10.298 8.483 -1.691 0.07
-10.345 8.495 -1.697 0.08
-10.391 8.479 -1.7 0.16
-10.475 8.492 -1.711 0.0
-10.56 8.506 -1.721 0.0
-10.59 8.476 -1.722 0.0
-10.67 8.486 -1.732 0.15
-10.747 8.491 -1.741 0.0
-10.813 8.516 -1.75 0.15
-10.855 8.495 -1.753 0.11
-10.991 8.546 -1.773 0.11
-11.019 8.512 -1.773 0.0
-11.068 8.495 -1.777 0.07
-11.192 8.534 -1.794 0.17
-11.184 8.473 -1.788 0.0
-11.277 8.488 -1.8 0.0
-11.346 8.512 -1.81 0.0
-14.349 10.633 -2.33 0.18
-14.358 10.57 -2.326 0.19
-14.398 10.53 -2.327 0.49
-14.461 10.506 -2.332 0.21
-14.488 10.456 -2.331 0.13
-14.445 10.391 -2.321 0.47
-14.551 10.398 -2.334 0.18
-14.542 10.323 -2.326 0.38
-14.552 10.261 -2.322 0.19
-14.576 10.21 -2.321 0.38
-14.629 10.178 -2.325 0.19
-14.685 10.149 -2.329 0.29
-14.755 10.163 -2.338 0.27
-14.837 10.152 -2.347 0.3
-14.921 10.141 -2.356 0.47
-14.971 10.106 -2.359 0.34
-14.985 10.047 -2.356 0.27
-14.955 9.959 -2.345 0.28
-14.904 9.857 -2.331 0.17
-14.902 9.789 -2.326 0.33
-14.899 9.753 -2.323 0.2
-14.91 9.693 -2.319 0.16
-14.913 9.629 -2.315 0.23
-14.907 9.559 -2.309 0.25
-14.915 9.498 -2.305 0.11
-14.932 9.443 -2.303 0.16
-14.936 9.413 -2.301 0.21
-14.934 9.346 -2.296 0.19
-14.938 9.283 -2.292 0.17
-14.966 9.235 -2.291 0.29
-14.971 9.174 -2.287 0.18
-14.986 9.118 -2.285 0.34
-15.003 9.064 -2.283 0.19
-15.013 9.006 -2.28 0.34
-15.008 8.971 -2.277 0.2
-15.019 8.913 -2.274 0.23
-15.021 8.851 -2.27 0.2
-15.042 8.8 -2.269 0.24
-15.037 8.734 -2.264 0.23
-15.065 8.686 -2.264 0.36
-15.087 8.636 -2.263 0.35
-15.095 8.609 -2.262 0.2
-15.098 8.548 -2.258 0.34
-15.115 8.495 -2.256 0.19
-15.122 8.437 -2.253 0.23
-15.13 8.379 -2.25 0.21
-15.151 8.328 -2.249 0.22
-15.165 8.274 -2.247 0.19
-15.164 8.242 -2.245 0.22
-15.184 8.192 -2.244 0.19
-15.21 8.144 -2.244 0.21
-15.206 8.08 -2.239 0.18
-15.222 8.028 -2.238 0.21
-15.254 7.984 -2.239 0.18
-15.272 7.932 -2.238 0.21
-15.269 7.9 -2.236 0.2
-15.285 7.847 -2.234 0.22
-15.295 7.792 -2.232 0.19
-15.32 7.744 -2.232 0.23
-15.344 7.696 -2.232 0.18
-15.342 7.634 -2.228 0.14
-15.353 7.58 -2.226 0.17
-15.377 7.532 -2.226 0.21
-15.373 7.5 -2.223 0.18
-15.378 7.443 -2.22 0.13
-15.375 7.382 -2.216 0.17
-15.387 7.328 -2.215 0.29
-15.348 7.25 -2.205 0.23
-15.359 7.197 -2.203 0.29
-15.398 7.156 -2.206 0.27
-15.418 7.136 -2.207 0.3
-15.432 7.083 -2.206 0.27
-15.443 7.03 -2.204 0.27
-15.454 6.976 -2.202 0.25
-15.469 6.925 -2.201 0.25
-15.46 6.862 -2.196 0.11
-15.476 6.811 -2.195 0.15
-15.481 6.784 -2.195 0.09
-15.479 6.726 -2.191 0.0
-15.493 6.674 -2.19 0.13
-15.513 6.625 -2.19 0.09
-15.523 6.572 -2.188 0.14
-15.524 6.514 -2.185 0.1
-15.539 6.463 -2.184 0.15
-15.529 6.43 -2.181 0.09
-15.552 6.383 -2.182 0.15
-15.549 6.325 -2.178 0.09
-15.554 6.27 -2.176 0.15
-15.573 6.221 -2.176 0.17
-15.571 6.163 -2.172 0.23
-15.564 6.104 -2.169 0.11
-15.565 6.048 -2.166 0.16
-15.571 6.022 -2.165 0.12
-15.565 5.964 -2.162 0.16
-15.586 5.916 -2.162 0.27
-15.588 5.86 -2.159 0.27
-15.584 5.803 -2.156 0.27
-15.598 5.753 -2.155 0.27
-15.605 5.699 -2.154 0.27
-15.597 5.669 -2.151 0.27
-15.602 5.615 -2.149 0.27
-15.608 5.562 -2.147 0.27
-15.62 5.511 -2.147 0.26
-15.617 5.455 -2.144 0.25
-15.617 5.4 -2.141 0.25
-15.619 5.345 -2.139 0.11
-15.612 5.316 -2.137 0.16
-15.62 5.264 -2.135 0.1
-15.627 5.211 -2.134 0.15
-15.634 5.159 -2.132 0.1
-15.64 5.107 -2.131 0.15
-15.632 5.05 -2.127 0.1
-15.655 5.003 -2.128 0.15
-15.627 4.967 -2.123 0.09
-15.637 4.916 -2.122 0.15
-15.647 4.865 -2.121 0.23
-15.647 4.811 -2.119 0.24
-15.65 4.759 -2.118 0.11
-15.646 4.704 -2.115 0.16
-15.65 4.651 -2.113 0.27
-15.642 4.622 -2.111 0.19
-15.647 4.57 -2.109 0.16
-15.644 4.516 -2.107 0.32
-15.658 4.467 -2.107 0.2
-15.668 4.416 -2.106 0.18
-15.674 4.365 -2.105 0.23
-15.678 4.313 -2.104 0.21
-15.685 4.288 -2.104 0.23
-15.676 4.233 -2.1 0.24
-15.693 4.185 -2.101 0.38
-15.713 4.137 -2.102 0.29
-15.723 4.087 -2.102 0.21
-15.653 4.016 -2.089 0.56
-15.779 3.996 -2.106 0.23
-15.801 3.949 -2.107 0.25
-15.788 3.919 -2.105 0.2
-15.819 3.874 -2.107 0.2
-15.837 3.826 -2.108 0.36
-15.845 3.775 -2.108 0.19
-15.863 3.727 -2.109 0.37
-15.872 3.677 -2.108 0.18
-15.884 3.627 -2.108 0.35
-15.897 3.604 -2.109 0.18
-15.912 3.554 -2.11 0.35
-15.921 3.504 -2.11 0.19
-15.936 3.455 -2.11 0.23
-15.941 3.403 -2.109 0.18
-15.946 3.352 -2.109 0.34
-15.955 3.302 -2.108 0.19
-15.952 3.275 -2.107 0.34
-15.968 3.226 -2.108 0.2
-15.972 3.175 -2.107 0.25
-15.976 3.123 -2.106 0.21
-15.982 3.072 -2.106 0.23
-15.976 3.019 -2.103 0.21
-15.989 2.97 -2.104 0.21
-15.996 2.945 -2.104 0.38
-15.995 2.893 -2.103 0.19
-16.003 2.842 -2.103 0.38
-16.0 2.79 -2.101 0.22
-16.014 2.741 -2.102 0.2
-16.019 2.69 -2.101 0.38
-16.012 2.637 -2.099 0.22
-16.041 2.59 -2.102 0.2
-16.032 2.563 -2.1 0.38
-16.024 2.51 -2.098 0.23
-16.03 2.459 -2.098 0.18
-16.053 2.411 -2.1 0.4
-16.063 2.361 -2.1 0.19
-16.066 2.31 -2.1 0.38
-16.059 2.257 -2.098 0.19
-16.071 2.233 -2.099 0.37
-16.088 2.184 -2.1 0.19
-16.077 2.131 -2.098 0.38
-16.085 2.081 -2.098 0.19
-16.102 2.032 -2.099 0.37
-16.108 1.981 -2.099 0.18
-16.1 1.929 -2.097 0.36
-16.111 1.904 -2.098 0.18
-16.097 1.851 -2.096 0.36
-16.099 1.8 -2.095 0.18
-16.118 1.751 -2.097 0.38
-16.102 1.698 -2.094 0.19
-16.102 1.647 -2.093 0.37
-16.107 1.597 -2.093 0.2
-16.097 1.57 -2.091 0.38
-16.098 1.519 -2.091 0.18
-16.109 1.469 -2.092 0.36
-16.1 1.417 -2.09 0.18
-16.1 1.366 -2.089 0.38
-16.102 1.316 -2.089 0.18
-16.104 1.265 -2.089 0.36
-16.087 1.238 -2.086 0.15
-16.094 1.188 -2.086 0.32
-16.11 1.138 -2.088 0.23
-16.026 1.081 -2.076 0.18
-16.138 1.038 -2.091 0.16
-16.146 0.988 -2.092 0.12
-16.158 0.938 -2.093 0.16
-16.163 0.887 -2.093 0.28
-16.171 0.862 -2.094 0.26
-16.173 0.811 -2.094 0.26
-16.178 0.76 -2.095 0.26
-16.18 0.71 -2.095 0.26
-16.18 0.659 -2.094 0.25
-16.176 0.608 -2.093 0.26
-16.174 0.557 -2.093 0.25
-16.155 0.531 -2.09 0.26
-16.161 0.48 -2.091 0.26
-16.14 0.429 -2.088 0.27
-16.126 0.377 -2.085 0.18
-16.105 0.326 -2.082 0.18
-16.094 0.275 -2.08 0.21
-16.091 0.225 -2.08 0.18
-16.056 0.174 -2.075 0.33
-16.072 0.149 -2.077 0.19
-16.049 0.098 -2.074 0.24
-16.043 0.048 -2.073 0.2
-16.055 -0.003 -2.075 0.23
-16.055 -0.053 -2.075 0.19
-16.045 -0.104 -2.073 0.23
-16.044 -0.154 -2.073 0.21
-16.044 -0.179 -2.073 0.22
-16.055 -0.23 -2.075 0.18
-16.051 -0.28 -2.074 0.32
-16.05 -0.33 -2.074 0.2
-16.062 -0.381 -2.076 0.18
-16.041 -0.431 -2.073 0.14
-16.036 -0.481 -2.073 0.17
-16.053 -0.507 -2.075 0.29
-16.041 -0.557 -2.074 0.18
-16.032 -0.607 -2.073 0.18
-16.041 -0.658 -2.075 0.18
-16.037 -0.709 -2.074 0.17
-16.039 -0.759 -2.075 0.17
-16.147 -0.815 -2.091 0.26
-16.142 -0.84 -2.09 0.27
-16.129 -0.89 -2.089 0.25
-16.123 -0.941 -2.088 0.26
-16.09 -0.99 -2.084 0.11
-16.091 -1.04 -2.084 0.16
-16.075 -1.09 -2.083 0.28
-16.054 -1.139 -2.08 0.2
-16.045 -1.189 -2.079 0.18
-16.035 -1.214 -2.078 0.32
-16.011 -1.263 -2.075 0.17
-16.009 -1.313 -2.076 0.36
-16.013 -1.364 -2.077 0.21
-16.012 -1.415 -2.077 0.25
-16.002 -1.465 -2.077 0.2
-15.985 -1.514 -2.075 0.18
-16.009 -1.541 -2.079 0.4
-15.996 -1.591 -2.077 0.18
-15.924 -1.634 -2.068 0.23
-15.889 -1.681 -2.064 0.3
-15.858 -1.728 -2.06 0.31
-15.853 -1.778 -2.06 0.38
-15.874 -1.831 -2.064 0.41
-15.809 -1.849 -2.055 0.47
-15.512 -1.864 -2.013 0.21
-15.447 -1.906 -2.005 0.34
-15.419 -1.951 -2.002 0.2
-15.368 -1.994 -1.996 0.21
-15.458 -2.055 -2.009 0.37
-15.488 -2.108 -2.015 0.32
-15.509 -2.136 -2.018 0.35
-15.57 -2.194 -2.028 0.33
-15.595 -2.248 -2.032 0.28
-15.644 -2.305 -2.04 0.29
-15.604 -2.349 -2.036 0.36
-15.581 -2.396 -2.033 0.28
-15.606 -2.45 -2.038 0.28
-15.538 -2.464 -2.029 0.31
-15.485 -2.506 -2.022 0.25
-15.528 -2.563 -2.03 0.41
-15.606 -2.626 -2.042 0.27
-15.787 -2.707 -2.069 0.25
-15.948 -2.786 -2.094 0.3
-15.924 -2.833 -2.091 0.25
-15.893 -2.879 -2.088 0.22
-15.932 -2.912 -2.095 0.41
-15.946 -2.967 -2.098 0.24
-15.757 -2.983 -2.072 0.31
-15.699 -3.023 -2.065 0.14
-15.67 -3.069 -2.062 0.38
-15.653 -3.116 -2.061 0.21
-15.583 -3.153 -2.052 0.18
-15.401 -3.142 -2.027 0.33
-15.193 -3.15 -1.998 0.19
-14.889 -3.136 -1.956 0.33
-14.604 -3.125 -1.916 0.0
-14.478 -3.145 -1.899 0.0
-15.934 -3.512 -2.112 0.11
-15.822 -3.539 -2.097 0.17
-15.811 -3.563 -2.096 0.32
-15.804 -3.613 -2.097 0.2
-15.744 -3.652 -2.09 0.18
-15.777 -3.712 -2.096 0.22
-15.734 -3.754 -2.092 0.18
-15.703 -3.799 -2.089 0.33
-15.689 -3.848 -2.089 0.18
-15.675 -3.87 -2.088 0.35
-15.636 -3.913 -2.084 0.22
-15.643 -3.967 -2.086 0.18
-15.636 -4.017 -2.087 0.4
-15.631 -4.068 -2.088 0.23
-15.636 -4.122 -2.091 0.2
-15.584 -4.161 -2.085 0.38
-15.627 -4.199 -2.093 0.19
-15.564 -4.234 -2.085 0.28
-15.576 -4.29 -2.089 0.21
-15.509 -4.324 -2.081 0.29
-15.495 -4.373 -2.081 0.19
-15.478 -4.42 -2.08 0.16
-15.219 -4.451 -2.047 0.55
-15.27 -4.491 -2.055 0.28
-15.231 -4.532 -2.051 0.2
-15.095 -4.543 -2.033 0.16
-14.937 -4.547 -2.012 0.18
-14.952 -4.603 -2.017 0.12
-14.902 -4.639 -2.011 0.14
-14.798 -4.658 -1.998 0.11
-14.665 -4.642 -1.979 0.15
-14.51 -4.643 -1.959 0.12
-14.36 -4.645 -1.938 0.17
-14.2 -4.643 -1.917 0.0
-13.992 -4.624 -1.888 0.0
-13.84 -4.622 -1.867 0.0
-14.935 -5.117 -2.037 0.22
-14.932 -5.168 -2.039 0.34
-14.774 -5.166 -2.017 0.28
-14.668 -5.181 -2.004 0.27
-14.637 -5.221 -2.002 0.23
-14.568 -5.249 -1.994 0.26
-14.59 -5.282 -1.998 0.32
-14.482 -5.295 -1.985 0.29
-14.379 -5.309 -1.972 0.31
-14.363 -5.354 -1.972 0.18
-14.246 -5.362 -1.957 0.48
-14.14 -5.373 -1.943 0.2
-14.114 -5.414 -1.942 0.31
-14.066 -5.421 -1.936 0.29
-14.062 -5.47 -1.938 0.3
-14.002 -5.498 -1.931 0.29
-13.967 -5.534 -1.929 0.29
-13.99 -5.594 -1.935 0.23
-14.06 -5.674 -1.948 0.32
-14.03 -5.713 -1.946 0.3
-14.063 -5.778 -1.954 0.21
-14.078 -5.809 -1.958 0.35
-14.057 -5.853 -1.957 0.18
-14.055 -5.904 -1.96 0.38
-14.033 -5.946 -1.959 0.24
-14.024 -5.994 -1.961 0.23
-14.016 -6.043 -1.962 0.27
-13.949 -6.067 -1.955 0.21
-13.936 -6.087 -1.955 0.19
-14.0 -6.167 -1.968 0.35
-13.809 -6.135 -1.941 0.13
-13.713 -6.145 -1.929 0.16
-13.654 -6.17 -1.923 0.27
-13.44 -6.124 -1.893 0.21
-13.459 -6.184 -1.899 0.19
-13.399 -6.182 -1.891 0.21
-13.3 -6.187 -1.878 0.2
-13.193 -6.188 -1.865 0.22
-13.085 -6.188 -1.851 0.2
-12.982 -6.189 -1.838 0.23
-12.878 -6.19 -1.825 0.2
-12.746 -6.176 -1.807 0.22
-12.653 -6.156 -1.794 0.2
-12.543 -6.151 -1.779 0.0
-12.458 -6.158 -1.769 0.0
-12.388 -6.172 -1.761 0.07
-13.71 -6.882 -1.973 0.14
-13.547 -6.853 -1.951 0.31
-13.545 -6.906 -1.954 0.3
-13.573 -6.947 -1.96 0.3
-13.551 -6.989 -1.96 0.3
-13.534 -7.035 -1.961 0.38
-13.494 -7.068 -1.958 0.24
-13.442 -7.095 -1.953 0.26
-13.381 -7.116 -1.947 0.21
-13.319 -7.137 -1.941 0.17
-13.258 -7.158 -1.935 0.34
-13.227 -7.169 -1.932 0.39
-13.125 -7.167 -1.919 0.31
-13.083 -7.197 -1.916 0.23
-13.211 -7.322 -1.94 0.29
-13.211 -7.376 -1.944 0.35
-13.177 -7.411 -1.942 0.21
-12.99 -7.36 -1.915 0.33
-13.037 -7.414 -1.925 0.31
-12.977 -7.434 -1.919 0.18
-12.894 -7.44 -1.909 0.52
-12.977 -7.542 -1.927 0.29
-12.951 -7.582 -1.926 0.13
-12.849 -7.577 -1.913 0.18
-12.849 -7.631 -1.917 0.21
-12.791 -7.624 -1.91 0.2
-12.614 -7.573 -1.885 0.12
-12.405 -7.501 -1.854 0.18
-12.351 -7.521 -1.849 0.57
-12.446 -7.632 -1.869 0.13
-12.428 -7.676 -1.87 0.16
-12.355 -7.684 -1.862 0.12
-12.299 -7.676 -1.854 0.17
-12.215 -7.677 -1.844 0.12
-12.144 -7.686 -1.836 0.18
-12.049 -7.68 -1.825 0.12
-11.973 -7.684 -1.816 0.16
-11.889 -7.683 -1.806 0.12
-11.824 -7.694 -1.799 0.16
-11.747 -7.67 -1.788 0.28
-11.67 -7.672 -1.779 0.27
-11.586 -7.67 -1.769 0.25
-11.476 -7.649 -1.754 0.1
-11.419 -7.663 -1.749 0.0
-11.319 -7.648 -1.736 0.0
-11.249 -7.653 -1.728 0.0
-11.186 -7.661 -1.721 0.0
-11.126 -7.646 -1.713 0.0
-11.888 -8.278 -1.853 0.15
-11.849 -8.306 -1.85 0.28
-11.734 -8.281 -1.835 0.3
-11.685 -8.302 -1.831 0.3
-11.671 -8.346 -1.833 0.37
-11.598 -8.322 -1.823 0.27
-11.535 -8.332 -1.816 0.26
-11.491 -8.355 -1.813 0.42
-11.42 -8.359 -1.805 0.26
-11.411 -8.407 -1.808 0.33
-11.337 -8.408 -1.8 0.3
-11.282 -8.422 -1.795 0.32
-11.235 -8.415 -1.789 0.25
-11.215 -8.455 -1.79 0.33
-11.142 -8.456 -1.782 0.31
-11.065 -8.452 -1.773 0.32
-11.003 -8.459 -1.766 0.33
-10.935 -8.462 -1.759 0.29
-10.868 -8.465 -1.752 0.29
-10.812 -8.449 -1.744 0.31
-10.744 -8.45 -1.737 0.3
-10.674 -8.45 -1.729 0.3
-10.61 -8.454 -1.722 0.32
-10.546 -8.457 -1.715 0.31
-10.479 -8.458 -1.708 0.29
-10.408 -8.455 -1.7 0.28
-10.367 -8.449 -1.695 0.31
-10.287 -8.437 -1.685 0.3
-10.236 -8.449 -1.681 0.27
-10.174 -8.453 -1.674 0.31
-10.099 -8.444 -1.665 0.29
-10.045 -8.453 -1.66 0.27
-10.012 -8.479 -1.659 0.21
-9.972 -8.472 -1.654 0.25
-9.942 -8.501 -1.654 0.32
-9.926 -8.541 -1.655 0.29
-9.863 -8.541 -1.649 0.34
-9.827 -8.564 -1.647 0.4
-9.761 -8.561 -1.64 0.36
-9.72 -8.578 -1.637 0.35
-9.624 -8.549 -1.624 0.32
-9.577 -8.533 -1.618 0.35
-9.597 -8.606 -1.627 0.35
-9.519 -8.59 -1.617 0.44
-9.452 -8.584 -1.609 0.31
-9.374 -8.567 -1.599 0.27
-9.374 -8.621 -1.605 0.38
-9.325 -8.631 -1.601 0.32
-9.248 -8.586 -1.588 0.29
-9.272 -8.662 -1.598 0.39
-9.178 -8.629 -1.585 0.33
-9.19 -8.695 -1.593 0.32
-9.067 -8.634 -1.574 0.36
-9.066 -8.687 -1.579 0.29
-8.974 -8.653 -1.567 0.34
-8.932 -8.64 -1.561 0.29
-8.901 -8.664 -1.56 0.39
-8.893 -8.711 -1.564 0.34
-8.713 -8.589 -1.534 0.29
-8.675 -8.605 -1.532 0.34
-8.631 -8.616 -1.528 0.33
-8.628 -8.667 -1.533 0.33
-8.522 -8.588 -1.514 0.32
-8.59 -8.71 -1.534 0.35
-8.555 -8.73 -1.532 0.3
-8.508 -8.737 -1.528 0.43
-8.39 -8.67 -1.51 0.31
-8.517 -8.856 -1.541 0.39
-8.431 -8.822 -1.529 0.32
-8.399 -8.845 -1.528 0.24
-8.429 -8.904 -1.537 0.45
-8.394 -8.923 -1.536 0.26
-8.301 -8.88 -1.523 0.43
-8.217 -8.845 -1.511 0.28
-8.259 -8.946 -1.525 0.33
-8.2 -8.939 -1.519 0.29
-8.178 -8.972 -1.52 0.41
-8.16 -8.98 -1.52 0.34
-8.108 -8.98 -1.514 0.34
-8.082 -9.008 -1.515 0.29
-8.032 -9.008 -1.51 0.38
-7.914 -8.933 -1.491 0.27
-7.911 -8.986 -1.497 0.32
-7.878 -9.006 -1.496 0.31
-7.791 -8.935 -1.48 0.42
-7.764 -8.961 -1.48 0.34
-7.766 -9.02 -1.487 0.34
-7.713 -9.016 -1.481 0.28
-7.65 -8.999 -1.474 0.38
-7.55 -8.939 -1.458 0.28
-7.402 -8.82 -1.432 0.33
-7.369 -8.809 -1.428 0.32
-7.422 -8.929 -1.445 0.32
-7.379 -8.934 -1.442 0.27
-7.364 -8.973 -1.445 0.33
-7.337 -8.997 -1.445 0.37
-7.352 -9.074 -1.455 0.3
-7.285 -9.049 -1.446 0.29
-7.329 -9.133 -1.46 0.39
-7.279 -9.13 -1.455 0.23
-7.092 -8.953 -1.419 0.38
-7.179 -9.121 -1.445 0.29
-7.079 -9.053 -1.429 0.33
-7.053 -9.079 -1.429 0.29
-6.978 -9.041 -1.419 0.32
-6.984 -9.077 -1.423 0.33
-6.974 -9.124 -1.428 0.37
-6.917 -9.108 -1.421 0.3
-6.938 -9.196 -1.433 0.37
-6.852 -9.142 -1.419 0.31
-6.789 -9.118 -1.411 0.3
-6.82 -9.218 -1.425 0.38
-6.751 -9.186 -1.415 0.29
-6.751 -9.217 -1.419 0.32
-6.733 -9.252 -1.422 0.35
-6.688 -9.251 -1.418 0.3
-6.66 -9.274 -1.418 0.34
-6.628 -9.291 -1.417 0.28
-6.547 -9.24 -1.405 0.35
-6.515 -9.255 -1.404 0.3
-6.471 -9.223 -1.397 0.3
-6.439 -9.24 -1.396 0.32
-6.358 -9.186 -1.383 0.35
-6.363 -9.255 -1.392 0.32
-6.334 -9.275 -1.392 0.23
-6.311 -9.304 -1.393 0.36
-6.29 -9.336 -1.395 0.35
-6.209 -9.247 -1.378 0.3
-6.172 -9.255 -1.377 0.25
-6.12 -9.24 -1.371 0.38
-6.137 -9.328 -1.382 0.29
-6.058 -9.273 -1.37 0.26
-6.086 -9.378 -1.384 0.37
-5.975 -9.273 -1.363 0.27
-5.922 -9.222 -1.353 0.29
-5.835 -9.151 -1.338 0.32
-5.817 -9.186 -1.341 0.31
-5.806 -9.232 -1.346 0.32
-5.73 -9.175 -1.333 0.25
-5.657 -9.122 -1.321 0.29
-5.621 -9.128 -1.319 0.3
-5.674 -9.247 -1.338 0.33
-5.657 -9.283 -1.341 0.31
-5.589 -9.238 -1.33 0.28
-5.531 -9.206 -1.322 0.23
-5.499 -9.219 -1.321 0.33
-5.458 -9.217 -1.318 0.34
-5.419 -9.217 -1.315 0.29
-5.443 -9.291 -1.326 0.3
-5.482 -9.424 -1.345 0.27
-5.343 -9.253 -1.314 0.34
-5.336 -9.307 -1.32 0.3
-5.328 -9.362 -1.327 0.28
-5.302 -9.385 -1.328 0.3
-5.236 -9.336 -1.317 0.25
-5.182 -9.276 -1.306 0.29
-5.141 -9.269 -1.302 0.18
-5.239 -9.516 -1.34 0.43
-5.169 -9.459 -1.328 0.24
-5.153 -9.5 -1.332 0.27
-5.059 -9.398 -1.313 0.23
-5.15 -9.638 -1.349 0.16
-5.18 -9.73 -1.362 0.49
-4.974 -9.416 -1.309 0.2
-4.97 -9.481 -1.317 0.14
-4.894 -9.408 -1.303 0.49
-4.908 -9.508 -1.317 0.25
-4.85 -9.469 -1.308 0.28
-4.834 -9.511 -1.312 0.24
-4.804 -9.526 -1.312 0.32
-4.756 -9.468 -1.302 0.28
-4.77 -9.57 -1.315 0.25
-4.78 -9.664 -1.328 0.32
-4.694 -9.567 -1.31 0.28
-4.611 -9.474 -1.293 0.26
-4.502 -9.326 -1.268 0.25
-4.631 -9.668 -1.319 0.16
-4.699 -9.849 -1.347 0.44
-4.473 -9.454 -1.282 0.23
-4.471 -9.527 -1.292 0.32
-4.442 -9.543 -1.292 0.2
-4.355 -9.435 -1.273 0.19
-4.371 -9.547 -1.288 0.17
-4.27 -9.404 -1.264 0.29
-4.269 -9.442 -1.269 0.2
-4.272 -9.527 -1.28 0.29
-4.482 -10.077 -1.363 0.24
-4.41 -10.001 -1.349 0.24
-4.32 -9.88 -1.328 0.23
-4.217 -9.731 -1.303 0.21
-4.274 -9.946 -1.334 0.15
-4.186 -9.785 -1.308 0.16
-4.069 -9.594 -1.277 0.5
-4.04 -9.61 -1.278 0.26
-4.014 -9.634 -1.279 0.13
-3.995 -9.672 -1.283 0.41
-4.117 -10.056 -1.34 0.2
-3.853 -9.499 -1.253 0.24
-3.967 -9.823 -1.301 0.2
-3.84 -9.596 -1.265 0.21
-3.805 -9.597 -1.263 0.29
-3.745 -9.532 -1.251 0.34
-3.758 -9.654 -1.268 0.33
-3.681 -9.546 -1.25 0.26
-3.699 -9.683 -1.269 0.28
-3.67 -9.652 -1.264 0.26
-3.683 -9.778 -1.281 0.18
-3.639 -9.754 -1.276 0.18
-3.569 -9.66 -1.26 0.44
-3.464 -9.467 -1.229 0.23
-3.52 -9.714 -1.264 0.16
-3.45 -9.615 -1.248 0.17
-3.496 -9.792 -1.274 0.16
-3.363 -9.516 -1.23 0.25
-3.395 -9.702 -1.257 0.32
-3.361 -9.703 -1.255 0.11
-3.288 -9.59 -1.237 0.15
-3.311 -9.756 -1.26 0.14
-3.261 -9.708 -1.251 0.18
-3.221 -9.64 -1.241 0.18
-3.324 -10.05 -1.3 0.13
-3.236 -9.889 -1.275 0.32
-3.15 -9.732 -1.25 0.2
-3.047 -9.517 -1.216 0.2
-3.057 -9.65 -1.235 0.21
-3.111 -9.927 -1.274 0.19
-3.087 -9.906 -1.271 0.0
-3.375 -10.94 -1.423 0.0
-3.317 -10.875 -1.411 0.0
-2.803 -9.307 -1.178 0.14
-2.768 -9.297 -1.175 0.12
-2.715 -9.226 -1.163 0.0
-2.708 -9.309 -1.174 0.0
-2.7 -9.337 -1.178 0.0
-2.833 -9.907 -1.26 0.13
-3.161 -11.173 -1.445 0.19
-3.113 -11.139 -1.439 0.09
-3.063 -11.095 -1.431 0.09
-2.657 -9.757 -1.233 0.2
-3.015 -11.193 -1.443 0.2
-2.962 -11.137 -1.433 0.21
-2.958 -11.191 -1.44 0.11
-2.888 -11.07 -1.421 0.11
-2.572 -9.997 -1.263 0.13
-2.828 -11.125 -1.427 0.09
-2.761 -11.007 -1.408 0.2
-2.456 -9.934 -1.25 0.11
-2.464 -10.099 -1.273 0.18
-2.708 -11.165 -1.428 0.26
-2.673 -11.173 -1.428 0.1
-2.614 -11.083 -1.414 0.08
-2.587 -11.124 -1.419 0.14
-2.306 -10.069 -1.264 0.19
-2.539 -11.237 -1.433 0.28
-2.066 -9.299 -1.15 0.25
-2.018 -9.152 -1.128 0.26
-2.17 -9.982 -1.248 0.11
-2.089 -9.756 -1.214 0.15
-2.07 -9.819 -1.222 0.0
-2.322 -11.17 -1.417 0.11
-2.033 -9.95 -1.239 0.1
-2.243 -11.142 -1.411 0.08
-2.242 -11.229 -1.423 0.15
-2.21 -11.252 -1.425 0.17
-2.169 -11.229 -1.421 0.0
-1.791 -9.453 -1.164 0.12
-1.776 -9.538 -1.175 0.21
-2.067 -11.271 -1.424 0.22
-2.029 -11.26 -1.421 0.11
-1.994 -11.171 -1.408 0.14
-1.97 -11.24 -1.417 0.0
-1.939 -11.271 -1.421 0.13
-1.599 -9.493 -1.165 0.21
-1.61 -9.744 -1.2 0.22
-1.824 -11.232 -1.413 0.13
-1.537 -9.678 -1.189 0.16
-1.556 -9.896 -1.22 0.19
-1.477 -9.595 -1.176 0.2
-1.698 -11.24 -1.411 0.1
-1.665 -11.259 -1.413 0.15
-1.629 -11.256 -1.412 0.12
-1.594 -11.265 -1.412 0.14
-1.556 -11.257 -1.41 0.22
-1.538 -11.253 -1.41 0.2
-1.502 -11.254 -1.409 0.18
-1.224 -9.427 -1.147 0.16
-1.431 -11.263 -1.409 0.23
-1.394 -11.25 -1.407 0.11
-1.359 -11.256 -1.407 0.12
-1.138 -9.717 -1.187 0.0
-1.095 -9.608 -1.171 0.12
-1.099 -9.779 -1.195 0.23
-1.232 -11.243 -1.403 0.09
-1.0 -9.728 -1.186 0.29
-0.984 -9.873 -1.206 0.18
-0.943 -9.778 -1.192 0.0
-0.897 -9.621 -1.17 0.12
-0.868 -9.467 -1.147 0.23
-0.859 -9.706 -1.181 0.2
-0.839 -9.825 -1.198 0.13
-0.795 -9.67 -1.175 0.14
-0.77 -9.741 -1.185 0.3
-0.746 -9.823 -1.196 0.27
-0.695 -9.554 -1.158 0.19
-0.668 -9.403 -1.136 0.35
-0.642 -9.449 -1.142 0.24
-0.615 -9.486 -1.147 0.12
-0.609 -9.868 -1.201 0.14
-0.569 -9.715 -1.179 0.13
-0.538 -9.709 -1.178 0.14
-0.51 -9.77 -1.187 0.32
-0.496 -9.787 -1.189 0.27
-0.452 -9.525 -1.152 0.2
-0.412 -9.309 -1.121 0.0
-0.385 -9.366 -1.129 0.05
-0.334 -9.584 -1.159 0.16
-0.303 -9.563 -1.156 0.14
-0.287 -9.528 -1.151 0.2
-0.254 -9.408 -1.134 0.41
-0.231 -9.674 -1.172 0.16
-0.197 -9.496 -1.146 0.38
-0.167 -9.491 -1.146 0.21
-0.137 -9.476 -1.143 0.13
-0.109 -9.636 -1.166 0.44
-0.092 -9.504 -1.147 0.2
-0.062 -9.5 -1.147 0.23
-0.032 -9.488 -1.145 0.18
-0.003 -9.528 -1.151 0.18
0.027 -9.298 -1.118 0.24
0.057 -9.449 -1.139 0.23
0.086 -9.351 -1.126 0.2
0.104 -9.838 -1.195 0.15
0.129 -9.286 -1.116 0.35
0.162 -9.523 -1.15 0.25
0.186 -9.174 -1.101 0.2
0.22 -9.442 -1.139 0.18
0.257 -9.733 -1.18 0.0
0.304 -9.797 -1.189 0.35
0.334 -9.776 -1.186 0.23
0.369 -9.874 -1.2 0.21
0.399 -9.868 -1.2 0.45
0.423 -9.675 -1.173 0.2
0.44 -9.391 -1.133 0.32
0.494 -9.908 -1.206 0.19
0.502 -9.747 -1.183 0.33
0.539 -9.858 -1.199 0.22
0.566 -9.783 -1.189 0.18
0.585 -9.589 -1.162 0.39
0.637 -9.937 -1.211 0.26
0.669 -9.947 -1.213 0.26
0.695 -9.864 -1.202 0.23
0.707 -9.823 -1.196 0.25
0.724 -9.632 -1.169 0.25
0.764 -9.756 -1.187 0.15
0.786 -9.645 -1.172 0.18
0.854 -10.102 -1.237 0.19
0.847 -9.645 -1.172 0.2
1.004 -11.071 -1.375 0.0
1.015 -11.004 -1.366 0.0
1.044 -10.934 -1.357 0.0
1.076 -10.905 -1.353 0.0
1.011 -9.906 -1.211 0.14
0.995 -9.448 -1.147 0.11
1.196 -11.062 -1.377 0.15
1.231 -11.058 -1.377 0.0
1.227 -10.867 -1.35 0.0
1.26 -10.855 -1.349 0.07
1.312 -11.005 -1.371 0.08
1.34 -10.941 -1.362 0.14
1.386 -11.035 -1.376 0.09
1.275 -9.874 -1.211 0.0
1.306 -9.872 -1.211 0.09
1.486 -10.988 -1.371 0.09
1.503 -10.988 -1.372 0.15
1.537 -10.979 -1.371 0.0
1.546 -10.792 -1.345 0.0
1.605 -10.962 -1.37 0.07
1.626 -10.864 -1.357 0.14
1.478 -9.649 -1.184 0.09
1.535 -9.817 -1.208 0.16
1.576 -9.979 -1.232 0.16
1.57 -9.741 -1.199 0.32
1.794 -10.932 -1.37 0.0
1.673 -9.788 -1.207 0.29
1.715 -9.853 -1.218 0.22
1.728 -9.744 -1.203 0.0
1.798 -10.052 -1.247 0.07
1.962 -10.783 -1.353 0.1
1.818 -9.804 -1.213 0.26
1.854 -9.826 -1.217 0.41
2.093 -10.919 -1.376 0.0
2.104 -10.79 -1.358 0.0
2.153 -10.861 -1.369 0.0
2.157 -10.792 -1.36 0.0
2.16 -10.634 -1.338 0.07
1.956 -9.461 -1.169 0.14
2.108 -10.044 -1.255 0.1
2.122 -9.954 -1.243 0.14
2.165 -10.005 -1.251 0.13
2.173 -9.888 -1.235 0.14
2.219 -10.022 -1.255 0.2
2.189 -9.741 -1.215 0.22
2.225 -9.759 -1.219 0.18
2.232 -9.647 -1.204 0.16
2.279 -9.71 -1.214 0.15
2.326 -9.774 -1.224 0.27
2.334 -9.674 -1.211 0.29
2.388 -9.83 -1.234 0.16
2.383 -9.675 -1.212 0.31
2.462 -9.863 -1.241 0.16
2.339 -9.243 -1.151 0.2
2.485 -9.694 -1.218 0.3
2.508 -9.657 -1.214 0.11
2.487 -9.452 -1.185 0.16
2.522 -9.525 -1.197 0.23
2.608 -9.731 -1.228 0.15
2.646 -9.75 -1.232 0.31
2.691 -9.793 -1.239 0.25
2.707 -9.731 -1.232 0.16
2.744 -9.747 -1.235 0.5
2.659 -9.329 -1.175 0.18
2.743 -9.568 -1.211 0.34
2.786 -9.605 -1.218 0.17
2.824 -9.621 -1.221 0.41
2.86 -9.633 -1.224 0.24
2.9 -9.658 -1.229 0.24
2.935 -9.664 -1.232 0.29
2.958 -9.631 -1.228 0.31
2.989 -9.679 -1.236 0.29
3.013 -9.647 -1.232 0.2
3.033 -9.605 -1.228 0.39
3.079 -9.646 -1.235 0.29
3.116 -9.658 -1.238 0.36
3.111 -9.537 -1.222 0.32
3.133 -9.502 -1.218 0.22
3.191 -9.629 -1.238 0.33
3.205 -9.57 -1.23 0.3
3.261 -9.639 -1.242 0.25
3.275 -9.58 -1.235 0.24
3.304 -9.566 -1.234 0.41
3.325 -9.531 -1.231 0.29
3.356 -9.522 -1.231 0.33
3.37 -9.513 -1.23 0.25
3.407 -9.525 -1.234 0.32
3.45 -9.55 -1.239 0.39
3.47 -9.511 -1.235 0.27
3.501 -9.504 -1.236 0.2
3.442 -9.251 -1.199 0.49
3.51 -9.344 -1.215 0.21
3.632 -9.58 -1.252 0.28
3.584 -9.407 -1.227 0.3
3.634 -9.449 -1.235 0.24
3.691 -9.51 -1.246 0.38
3.717 -9.487 -1.244 0.27
3.74 -9.459 -1.242 0.35
3.733 -9.355 -1.228 0.27
3.81 -9.463 -1.246 0.34
3.784 -9.354 -1.23 0.27
3.826 -9.373 -1.235 0.35
3.838 -9.319 -1.229 0.27
3.875 -9.325 -1.231 0.34
3.916 -9.341 -1.236 0.33
3.914 -9.253 -1.224 0.25
3.984 -9.339 -1.239 0.26
3.97 -9.266 -1.229 0.26
4.052 -9.375 -1.248 0.29
4.085 -9.371 -1.249 0.3
4.122 -9.377 -1.252 0.31
4.145 -9.349 -1.25 0.34
4.164 -9.313 -1.246 0.29
4.225 -9.37 -1.257 0.36
4.203 -9.28 -1.244 0.29
4.181 -9.155 -1.227 0.26
4.237 -9.201 -1.236 0.25
4.277 -9.211 -1.239 0.33
4.326 -9.243 -1.246 0.3
4.381 -9.283 -1.255 0.3
4.398 -9.244 -1.251 0.25
4.398 -9.207 -1.246 0.36
4.446 -9.232 -1.252 0.28
4.506 -9.282 -1.262 0.29
4.493 -9.183 -1.249 0.27
4.508 -9.14 -1.244 0.35
4.544 -9.14 -1.247 0.28
4.611 -9.204 -1.259 0.32
4.614 -9.174 -1.255 0.28
4.65 -9.173 -1.258 0.32
4.676 -9.153 -1.257 0.28
4.655 -9.042 -1.241 0.29
4.682 -9.023 -1.241 0.3
4.707 -9.002 -1.24 0.34
4.719 -8.957 -1.235 0.31
4.737 -8.956 -1.236 0.28
4.767 -8.945 -1.237 0.29
4.763 -8.871 -1.227 0.3
4.816 -8.903 -1.235 0.32
4.818 -8.839 -1.227 0.27
4.859 -8.848 -1.231 0.29
4.899 -8.855 -1.234 0.31
4.925 -8.868 -1.238 0.33
4.937 -8.825 -1.233 0.31
4.955 -8.792 -1.23 0.32
5.032 -8.865 -1.245 0.32
5.035 -8.804 -1.237 0.27
5.068 -8.798 -1.239 0.31
5.101 -8.791 -1.241 0.3
5.118 -8.788 -1.241 0.32
5.151 -8.782 -1.243 0.37
5.188 -8.781 -1.246 0.31
5.238 -8.804 -1.252 0.26
5.252 -8.764 -1.248 0.36
5.275 -8.741 -1.247 0.27
5.326 -8.763 -1.253 0.44
5.348 -8.768 -1.256 0.27
5.398 -8.787 -1.262 0.31
5.418 -8.758 -1.26 0.34
5.448 -8.746 -1.26 0.29
5.471 -8.72 -1.259 0.37
5.517 -8.733 -1.264 0.32
5.56 -8.741 -1.268 0.36
5.611 -8.76 -1.274 0.32
5.638 -8.772 -1.278 0.3
5.648 -8.727 -1.273 0.28
5.66 -8.686 -1.269 0.35
5.683 -8.662 -1.268 0.33
5.735 -8.682 -1.275 0.28
5.793 -8.71 -1.283 0.29
5.798 -8.688 -1.28 0.36
5.828 -8.673 -1.281 0.28
5.859 -8.661 -1.282 0.24
5.89 -8.647 -1.283 0.24
5.927 -8.644 -1.285 0.33
5.968 -8.645 -1.289 0.29
5.988 -8.616 -1.287 0.3
5.987 -8.585 -1.283 0.29
6.055 -8.625 -1.294 0.4
6.092 -8.621 -1.296 0.23
6.111 -8.59 -1.294 0.17
6.113 -8.535 -1.288 0.43
6.175 -8.566 -1.297 0.22
6.199 -8.542 -1.296 0.29
6.234 -8.533 -1.298 0.25
6.228 -8.498 -1.293 0.25
6.258 -8.483 -1.294 0.18
6.273 -8.448 -1.291 0.12
6.294 -8.42 -1.29 0.16
6.332 -8.416 -1.293 0.29
6.365 -8.404 -1.294 0.21
6.405 -8.403 -1.297 0.18
6.43 -8.408 -1.3 0.34
6.474 -8.41 -1.304 0.18
6.509 -8.401 -1.306 0.36
6.56 -8.413 -1.312 0.2
6.597 -8.405 -1.314 0.36
6.625 -8.387 -1.315 0.21
6.674 -8.394 -1.32 0.18
6.699 -8.399 -1.323 0.41
6.742 -8.398 -1.326 0.25
6.787 -8.4 -1.331 0.2
6.828 -8.398 -1.334 0.4
6.882 -8.41 -1.34 0.22
6.921 -8.403 -1.343 0.21
6.956 -8.392 -1.345 0.39
6.987 -8.403 -1.349 0.25
7.039 -8.411 -1.354 0.25
7.079 -8.406 -1.357 0.21
7.122 -8.403 -1.361 0.41
7.165 -8.4 -1.365 0.24
7.216 -8.406 -1.37 0.2
7.258 -8.402 -1.373 0.4
7.288 -8.41 -1.377 0.25
7.333 -8.409 -1.381 0.27
7.368 -8.395 -1.383 0.28
7.424 -8.406 -1.389 0.27
7.466 -8.401 -1.393 0.26
7.516 -8.404 -1.398 0.27
7.56 -8.399 -1.401 0.28
7.589 -8.405 -1.405 0.27
7.567 -8.328 -1.395 0.26
7.672 -8.391 -1.411 0.29
7.708 -8.377 -1.413 0.28
7.781 -8.404 -1.423 0.28
7.801 -8.372 -1.422 0.21
7.832 -8.353 -1.423 0.42
7.87 -8.367 -1.428 0.22
7.861 -8.305 -1.421 0.32
7.921 -8.316 -1.428 0.22
7.937 -8.281 -1.426 0.15
7.984 -8.277 -1.43 0.16
8.013 -8.255 -1.43 0.0
7.506 -7.61 -1.315 0.0
7.549 -7.606 -1.319 0.0
7.602 -7.611 -1.325 0.0
7.658 -7.62 -1.331 0.0
7.695 -7.608 -1.334 0.0
7.753 -7.617 -1.34 0.0
7.772 -7.612 -1.342 0.0
7.827 -7.618 -1.348 0.07
7.89 -7.632 -1.356 0.08
7.936 -7.628 -1.36 0.09
7.988 -7.63 -1.366 0.09
8.038 -7.63 -1.371 0.08
8.09 -7.632 -1.376 0.0
8.126 -7.641 -1.381 0.0
8.174 -7.638 -1.386 0.0
8.223 -7.636 -1.39 0.0
8.277 -7.638 -1.396 0.0
8.326 -7.635 -1.401 0.0
8.372 -7.629 -1.405 0.0
8.346 -7.557 -1.396 0.0
8.412 -7.593 -1.406 0.0
8.499 -7.624 -1.418 0.0
8.563 -7.633 -1.426 0.0
8.604 -7.621 -1.429 0.0
8.628 -7.594 -1.429 0.0
8.683 -7.595 -1.435 0.12
8.828 -7.649 -1.455 0.46
8.863 -7.63 -1.457 0.28
8.928 -7.638 -1.465 0.36
8.968 -7.623 -1.468 0.41
9.024 -7.574 -1.47 0.45
8.888 -7.388 -1.438 0.36
9.024 -7.454 -1.459 0.23
9.038 -7.418 -1.457 0.25
9.042 -7.373 -1.453 0.1
9.056 -7.337 -1.452 0.15
9.094 -7.321 -1.454 0.16
9.126 -7.3 -1.456 0.18
9.131 -7.281 -1.455 0.17
9.181 -7.273 -1.46 0.16
9.252 -7.282 -1.468 0.23
9.288 -7.264 -1.471 0.19
9.292 -7.22 -1.468 0.12
9.251 -7.141 -1.456 0.16
9.338 -7.162 -1.468 0.17
9.327 -7.13 -1.464 0.29
9.374 -7.12 -1.468 0.26
9.383 -7.08 -1.466 0.19
9.359 -7.016 -1.458 0.17
9.435 -7.026 -1.467 0.18
9.463 -7.001 -1.468 0.15
9.327 -6.855 -1.44 0.43
9.469 -6.914 -1.461 0.16
9.438 -6.869 -1.454 0.35
9.427 -6.816 -1.449 0.2
9.444 -6.782 -1.448 0.32
9.483 -6.765 -1.451 0.0
9.572 -6.784 -1.463 0.0
8.72 -6.136 -1.311 0.0
