# .PCD v.7 - Point Cloud Data file format
VERSION .7
FIELDS x y z intensity
SIZE 4 4 4 4
TYPE F F F F
COUNT 1 1 1 1
WIDTH 1921
HEIGHT 1
VIEWPOINT 0 0 0 1 0 0 0
POINTS 1921
DATA ascii
53.774 38.412 0.875 0.0
54.506 39.324 0.886 0.0
54.623 39.671 0.889 0.0
54.496 39.841 0.889 0.0
48.612 36.007 0.818 0.0
48.56 36.205 0.819 0.0
48.772 36.722 0.824 0.0
57.481 44.141 0.939 0.0
47.323 36.809 0.813 0.0
47.186 36.942 0.813 0.0
47.103 37.116 0.813 0.0
56.246 44.47 0.932 0.0
42.31 33.659 0.754 0.0
42.227 33.811 0.754 0.0
42.17 33.984 0.754 0.0
15.963 13.01 0.415 0.24
15.769 12.934 0.413 0.0
15.985 13.153 0.416 0.0
45.192 37.488 0.8 0.0
45.093 37.645 0.801 0.0
45.106 37.897 0.802 0.0
45.144 38.172 0.805 0.0
44.077 37.507 0.792 0.0
43.708 37.43 0.789 0.0
44.124 37.907 0.795 0.0
43.79 37.86 0.792 0.0
43.653 37.981 0.792 0.0
50.414 44.149 0.884 0.0
50.097 44.15 0.882 0.0
43.415 38.5 0.794 0.0
43.244 38.47 0.792 0.0
42.924 38.426 0.789 0.0
42.779 38.54 0.789 0.0
42.399 38.439 0.785 0.0
50.45 46.035 0.897 0.0
50.101 46.005 0.894 0.0
50.233 46.86 0.901 0.0
36.108 33.885 0.708 0.0
35.8 33.809 0.705 0.0
35.681 33.909 0.705 0.0
35.506 33.956 0.704 0.0
35.811 34.681 0.711 0.0
35.598 34.584 0.709 0.0
35.208 34.42 0.705 0.0
18.395 18.08 0.468 0.0
35.216 34.863 0.708 0.0
18.623 18.535 0.473 0.11
18.715 18.745 0.475 0.0
34.835 35.142 0.707 0.0
34.466 34.879 0.703 0.0
34.656 35.293 0.707 0.0
34.343 35.194 0.704 0.0
34.395 35.47 0.706 0.0
34.018 35.302 0.703 0.0
33.833 35.331 0.701 0.0
33.745 35.462 0.702 0.0
33.775 35.717 0.704 0.0
33.83 35.888 0.706 0.0
16.55 17.761 0.453 0.0
33.159 35.847 0.701 0.0
33.335 36.266 0.705 0.04
16.594 18.148 0.456 0.0
33.041 36.403 0.704 0.0
16.331 18.03 0.453 0.09
15.812 17.566 0.446 0.17
15.716 17.57 0.445 0.2
15.707 17.671 0.446 0.0
15.938 18.046 0.451 0.12
15.659 17.842 0.447 0.0
32.342 37.128 0.705 0.0
15.696 18.056 0.449 0.0
15.689 18.279 0.451 0.12
17.533 20.562 0.48 0.18
17.436 20.579 0.48 0.16
29.029 34.729 0.665 0.6
28.936 34.729 0.664 0.98
28.813 34.802 0.664 0.93
28.639 34.814 0.663 0.96
28.422 34.772 0.661 0.82
28.376 34.94 0.662 0.46
15.924 19.715 0.463 0.32
15.832 19.728 0.463 0.12
10.365 12.943 0.375 0.3
10.289 12.931 0.374 0.3
10.229 12.938 0.374 0.39
10.19 12.974 0.374 0.35
10.146 13.001 0.374 0.34
10.11 13.039 0.374 0.49
10.235 13.286 0.377 0.0
38.99 50.902 0.855 0.0
38.735 50.9 0.853 0.0
38.448 50.852 0.851 0.0
38.202 50.859 0.85 0.0
37.965 50.875 0.849 0.0
37.692 50.841 0.847 0.0
37.497 50.912 0.846 0.0
16.869 22.955 0.495 0.0
37.51 51.436 0.85 0.0
37.511 51.779 0.853 0.0
37.528 52.147 0.856 0.0
37.533 52.5 0.859 0.0
37.525 52.84 0.862 0.0
37.531 53.201 0.865 0.0
37.527 53.553 0.868 0.0
37.636 53.887 0.871 0.0
37.619 54.225 0.874 0.1
16.587 24.044 0.502 0.16
16.275 23.751 0.498 0.26
16.193 23.791 0.498 0.17
15.961 23.609 0.495 0.27
15.985 23.806 0.497 0.38
16.023 23.944 0.498 0.19
15.756 23.706 0.495 0.24
15.599 23.63 0.493 0.2
15.267 23.284 0.489 0.21
15.144 23.256 0.488 0.3
15.047 23.267 0.487 0.18
14.92 23.23 0.486 0.48
15.059 23.528 0.49 0.23
14.868 23.391 0.487 0.21
14.767 23.394 0.487 0.3
14.698 23.447 0.487 0.2
14.714 23.637 0.489 0.17
14.736 23.84 0.49 0.15
14.662 23.888 0.49 0.16
14.747 24.11 0.493 0.3
14.432 23.763 0.488 0.23
14.289 23.694 0.487 0.28
14.207 23.726 0.487 0.23
14.404 24.228 0.492 0.23
14.321 24.263 0.492 0.21
14.199 24.229 0.491 0.2
14.236 24.381 0.493 0.29
14.165 24.436 0.493 0.0
9.882 19.347 0.427 0.37
9.811 19.359 0.427 0.41
9.747 19.382 0.426 0.37
9.703 19.371 0.426 0.43
9.63 19.376 0.426 0.39
9.556 19.381 0.426 0.39
9.501 19.422 0.426 0.34
9.422 19.415 0.425 0.43
9.354 19.43 0.425 0.36
9.281 19.434 0.425 0.42
9.246 19.438 0.425 0.36
9.17 19.436 0.424 0.42
9.106 19.46 0.424 0.35
9.033 19.461 0.424 0.43
8.97 19.486 0.424 0.36
8.899 19.494 0.424 0.45
8.826 19.494 0.423 0.42
8.791 19.499 0.423 0.41
8.728 19.523 0.423 0.38
8.653 19.519 0.423 0.44
8.584 19.53 0.423 0.33
8.514 19.536 0.423 0.43
8.446 19.548 0.422 0.41
8.384 19.573 0.422 0.36
8.309 19.566 0.422 0.43
8.276 19.575 0.422 0.38
8.206 19.579 0.422 0.45
8.137 19.588 0.422 0.36
8.069 19.597 0.421 0.44
8.0 19.605 0.421 0.36
7.938 19.629 0.421 0.45
7.868 19.633 0.421 0.41
7.834 19.638 0.421 0.41
7.768 19.651 0.421 0.38
7.7 19.659 0.421 0.38
7.634 19.674 0.421 0.46
7.565 19.677 0.42 0.37
7.498 19.687 0.42 0.39
7.43 19.694 0.42 0.45
7.396 19.698 0.42 0.37
7.328 19.706 0.42 0.44
7.266 19.727 0.42 0.38
7.196 19.729 0.419 0.46
7.132 19.744 0.419 0.38
7.065 19.755 0.419 0.39
6.995 19.755 0.419 0.45
6.962 19.76 0.419 0.38
6.894 19.763 0.419 0.43
6.834 19.79 0.419 0.37
6.765 19.795 0.419 0.46
6.698 19.799 0.418 0.37
6.628 19.799 0.418 0.45
6.565 19.816 0.418 0.4
6.501 19.833 0.418 0.37
6.464 19.824 0.418 0.39
6.404 19.85 0.418 0.39
6.334 19.847 0.418 0.39
6.267 19.851 0.418 0.45
6.202 19.865 0.418 0.37
6.139 19.881 0.418 0.39
6.069 19.877 0.417 0.45
6.037 19.883 0.417 0.38
5.972 19.892 0.417 0.39
5.911 19.918 0.417 0.39
5.846 19.927 0.417 0.39
5.776 19.92 0.417 0.46
5.713 19.937 0.417 0.35
5.65 19.952 0.417 0.42
5.618 19.961 0.417 0.31
5.548 19.952 0.417 0.55
5.46 19.875 0.416 0.52
5.411 19.942 0.416 0.25
5.351 19.97 0.416 0.25
5.282 19.962 0.416 0.2
5.219 19.978 0.416 0.44
5.185 19.977 0.416 0.25
5.122 19.991 0.416 0.26
5.053 19.984 0.416 0.27
4.994 20.013 0.416 0.26
4.934 20.041 0.416 0.27
4.861 20.017 0.415 0.27
4.799 20.036 0.415 0.28
4.739 20.061 0.416 0.29
4.701 20.043 0.415 0.3
4.635 20.042 0.415 0.31
4.574 20.064 0.415 0.3
4.505 20.055 0.415 0.3
4.446 20.085 0.415 0.35
4.38 20.089 0.415 0.3
4.318 20.105 0.415 0.3
4.282 20.092 0.415 0.27
4.227 20.144 0.415 0.2
4.163 20.155 0.415 0.39
4.1 20.166 0.415 0.4
4.035 20.175 0.415 0.42
3.972 20.186 0.415 0.42
3.906 20.185 0.415 0.39
3.875 20.195 0.415 0.42
3.808 20.189 0.415 0.41
3.744 20.197 0.415 0.39
3.693 20.279 0.416 0.44
3.629 20.291 0.416 0.34
3.565 20.298 0.416 0.43
3.503 20.323 0.416 0.38
3.468 20.309 0.415 0.39
3.406 20.328 0.416 0.41
3.345 20.356 0.416 0.35
3.278 20.351 0.416 0.45
3.217 20.379 0.416 0.39
3.152 20.383 0.416 0.41
3.088 20.391 0.416 0.44
3.024 20.406 0.416 0.46
2.992 20.407 0.416 0.46
2.928 20.416 0.416 0.43
2.865 20.433 0.416 0.44
2.8 20.436 0.416 0.81
2.736 20.451 0.416 0.38
2.67 20.441 0.416 0.45
2.605 20.446 0.416 0.41
2.572 20.444 0.415 0.43
2.508 20.452 0.415 0.4
2.438 20.414 0.415 0.38
2.372 20.408 0.415 0.41
2.308 20.409 0.415 0.41
2.245 20.434 0.415 0.4
2.18 20.433 0.415 0.4
2.148 20.436 0.415 0.41
2.085 20.453 0.415 0.41
2.022 20.469 0.415 0.43
1.956 20.46 0.415 0.48
1.899 20.547 0.416 0.41
1.835 20.553 0.416 0.4
1.769 20.553 0.416 0.41
1.737 20.554 0.416 0.39
1.674 20.575 0.416 0.35
1.609 20.578 0.416 0.4
1.545 20.595 0.416 0.36
1.48 20.594 0.416 0.41
1.416 20.61 0.416 0.36
1.352 20.625 0.416 0.38
1.287 20.625 0.416 0.38
1.255 20.631 0.416 0.38
1.19 20.637 0.416 0.38
1.125 20.644 0.416 0.38
1.061 20.654 0.416 0.37
0.996 20.663 0.416 0.38
0.931 20.662 0.416 0.43
0.867 20.673 0.416 0.36
0.535 13.012 0.339 0.38
0.491 12.944 0.338 0.4
0.45 12.924 0.338 0.34
0.408 12.897 0.338 0.48
0.368 12.892 0.338 0.41
0.327 12.889 0.338 0.39
0.286 12.874 0.337 0.46
0.266 12.891 0.338 0.39
0.226 12.895 0.338 0.45
0.186 12.968 0.338 0.42
0.217 20.71 0.417 0.36
0.152 20.734 0.417 0.51
0.087 20.775 0.417 0.35
0.022 20.787 0.417 0.36
-0.044 20.809 0.418 0.37
-0.076 20.805 0.417 0.36
-0.142 20.81 0.418 0.37
-0.207 20.828 0.418 0.38
-0.273 20.827 0.418 0.38
-0.338 20.844 0.418 0.38
-0.404 20.849 0.418 0.38
-0.469 20.844 0.418 0.37
-0.503 20.861 0.418 0.37
-0.568 20.863 0.418 0.38
-0.635 20.885 0.418 0.37
-0.7 20.889 0.418 0.37
-0.766 20.891 0.419 0.37
-0.833 20.908 0.419 0.37
-0.898 20.908 0.419 0.34
-0.965 20.929 0.419 0.36
-0.999 20.937 0.419 0.32
-1.065 20.956 0.419 0.3
-1.128 20.899 0.419 0.4
-1.194 20.897 0.419 0.41
-1.261 20.917 0.419 0.38
-1.328 20.923 0.419 0.4
-1.36 20.917 0.419 0.45
-1.428 20.94 0.419 0.36
-1.494 20.948 0.419 0.44
-1.561 20.951 0.42 0.38
-1.627 20.948 0.42 0.46
-1.695 20.969 0.42 0.36
-1.76 20.961 0.42 0.43
-1.83 20.993 0.42 0.31
-1.861 20.975 0.42 0.58
-1.946 21.176 0.422 0.0
-1.999 21.022 0.421 0.11
-5.469 55.233 0.768 0.1
-5.646 55.251 0.768 0.16
-5.824 55.273 0.769 0.1
-6.001 55.29 0.769 0.16
-6.092 55.313 0.769 0.1
-6.27 55.333 0.77 0.0
-6.017 51.662 0.733 0.05
-6.628 55.382 0.771 0.16
-6.804 55.379 0.771 0.0
-6.986 55.419 0.772 0.0
-6.693 51.795 0.735 0.0
-7.346 55.459 0.772 0.06
-7.439 55.495 0.773 0.09
-7.62 55.521 0.773 0.0
-7.798 55.522 0.774 0.07
-7.981 55.555 0.774 0.0
-8.163 55.581 0.775 0.0
-7.653 51.006 0.728 0.0
-8.528 55.629 0.776 0.08
-8.627 55.693 0.777 0.0
-8.8 55.656 0.777 0.0
-8.309 51.513 0.734 0.0
-7.851 47.728 0.696 0.0
-8.006 47.735 0.696 0.0
-8.253 48.277 0.702 0.0
-8.527 48.952 0.709 0.0
-8.291 47.162 0.691 0.0
-8.394 46.886 0.689 0.0
-8.557 46.946 0.689 0.0
-8.701 46.901 0.689 0.0
-8.835 46.801 0.688 0.0
-8.977 46.747 0.688 0.0
-7.641 39.149 0.61 0.0
-7.692 39.084 0.61 0.0
-7.8 38.987 0.609 0.0
-8.301 40.169 0.622 0.0
-8.418 40.1 0.621 0.0
-8.5 39.868 0.619 0.0
-8.594 39.696 0.618 0.0
-10.202 46.399 0.687 0.0
-10.266 46.344 0.687 0.0
-10.465 46.55 0.689 0.0
-10.65 46.686 0.691 0.0
-10.15 43.867 0.662 0.0
-9.386 39.999 0.622 0.0
-9.517 39.993 0.623 0.0
-9.338 38.703 0.61 0.12
-9.411 38.739 0.61 0.11
-5.693 23.163 0.448 0.37
-5.763 23.132 0.448 0.2
-5.851 23.176 0.449 0.3
-5.987 23.403 0.451 0.2
-5.941 22.924 0.447 0.29
-6.129 23.346 0.451 0.39
-6.21 23.504 0.453 0.2
-6.291 23.51 0.453 0.16
-6.291 23.218 0.45 0.21
-6.343 23.123 0.45 0.39
-6.389 23.006 0.449 0.18
-6.504 23.138 0.45 0.42
-6.69 23.516 0.454 0.12
-7.214 25.051 0.471 0.31
-6.933 23.937 0.459 0.0
-6.982 23.829 0.458 0.12
-7.415 25.011 0.471 0.21
-7.487 24.964 0.471 0.3
-7.481 24.387 0.465 0.47
-7.714 24.866 0.47 0.23
-7.576 24.289 0.464 0.17
-7.597 24.091 0.463 0.3
-7.497 23.519 0.457 0.16
-7.519 23.333 0.455 0.26
-7.544 23.163 0.453 0.27
-7.617 23.139 0.453 0.21
-7.651 23.0 0.452 0.28
-7.637 22.838 0.451 0.24
-7.661 22.673 0.449 0.29
-7.347 21.524 0.437 0.32
-7.411 21.491 0.437 0.25
-7.477 21.464 0.437 0.0
-7.537 21.419 0.437 0.1
-7.491 21.077 0.433 0.18
-7.852 21.98 0.443 0.29
-7.994 22.157 0.445 0.23
-7.847 21.54 0.439 0.32
-7.771 21.125 0.435 0.29
-7.956 21.421 0.438 0.16
-8.044 21.45 0.439 0.53
-8.265 21.829 0.443 0.16
-7.993 20.916 0.434 0.36
-8.346 21.733 0.443 0.15
-8.34 21.515 0.44 0.43
-8.276 21.156 0.437 0.29
-8.41 21.299 0.439 0.2
-8.573 21.514 0.441 0.29
-8.733 21.715 0.444 0.32
-8.858 21.828 0.445 0.28
-8.643 21.203 0.439 0.24
-10.024 24.363 0.473 0.15
-8.84 21.302 0.44 0.12
-8.806 21.034 0.438 0.32
-8.96 21.214 0.44 0.21
-9.188 21.565 0.444 0.33
-9.362 21.782 0.447 0.27
-9.914 22.962 0.46 0.14
-9.542 21.915 0.449 0.47
-9.152 20.842 0.437 0.25
-9.229 20.839 0.438 0.2
-9.305 20.835 0.438 0.34
-9.737 21.617 0.447 0.2
-9.525 20.971 0.44 0.33
-10.219 22.31 0.455 0.15
-10.282 22.353 0.456 0.13
-9.71 20.941 0.441 0.47
-9.949 21.28 0.445 0.23
-10.435 22.134 0.455 0.26
-9.844 20.715 0.439 0.38
-11.133 23.233 0.468 0.14
-9.962 20.629 0.439 0.17
-9.962 20.547 0.438 0.54
-10.91 22.319 0.458 0.12
-10.986 22.295 0.458 0.28
-11.116 22.382 0.46 0.0
-16.632 33.197 0.582 0.13
-11.872 23.527 0.474 0.18
-11.946 23.492 0.474 0.0
-12.037 23.396 0.473 0.0
-19.2 36.999 0.628 0.0
-17.585 33.634 0.591 0.0
-17.689 33.575 0.591 0.0
-28.459 53.575 0.82 0.0
-17.924 33.509 0.591 0.04
-17.935 33.404 0.59 0.09
-18.069 33.4 0.591 0.0
-18.117 33.239 0.59 0.0
-18.294 33.314 0.591 0.0
-18.394 33.004 0.589 0.0
-18.45 32.861 0.588 0.0
-29.712 52.501 0.817 0.04
-17.306 30.489 0.561 0.17
-17.375 30.39 0.561 0.11
-17.524 30.427 0.562 0.0
-17.665 30.449 0.563 0.13
-17.754 30.383 0.563 0.0
-17.816 30.271 0.562 0.0
-30.497 51.41 0.811 0.0
-30.638 51.463 0.812 0.0
-30.968 51.648 0.816 0.0
-31.838 52.721 0.83 0.0
-31.968 52.563 0.829 0.0
-31.495 51.422 0.816 0.0
-31.772 51.51 0.819 0.0
-32.123 51.714 0.822 0.0
-32.285 51.793 0.824 0.0
-31.94 50.883 0.814 0.0
-31.997 50.62 0.812 0.0
-32.206 50.599 0.813 0.0
-32.89 51.315 0.823 0.0
-33.02 51.165 0.822 0.0
-33.118 50.964 0.821 0.0
-33.208 50.752 0.82 0.0
-33.187 50.203 0.815 0.0
-9.504 13.251 0.372 0.42
-9.489 13.186 0.371 0.36
-9.509 13.127 0.371 0.31
-9.555 13.103 0.371 0.39
-9.597 13.075 0.371 0.37
-9.648 13.058 0.371 0.38
-9.698 13.04 0.371 0.4
-9.769 13.049 0.372 0.4
-9.809 13.06 0.372 0.53
-9.866 13.049 0.373 0.12
-13.352 17.531 0.43 0.32
-13.621 17.767 0.433 0.19
-13.882 17.989 0.437 0.24
-13.941 17.949 0.437 0.26
-13.971 17.872 0.436 0.34
-14.096 17.973 0.438 0.3
-14.291 18.104 0.44 0.22
-14.254 17.942 0.439 0.26
-14.231 17.797 0.438 0.2
-14.319 17.793 0.438 0.32
-14.501 17.903 0.44 0.2
-14.994 18.391 0.447 0.23
-14.753 18.038 0.443 0.16
-14.953 18.166 0.445 0.27
-14.47 17.468 0.436 0.14
-14.351 17.216 0.434 0.5
-14.464 17.241 0.435 0.25
-14.488 17.159 0.434 0.22
-14.709 17.31 0.437 0.21
-14.65 17.131 0.435 0.18
-14.982 17.463 0.44 0.17
-14.831 17.178 0.437 0.19
-14.412 16.589 0.429 0.39
-14.994 17.148 0.437 0.2
-15.242 17.321 0.44 0.3
-15.205 17.17 0.439 0.23
-15.067 16.907 0.436 0.13
-14.697 16.441 0.43 0.14
-14.748 16.394 0.43 0.24
-14.749 16.292 0.429 0.21
-14.986 16.45 0.432 0.47
-15.158 16.534 0.434 0.23
-15.194 16.468 0.434 0.25
-15.171 16.34 0.433 0.25
-15.091 16.204 0.431 0.36
-15.194 16.212 0.432 0.27
-15.257 16.177 0.432 0.18
-15.228 16.045 0.431 0.34
-15.406 16.13 0.433 0.18
-15.444 16.068 0.432 0.25
-15.947 16.486 0.439 0.42
-16.169 16.663 0.442 0.22
-15.556 15.932 0.432 0.28
-15.61 15.888 0.432 0.3
-15.685 15.864 0.433 0.29
-15.666 15.745 0.432 0.2
-15.709 15.69 0.432 0.46
-15.781 15.663 0.432 0.26
-26.378 25.992 0.581 0.23
-26.346 25.879 0.58 0.2
-26.362 25.734 0.579 0.39
-26.358 25.569 0.578 0.25
-26.379 25.429 0.577 0.25
-26.369 25.26 0.576 0.24
-26.384 25.115 0.575 0.21
-26.397 24.97 0.574 0.42
-26.338 24.837 0.573 0.25
-26.358 24.7 0.572 0.25
-26.361 24.547 0.571 0.2
-26.36 24.392 0.57 0.42
-26.361 24.24 0.569 0.25
-26.365 24.091 0.568 0.26
-26.363 23.939 0.567 0.27
-26.382 23.805 0.566 0.27
-26.348 23.699 0.565 0.28
-26.345 23.547 0.564 0.27
-26.353 23.406 0.563 0.27
-26.357 23.262 0.562 0.27
-26.365 23.122 0.562 0.29
-26.37 22.98 0.561 0.27
-26.371 22.836 0.56 0.28
-26.328 22.727 0.559 0.25
-26.345 22.597 0.558 0.29
-26.342 22.452 0.557 0.29
-26.338 22.306 0.556 0.26
-26.362 22.184 0.555 0.27
-26.376 22.055 0.555 0.28
-26.375 21.914 0.554 0.29
-26.338 21.813 0.553 0.29
-26.345 21.68 0.552 0.28
-26.352 21.548 0.551 0.29
-26.356 21.413 0.55 0.29
-26.345 21.267 0.549 0.28
-26.361 21.143 0.549 0.3
-26.369 21.014 0.548 0.29
-26.327 20.913 0.547 0.3
-26.329 20.781 0.546 0.3
-26.343 20.657 0.546 0.3
-26.327 20.512 0.544 0.28
-26.342 20.391 0.544 0.29
-26.354 20.268 0.543 0.29
-26.343 20.128 0.542 0.29
-26.326 20.051 0.542 0.29
-26.324 19.918 0.541 0.29
-26.329 19.792 0.54 0.29
-26.335 19.668 0.539 0.29
-26.332 19.537 0.539 0.29
-26.33 19.408 0.538 0.3
-26.344 19.291 0.537 0.3
-26.326 19.151 0.536 0.29
-26.309 19.075 0.536 0.31
-26.317 18.955 0.535 0.31
-26.332 18.841 0.534 0.3
-26.336 18.719 0.534 0.3
-26.335 18.595 0.533 0.3
-26.348 18.48 0.532 0.32
-26.325 18.341 0.531 0.3
-26.303 18.264 0.531 0.31
-26.304 18.143 0.53 0.3
-26.318 18.031 0.53 0.32
-26.322 17.912 0.529 0.35
-26.368 17.822 0.529 0.25
-26.524 17.806 0.53 0.25
-26.671 17.784 0.531 0.2
-26.832 17.83 0.533 0.2
-27.03 17.84 0.534 0.38
-27.191 17.824 0.536 0.21
-27.371 17.819 0.537 0.34
-27.545 17.809 0.539 0.2
-27.739 17.81 0.54 0.24
-27.903 17.792 0.542 0.2
-28.066 17.834 0.543 0.22
-28.24 17.82 0.545 0.19
-28.453 17.83 0.547 0.21
-28.623 17.811 0.548 0.2
-28.824 17.81 0.55 0.22
-29.009 17.799 0.551 0.19
-29.224 17.805 0.553 0.21
-29.399 17.785 0.554 0.19
-29.59 17.837 0.556 0.3
-29.8 17.836 0.558 0.21
-29.965 17.807 0.559 0.19
-30.205 17.821 0.562 0.3
-30.392 17.803 0.563 0.0
-30.489 17.731 0.564 0.0
-27.124 15.664 0.524 0.11
-27.177 15.637 0.524 0.0
-30.629 17.492 0.564 0.0
-30.639 17.37 0.563 0.0
-30.634 17.241 0.562 0.0
-30.644 17.12 0.562 0.0
-30.654 16.999 0.561 0.0
-30.648 16.87 0.561 0.0
-26.361 14.461 0.511 0.14
-26.327 14.335 0.51 0.17
-26.375 14.254 0.51 0.0
-26.445 14.184 0.51 0.0
-30.556 16.262 0.557 0.0
-30.604 16.164 0.557 0.09
-30.649 16.065 0.557 0.09
-30.634 15.995 0.556 0.14
-30.634 15.873 0.556 0.09
-30.632 15.751 0.555 0.14
-30.637 15.632 0.555 0.09
-30.636 15.51 0.554 0.09
-30.656 15.399 0.554 0.0
-30.654 15.278 0.553 0.0
-30.834 15.307 0.555 0.0
-31.049 15.292 0.557 0.0
-31.301 15.295 0.559 0.0
-31.526 15.281 0.561 0.0
-31.757 15.271 0.563 0.0
-32.024 15.275 0.566 0.0
-32.256 15.261 0.568 0.0
-32.501 15.252 0.57 0.0
-32.723 15.293 0.572 0.0
-32.976 15.285 0.574 0.0
-33.231 15.277 0.577 0.0
-39.1 17.821 0.641 0.0
-39.358 17.79 0.644 0.0
-39.689 17.789 0.647 0.04
-39.986 17.772 0.649 0.0
-40.797 17.902 0.657 0.03
-41.02 17.846 0.659 0.2
-41.298 17.813 0.662 0.11
-41.608 17.791 0.664 0.0
-41.829 17.731 0.666 0.0
-41.897 17.604 0.666 0.0
-41.89 17.524 0.666 0.0
-37.486 15.546 0.617 0.0
-37.562 15.44 0.618 0.06
-41.872 17.055 0.664 0.08
-41.873 16.902 0.663 0.09
-41.881 16.753 0.663 0.09
-41.884 16.601 0.662 0.09
-41.865 16.518 0.662 0.15
-41.868 16.367 0.661 0.09
-41.867 16.215 0.661 0.14
-41.871 16.066 0.66 0.1
-41.912 15.931 0.66 0.0
-41.867 15.763 0.659 0.0
-41.848 15.606 0.659 0.1
-41.852 15.533 0.658 0.09
-41.839 15.379 0.658 0.0
-41.942 15.267 0.658 0.0
-42.328 15.257 0.662 0.0
-42.747 15.256 0.666 0.0
-43.127 15.239 0.669 0.0
-43.573 15.242 0.674 0.0
-43.985 15.231 0.678 0.0
-44.381 15.291 0.682 0.0
-52.301 17.831 0.766 0.0
-52.744 17.796 0.77 0.0
-53.027 17.707 0.772 0.0
-53.111 17.549 0.772 0.0
-53.107 17.363 0.772 0.0
-53.121 17.183 0.771 0.0
-53.089 17.081 0.771 0.0
-53.1 16.901 0.77 0.0
-53.113 16.721 0.77 0.0
-48.431 15.083 0.72 0.0
-48.824 15.037 0.723 0.0
-53.129 16.177 0.768 0.0
-53.135 15.997 0.768 0.0
-53.101 15.896 0.767 0.0
-53.099 15.714 0.767 0.0
-53.096 15.532 0.766 0.0
-53.091 15.349 0.766 0.0
-53.023 15.15 0.764 0.0
-61.748 16.906 0.854 0.0
-62.892 17.006 0.865 0.0
-63.675 17.003 0.873 0.0
-64.597 17.032 0.882 0.0
-66.045 16.97 0.896 0.0
-59.036 14.876 0.822 0.0
-69.338 17.004 0.929 0.0
-70.277 17.001 0.938 0.0
-70.43 16.803 0.939 0.0
-70.433 16.57 0.938 0.0
-70.403 16.447 0.938 0.0
-70.407 16.215 0.937 0.0
-70.497 16.002 0.938 0.0
-66.339 14.404 0.893 0.0
-66.292 14.176 0.892 0.0
-66.743 14.053 0.896 0.0
-77.637 -9.922 0.998 0.0
-77.623 -10.168 0.998 0.0
-77.355 -10.627 0.996 0.0
-77.433 -10.886 0.997 0.0
-76.54 -11.374 0.989 0.0
-76.419 -12.093 0.989 0.0
-53.389 -8.785 0.754 0.0
-53.36 -8.866 0.754 0.0
-53.304 -9.029 0.753 0.0
-53.38 -9.215 0.755 0.0
-53.376 -9.387 0.755 0.0
-53.191 -9.527 0.753 0.0
-49.568 -9.037 0.716 0.0
-53.156 -9.865 0.753 0.0
-49.545 -9.274 0.717 0.0
-49.555 -9.437 0.717 0.0
-48.981 -9.487 0.711 0.0
-48.72 -9.595 0.709 0.0
-48.387 -9.688 0.706 0.0
-48.274 -9.823 0.705 0.0
-48.229 -9.972 0.705 0.0
-48.501 -10.187 0.708 0.0
-48.321 -10.228 0.706 0.0
-47.86 -10.288 0.702 0.0
-47.339 -10.331 0.697 0.0
-47.322 -10.483 0.697 0.0
-48.401 -10.882 0.708 0.0
-46.289 -10.789 0.687 0.0
-46.22 -10.926 0.687 0.0
-46.183 -11.071 0.687 0.0
-45.777 -11.583 0.684 0.0
-45.716 -11.644 0.684 0.0
-47.306 -12.209 0.701 0.0
-47.149 -12.326 0.7 0.0
-47.35 -12.538 0.702 0.0
-47.567 -12.756 0.705 0.0
-50.659 -13.757 0.738 0.0
-50.611 -13.915 0.738 0.0
-50.618 -14.003 0.738 0.0
-50.541 -14.153 0.738 0.0
-50.485 -14.308 0.737 0.0
-50.53 -14.492 0.738 0.0
-56.484 -16.395 0.801 0.0
-56.593 -16.62 0.803 0.0
-56.347 -16.74 0.801 0.0
-56.223 -16.896 0.8 0.0
-56.292 -17.013 0.801 0.0
-59.686 -18.451 0.838 0.0
-56.906 -17.786 0.81 0.0
-70.039 -22.381 0.95 0.0
-55.916 -18.056 0.801 0.0
-55.87 -18.139 0.801 0.0
-55.863 -18.33 0.801 0.0
-47.585 -15.776 0.714 0.0
-47.444 -15.895 0.713 0.0
-47.721 -16.155 0.716 0.0
-48.065 -16.609 0.721 0.0
-47.461 -16.651 0.715 0.0
-47.509 -16.835 0.717 0.0
-46.424 -16.614 0.705 0.0
-46.071 -16.651 0.702 0.0
-46.114 -16.831 0.703 0.0
-45.838 -16.893 0.701 0.0
-45.738 -16.938 0.7 0.0
-42.991 -16.073 0.671 0.0
-45.528 -17.186 0.699 0.0
-45.414 -17.306 0.698 0.0
-45.538 -17.518 0.7 0.0
-45.53 -17.679 0.701 0.0
-63.604 -25.054 0.898 0.0
-45.15 -17.941 0.698 0.0
-45.253 -18.147 0.7 0.0
-45.247 -18.31 0.7 0.0
-63.86 -26.087 0.904 0.0
-63.785 -26.29 0.904 0.0
-46.654 -19.825 0.719 0.0
-46.558 -19.957 0.719 0.0
-46.54 -20.122 0.72 0.0
-46.573 -20.311 0.721 0.0
-46.407 -20.412 0.719 0.0
-46.394 -20.58 0.72 0.0
-33.467 -15.027 0.578 0.12
-33.141 -15.006 0.575 0.28
-33.145 -15.133 0.575 0.0
-33.039 -15.211 0.575 0.0
-33.04 -15.337 0.575 0.0
-32.932 -15.413 0.575 0.07
-32.529 -15.287 0.57 0.13
-32.398 -15.349 0.569 0.0
-32.453 -15.5 0.571 0.0
-32.986 -15.883 0.577 0.0
-29.795 -14.459 0.542 0.1
-29.717 -14.537 0.542 0.0
-29.707 -14.648 0.542 0.0
-31.246 -15.53 0.56 0.06
-31.302 -15.619 0.561 0.09
-31.076 -15.629 0.559 0.19
-30.695 -15.558 0.555 0.11
-30.587 -15.624 0.554 0.08
-30.41 -15.654 0.553 0.0
-28.032 -14.539 0.526 0.09
-27.802 -14.531 0.524 0.16
-27.825 -14.599 0.525 0.24
-27.746 -14.668 0.524 0.21
-27.692 -14.752 0.524 0.23
-27.44 -14.728 0.522 0.21
-27.33 -14.78 0.521 0.22
-27.198 -14.818 0.52 0.15
-26.942 -14.789 0.518 0.35
-26.655 -14.685 0.515 0.17
-26.511 -14.715 0.514 0.27
-26.628 -14.89 0.516 0.18
-26.346 -14.841 0.513 0.23
-26.259 -14.901 0.512 0.32
-26.134 -14.938 0.511 0.17
-25.722 -14.809 0.507 0.36
-25.647 -14.82 0.507 0.18
-25.393 -14.779 0.504 0.36
-25.365 -14.87 0.504 0.23
-25.043 -14.787 0.501 0.2
-24.886 -14.8 0.5 0.36
-24.745 -14.821 0.499 0.25
-24.392 -14.714 0.495 0.19
-24.155 -14.623 0.493 0.39
-23.937 -14.593 0.491 0.23
-23.891 -14.668 0.491 0.22
-23.695 -14.651 0.489 0.36
-23.333 -14.528 0.485 0.22
-23.345 -14.637 0.486 0.23
-23.079 -14.572 0.483 0.21
-22.818 -14.507 0.48 0.19
-22.748 -14.512 0.48 0.41
-22.579 -14.505 0.478 0.25
-22.527 -14.571 0.478 0.26
-22.347 -14.554 0.477 0.28
-22.182 -14.547 0.475 0.26
-22.087 -14.583 0.475 0.22
-21.774 -14.475 0.471 0.23
-21.652 -14.442 0.47 0.45
-21.416 -14.382 0.468 0.21
-21.293 -14.396 0.467 0.27
-21.189 -14.424 0.466 0.32
-21.083 -14.448 0.466 0.29
-20.876 -14.403 0.464 0.27
-20.746 -14.409 0.462 0.3
-20.556 -14.325 0.46 0.28
-20.375 -14.294 0.459 0.32
-20.34 -14.365 0.459 0.27
-20.13 -14.311 0.457 0.35
-19.997 -14.312 0.456 0.35
-19.701 -14.193 0.453 0.23
-19.654 -14.254 0.453 0.27
-19.59 -14.254 0.452 0.34
-19.458 -14.251 0.451 0.35
-19.31 -14.236 0.45 0.32
-19.167 -14.224 0.448 0.28
-19.164 -14.316 0.449 0.32
-18.923 -14.228 0.446 0.29
-18.79 -14.221 0.445 0.29
-18.602 -14.124 0.443 0.29
-18.374 -14.041 0.441 0.31
-18.22 -14.015 0.44 0.34
-18.059 -13.981 0.438 0.3
-17.966 -14.0 0.437 0.31
-18.014 -14.128 0.439 0.34
-17.74 -14.003 0.436 0.36
-17.619 -13.953 0.434 0.27
-17.474 -13.927 0.433 0.29
-17.34 -13.909 0.432 0.36
-17.277 -13.948 0.432 0.27
-17.173 -13.953 0.431 0.35
-17.129 -14.007 0.431 0.34
-17.082 -14.058 0.431 0.37
-17.011 -14.09 0.43 0.35
-16.923 -14.062 0.43 0.31
-16.792 -14.042 0.428 0.29
-16.654 -14.016 0.427 0.37
-16.576 -14.039 0.427 0.29
-16.47 -14.038 0.426 0.39
-16.374 -14.046 0.425 0.29
-16.288 -14.06 0.425 0.36
-16.27 -14.09 0.425 0.31
-16.177 -14.099 0.424 0.29
-16.075 -14.098 0.423 0.32
-16.032 -14.15 0.423 0.35
-15.971 -14.185 0.423 0.37
-15.861 -14.177 0.422 0.34
-15.713 -14.134 0.421 0.28
-15.59 -14.068 0.419 0.34
-15.531 -14.103 0.419 0.31
-15.426 -14.096 0.418 0.4
-15.389 -14.152 0.419 0.36
-15.255 -14.117 0.417 0.28
-15.185 -14.14 0.417 0.33
-15.115 -14.164 0.417 0.29
-14.99 -14.091 0.415 0.39
-14.906 -14.101 0.415 0.31
-14.814 -14.102 0.414 0.38
-14.79 -14.168 0.414 0.35
-14.702 -14.172 0.414 0.31
-14.666 -14.227 0.414 0.39
-14.55 -14.203 0.413 0.38
-14.458 -14.157 0.412 0.27
-14.375 -14.165 0.411 0.31
-14.41 -14.289 0.412 0.45
-14.257 -14.226 0.411 0.27
-14.148 -14.206 0.41 0.25
-14.041 -14.188 0.409 0.29
-13.876 -14.109 0.407 0.35
-13.832 -14.108 0.407 0.32
-13.821 -14.185 0.407 0.33
-13.709 -14.16 0.406 0.37
-13.636 -14.172 0.406 0.34
-13.544 -14.166 0.405 0.36
-13.494 -14.203 0.405 0.32
-13.379 -14.171 0.404 0.37
-13.359 -14.239 0.405 0.3
-13.341 -14.264 0.405 0.29
-13.285 -14.294 0.404 0.38
-13.251 -14.348 0.405 0.45
-13.209 -14.392 0.405 0.35
-13.099 -14.363 0.404 0.3
-13.038 -14.386 0.403 0.25
-12.931 -14.359 0.403 0.21
-12.786 -14.242 0.401 0.33
-12.67 -14.203 0.4 0.33
-12.536 -14.141 0.398 0.36
-12.46 -14.144 0.398 0.32
-12.42 -14.189 0.398 0.32
-12.407 -14.264 0.398 0.29
-12.386 -14.33 0.399 0.48
-12.385 -14.376 0.399 0.35
-12.296 -14.363 0.398 0.21
-12.216 -14.36 0.398 0.21
-12.141 -14.363 0.397 0.34
-12.065 -14.364 0.397 0.3
-11.994 -14.372 0.396 0.31
-11.925 -14.38 0.396 0.31
-11.872 -14.362 0.396 0.3
-11.806 -14.374 0.395 0.27
-11.724 -14.366 0.395 0.35
-11.643 -14.358 0.394 0.27
-11.57 -14.36 0.394 0.3
-11.501 -14.366 0.393 0.32
-11.43 -14.37 0.393 0.35
-11.379 -14.351 0.392 0.31
-11.308 -14.354 0.392 0.28
-11.248 -14.371 0.392 0.37
-11.171 -14.365 0.391 0.37
-11.099 -14.365 0.391 0.28
-11.035 -14.376 0.39 0.32
-10.967 -14.38 0.39 0.4
-10.909 -14.351 0.389 0.3
-10.851 -14.368 0.389 0.38
-10.78 -14.367 0.389 0.35
-10.696 -14.349 0.388 0.32
-10.64 -14.368 0.388 0.3
-10.569 -14.366 0.387 0.35
-10.503 -14.37 0.387 0.34
-10.422 -14.354 0.387 0.33
-10.383 -14.348 0.386 0.34
-10.32 -14.355 0.386 0.34
-10.255 -14.359 0.386 0.42
-10.173 -14.339 0.385 0.22
-10.117 -14.356 0.385 0.24
-10.04 -14.342 0.384 0.2
-9.988 -14.364 0.384 0.37
-9.945 -14.35 0.384 0.36
-9.882 -14.355 0.383 0.3
-9.818 -14.357 0.383 0.28
-9.75 -14.355 0.383 0.23
-9.682 -14.352 0.382 0.37
-9.615 -14.35 0.382 0.31
-9.551 -14.351 0.381 0.38
-9.505 -14.331 0.381 0.3
-9.454 -14.351 0.381 0.36
-9.38 -14.337 0.38 0.29
-9.325 -14.351 0.38 0.35
-9.26 -14.349 0.38 0.29
-9.197 -14.351 0.38 0.37
-9.132 -14.348 0.379 0.3
-9.097 -14.342 0.379 0.34
-9.034 -14.343 0.379 0.35
-8.97 -14.341 0.378 0.3
-8.908 -14.342 0.378 0.31
-8.843 -14.337 0.377 0.26
-8.784 -14.341 0.377 0.28
-8.728 -14.351 0.377 0.46
-8.694 -14.346 0.377 0.32
-8.634 -14.348 0.376 0.29
-8.564 -14.334 0.376 0.29
-8.511 -14.347 0.376 0.29
-8.454 -14.353 0.376 0.29
-8.392 -14.351 0.375 0.25
-8.326 -14.341 0.375 0.27
-8.292 -14.334 0.375 0.3
-8.232 -14.334 0.374 0.3
-8.174 -14.337 0.374 0.27
-8.118 -14.343 0.374 0.3
-8.062 -14.349 0.374 0.39
-8.0 -14.345 0.373 0.39
-7.937 -14.337 0.373 0.36
-7.91 -14.34 0.373 0.32
-7.843 -14.327 0.372 0.39
-7.789 -14.334 0.372 0.35
-7.733 -14.339 0.372 0.32
-7.68 -14.347 0.372 0.34
-7.624 -14.35 0.371 0.38
-7.56 -14.338 0.371 0.32
-7.503 -14.339 0.371 0.33
-7.469 -14.329 0.371 0.38
-7.408 -14.321 0.37 0.33
-7.359 -14.337 0.37 0.33
-7.301 -14.335 0.37 0.35
-7.246 -14.338 0.37 0.31
-7.193 -14.345 0.369 0.3
-7.128 -14.326 0.369 0.31
-7.095 -14.318 0.369 0.3
-7.044 -14.327 0.369 0.32
-6.985 -14.32 0.368 0.29
-6.93 -14.321 0.368 0.31
-6.884 -14.341 0.368 0.34
-6.82 -14.322 0.368 0.3
-6.772 -14.338 0.368 0.31
-6.744 -14.336 0.367 0.29
-6.684 -14.327 0.367 0.35
-6.634 -14.337 0.367 0.33
-6.58 -14.337 0.367 0.31
-6.523 -14.331 0.366 0.38
-6.474 -14.342 0.366 0.35
-6.419 -14.342 0.366 0.22
-6.382 -14.319 0.366 0.46
-6.324 -14.308 0.365 0.25
-6.28 -14.332 0.365 0.23
-6.224 -14.326 0.365 0.27
-6.169 -14.321 0.365 0.31
-6.12 -14.331 0.365 0.31
-6.065 -14.328 0.364 0.3
-6.041 -14.332 0.364 0.28
-5.987 -14.331 0.364 0.34
-5.932 -14.326 0.364 0.29
-5.883 -14.335 0.364 0.32
-5.824 -14.318 0.363 0.26
-5.775 -14.327 0.363 0.38
-5.73 -14.343 0.363 0.37
-5.697 -14.328 0.363 0.29
-5.644 -14.325 0.363 0.31
-5.594 -14.33 0.363 0.34
-5.548 -14.344 0.363 0.29
-5.488 -14.322 0.362 0.26
-5.436 -14.32 0.362 0.32
-5.383 -14.317 0.362 0.3
-5.337 -14.33 0.362 0.39
-5.307 -14.319 0.362 0.38
-3.429 -9.315 0.308 0.09
-3.397 -9.32 0.308 0.16
-3.354 -9.291 0.307 0.64
-3.331 -9.32 0.307 0.25
-5.056 -14.329 0.361 0.24
-5.006 -14.33 0.361 0.34
-4.978 -14.323 0.36 0.34
-4.924 -14.312 0.36 0.3
-4.875 -14.314 0.36 0.37
-4.83 -14.331 0.36 0.33
-4.783 -14.339 0.36 0.34
-4.733 -14.34 0.36 0.42
-4.675 -14.315 0.359 0.3
-4.652 -14.319 0.359 0.31
-4.602 -14.318 0.359 0.31
-4.554 -14.323 0.359 0.32
-4.508 -14.333 0.359 0.33
-4.46 -14.338 0.359 0.32
-4.413 -14.346 0.359 0.36
-4.36 -14.335 0.359 0.38
-4.335 -14.332 0.359 0.34
-4.282 -14.319 0.358 0.3
-4.239 -14.34 0.358 0.32
-4.189 -14.338 0.358 0.35
-4.137 -14.326 0.358 0.31
-4.092 -14.339 0.358 0.34
-4.04 -14.326 0.358 0.29
-4.015 -14.323 0.358 0.33
-3.967 -14.326 0.357 0.34
-3.917 -14.321 0.357 0.34
-3.872 -14.333 0.357 0.37
-3.821 -14.32 0.357 0.31
-3.776 -14.332 0.357 0.3
-3.726 -14.327 0.357 0.28
-3.699 -14.313 0.357 0.31
-3.65 -14.311 0.357 0.31
-3.603 -14.313 0.356 0.33
-3.558 -14.326 0.356 0.37
-3.511 -14.327 0.356 0.25
-3.459 -14.311 0.356 0.31
-3.413 -14.314 0.356 0.31
-3.369 -14.329 0.356 0.3
-3.344 -14.324 0.356 0.33
-3.297 -14.327 0.356 0.34
-3.248 -14.32 0.356 0.34
-3.198 -14.306 0.355 0.35
-3.154 -14.322 0.355 0.33
-3.101 -14.295 0.355 0.34
-3.079 -14.302 0.355 0.29
-3.035 -14.313 0.355 0.36
-2.988 -14.317 0.355 0.38
-2.939 -14.304 0.355 0.31
-2.896 -14.325 0.355 0.25
-2.847 -14.311 0.355 0.36
-2.803 -14.324 0.355 0.38
-2.777 -14.314 0.355 0.36
-2.731 -14.315 0.355 0.36
-2.683 -14.306 0.354 0.35
-2.639 -14.322 0.354 0.36
-2.593 -14.322 0.354 0.36
-2.544 -14.307 0.354 0.39
-2.498 -14.313 0.354 0.37
-2.453 -14.317 0.354 0.39
-2.42 -14.263 0.353 0.39
-2.374 -14.259 0.353 0.33
-2.329 -14.264 0.353 0.31
-2.28 -14.248 0.353 0.29
-2.236 -14.257 0.353 0.29
-2.189 -14.25 0.353 0.3
-2.142 -14.243 0.353 0.32
-2.12 -14.248 0.353 0.34
-2.075 -14.257 0.353 0.33
-2.028 -14.244 0.353 0.3
-1.984 -14.256 0.353 0.3
-1.935 -14.234 0.352 0.3
-1.891 -14.242 0.352 0.24
-1.852 -14.294 0.353 0.31
-1.831 -14.309 0.353 0.36
-1.786 -14.312 0.353 0.42
-1.738 -14.296 0.353 0.35
-1.693 -14.299 0.353 0.37
-1.649 -14.315 0.353 0.37
-1.603 -14.312 0.353 0.37
-1.558 -14.311 0.353 0.37
-1.535 -14.311 0.353 0.38
-1.487 -14.288 0.352 0.4
-1.444 -14.315 0.353 0.34
-1.4 -14.321 0.353 0.36
-1.351 -14.292 0.352 0.43
-1.308 -14.308 0.352 0.4
-1.264 -14.326 0.353 0.32
-1.24 -14.308 0.352 0.31
-1.196 -14.327 0.353 0.31
-1.148 -14.297 0.352 0.34
-1.104 -14.303 0.352 0.24
-1.06 -14.33 0.352 0.39
-1.013 -14.297 0.352 0.28
-0.968 -14.297 0.352 0.36
-0.923 -14.302 0.352 0.29
-0.901 -14.319 0.352 0.35
-0.856 -14.306 0.352 0.29
-0.812 -14.328 0.352 0.32
-0.766 -14.313 0.352 0.3
-0.721 -14.311 0.352 0.35
-0.676 -14.323 0.352 0.32
-0.631 -14.319 0.352 0.31
-0.608 -14.304 0.352 0.3
-0.563 -14.306 0.352 0.28
-0.518 -14.31 0.352 0.3
-0.473 -14.301 0.352 0.28
-0.428 -14.311 0.352 0.34
-0.382 -14.294 0.352 0.26
-0.338 -14.315 0.352 0.29
-0.315 -14.316 0.352 0.39
-0.271 -14.321 0.352 0.23
-0.226 -14.321 0.352 0.39
-0.181 -14.324 0.352 0.3
-0.136 -14.319 0.352 0.25
-0.091 -14.325 0.352 0.43
-0.046 -14.329 0.352 0.32
-0.023 -14.321 0.352 0.38
0.022 -14.311 0.352 0.27
0.067 -14.303 0.352 0.29
0.112 -14.303 0.352 0.38
0.157 -14.298 0.352 0.31
0.202 -14.312 0.352 0.3
0.246 -14.297 0.352 0.31
0.269 -14.301 0.352 0.31
0.314 -14.316 0.352 0.32
0.359 -14.317 0.352 0.35
0.404 -14.318 0.352 0.35
0.449 -14.306 0.352 0.36
0.494 -14.311 0.352 0.37
0.539 -14.305 0.352 0.37
0.561 -14.304 0.352 0.33
0.607 -14.308 0.352 0.32
0.652 -14.31 0.352 0.39
0.697 -14.312 0.352 0.36
0.742 -14.306 0.352 0.36
0.787 -14.32 0.352 0.36
0.832 -14.309 0.352 0.41
0.855 -14.318 0.352 0.35
0.9 -14.321 0.352 0.39
0.946 -14.32 0.352 0.37
0.99 -14.309 0.352 0.35
1.036 -14.318 0.352 0.37
1.081 -14.313 0.352 0.36
1.125 -14.299 0.352 0.38
1.148 -14.303 0.352 0.35
1.193 -14.302 0.352 0.36
1.238 -14.302 0.352 0.29
1.284 -14.312 0.352 0.38
1.33 -14.314 0.353 0.3
1.376 -14.323 0.353 0.3
1.421 -14.313 0.353 0.42
1.443 -14.311 0.353 0.4
1.488 -14.308 0.353 0.34
1.533 -14.303 0.353 0.38
1.579 -14.308 0.353 0.28
1.624 -14.299 0.353 0.39
1.67 -14.304 0.353 0.28
1.716 -14.307 0.353 0.3
1.74 -14.318 0.353 0.3
1.785 -14.314 0.353 0.41
1.832 -14.325 0.353 0.46
1.876 -14.311 0.353 0.31
1.923 -14.323 0.353 0.34
1.969 -14.323 0.353 0.34
2.014 -14.316 0.353 0.32
2.037 -14.313 0.353 0.3
2.083 -14.318 0.353 0.29
2.127 -14.306 0.353 0.39
2.173 -14.303 0.353 0.35
2.22 -14.308 0.354 0.36
2.265 -14.305 0.354 0.35
2.314 -14.318 0.354 0.35
2.359 -14.312 0.354 0.3
2.384 -14.322 0.354 0.27
2.43 -14.321 0.354 0.4
2.476 -14.319 0.354 0.38
2.52 -14.309 0.354 0.38
2.565 -14.299 0.354 0.4
2.612 -14.305 0.354 0.35
2.659 -14.304 0.354 0.36
2.682 -14.306 0.354 0.36
2.731 -14.315 0.355 0.38
2.777 -14.312 0.355 0.45
2.821 -14.3 0.355 0.35
2.869 -14.306 0.355 0.33
2.913 -14.293 0.355 0.29
2.962 -14.304 0.355 0.31
2.987 -14.313 0.355 0.3
3.037 -14.325 0.355 0.3
3.079 -14.304 0.355 0.42
3.123 -14.29 0.355 0.28
3.172 -14.298 0.355 0.33
3.221 -14.303 0.355 0.37
3.268 -14.303 0.356 0.37
3.292 -14.305 0.356 0.36
3.339 -14.303 0.356 0.35
3.384 -14.292 0.356 0.34
3.434 -14.303 0.356 0.36
3.479 -14.294 0.356 0.36
3.525 -14.285 0.356 0.38
3.577 -14.305 0.356 0.31
3.602 -14.307 0.356 0.36
3.654 -14.323 0.357 0.36
3.702 -14.325 0.357 0.31
3.747 -14.313 0.357 0.28
3.798 -14.322 0.357 0.28
3.843 -14.31 0.357 0.29
3.895 -14.323 0.357 0.27
3.92 -14.329 0.357 0.28
3.967 -14.324 0.357 0.28
4.012 -14.31 0.357 0.22
4.064 -14.322 0.358 0.35
4.108 -14.305 0.358 0.33
4.155 -14.3 0.358 0.36
4.202 -14.294 0.358 0.3
4.233 -14.317 0.358 0.36
4.276 -14.297 0.358 0.35
4.325 -14.297 0.358 0.29
4.381 -14.32 0.359 0.32
4.424 -14.298 0.359 0.33
4.473 -14.298 0.359 0.32
4.529 -14.32 0.359 0.33
4.554 -14.32 0.359 0.36
4.601 -14.31 0.359 0.34
4.654 -14.32 0.359 0.36
4.7 -14.309 0.359 0.39
4.75 -14.31 0.36 0.33
4.804 -14.323 0.36 0.35
4.851 -14.312 0.36 0.36
4.899 -14.308 0.36 0.35
4.93 -14.323 0.36 0.45
4.965 -14.279 0.36 0.34
4.989 -14.205 0.359 0.32
5.04 -14.208 0.36 0.34
5.087 -14.197 0.36 0.35
5.14 -14.204 0.36 0.37
5.19 -14.203 0.36 0.36
5.215 -14.202 0.36 0.36
5.268 -14.208 0.36 0.35
5.32 -14.212 0.361 0.36
5.365 -14.195 0.361 0.34
5.42 -14.206 0.361 0.32
5.468 -14.197 0.361 0.34
5.53 -14.224 0.361 0.25
5.596 -14.327 0.363 0.38
5.646 -14.323 0.363 0.44
5.696 -14.316 0.363 0.36
5.748 -14.316 0.363 0.41
5.797 -14.309 0.363 0.35
5.848 -14.306 0.363 0.35
5.903 -14.312 0.364 0.37
5.928 -14.308 0.364 0.38
5.984 -14.315 0.364 0.34
6.039 -14.32 0.364 0.41
6.086 -14.306 0.364 0.36
6.141 -14.309 0.365 0.36
6.192 -14.305 0.365 0.35
6.246 -14.305 0.365 0.38
6.28 -14.323 0.365 0.34
6.331 -14.316 0.365 0.4
6.386 -14.32 0.366 0.39
6.437 -14.312 0.366 0.37
6.493 -14.316 0.366 0.39
6.539 -14.299 0.366 0.38
6.595 -14.302 0.366 0.38
6.625 -14.306 0.367 0.35
6.681 -14.31 0.367 0.36
6.736 -14.309 0.367 0.43
6.789 -14.306 0.367 0.36
6.844 -14.306 0.368 0.38
6.894 -14.294 0.368 0.34
6.954 -14.304 0.368 0.34
6.985 -14.309 0.368 0.35
7.039 -14.305 0.368 0.41
7.092 -14.301 0.369 0.36
7.146 -14.297 0.369 0.33
7.204 -14.299 0.369 0.36
7.26 -14.3 0.369 0.38
7.319 -14.303 0.37 0.38
7.352 -14.311 0.37 0.38
7.407 -14.308 0.37 0.41
7.464 -14.307 0.37 0.33
7.529 -14.323 0.371 0.39
7.579 -14.308 0.371 0.37
7.634 -14.303 0.371 0.32
7.694 -14.308 0.371 0.43
7.721 -14.304 0.372 0.42
7.777 -14.299 0.372 0.32
7.829 -14.289 0.372 0.3
7.893 -14.297 0.372 0.33
7.955 -14.304 0.373 0.29
8.013 -14.301 0.373 0.39
8.063 -14.285 0.373 0.39
8.124 -14.289 0.373 0.33
8.161 -14.301 0.374 0.38
8.217 -14.296 0.374 0.38
8.277 -14.296 0.374 0.33
8.337 -14.296 0.374 0.39
8.383 -14.271 0.375 0.29
8.454 -14.288 0.375 0.32
8.491 -14.3 0.375 0.32
8.551 -14.297 0.376 0.43
8.612 -14.298 0.376 0.31
8.672 -14.295 0.376 0.33
8.732 -14.293 0.377 0.38
8.793 -14.291 0.377 0.36
8.849 -14.282 0.377 0.34
8.895 -14.305 0.377 0.34
8.954 -14.299 0.378 0.34
9.015 -14.296 0.378 0.31
9.077 -14.295 0.378 0.32
9.14 -14.295 0.379 0.39
9.198 -14.286 0.379 0.36
9.258 -14.281 0.379 0.38
9.326 -14.287 0.38 0.36
9.365 -14.297 0.38 0.39
9.43 -14.299 0.38 0.38
9.487 -14.288 0.381 0.34
9.556 -14.293 0.381 0.3
9.616 -14.286 0.381 0.36
9.671 -14.271 0.381 0.3
9.74 -14.275 0.382 0.38
9.777 -14.281 0.382 0.33
9.844 -14.283 0.383 0.27
9.912 -14.285 0.383 0.27
9.986 -14.295 0.383 0.39
10.047 -14.286 0.384 0.36
10.094 -14.258 0.384 0.22
10.177 -14.28 0.384 0.37
10.23 -14.306 0.385 0.3
10.284 -14.287 0.385 0.3
10.349 -14.282 0.385 0.3
10.421 -14.286 0.386 0.33
10.489 -14.286 0.386 0.32
10.563 -14.291 0.387 0.36
10.615 -14.268 0.387 0.27
10.666 -14.289 0.387 0.35
10.736 -14.289 0.388 0.31
10.806 -14.289 0.388 0.34
10.856 -14.261 0.388 0.29
10.936 -14.273 0.389 0.27
11.013 -14.28 0.389 0.36
11.066 -14.256 0.39 0.25
11.125 -14.286 0.39 0.41
11.189 -14.275 0.391 0.29
11.259 -14.272 0.391 0.28
11.343 -14.286 0.392 0.36
11.4 -14.265 0.392 0.25
11.479 -14.272 0.392 0.39
11.545 -14.262 0.393 0.3
11.603 -14.287 0.393 0.38
11.667 -14.274 0.394 0.33
11.75 -14.283 0.394 0.27
11.817 -14.274 0.395 0.35
11.887 -14.266 0.395 0.29
11.966 -14.27 0.395 0.34
12.033 -14.258 0.396 0.3
12.103 -14.251 0.396 0.31
12.149 -14.259 0.397 0.29
12.228 -14.26 0.397 0.4
12.241 -14.186 0.397 0.29
12.296 -14.159 0.397 0.26
12.382 -14.167 0.397 0.29
12.446 -14.151 0.398 0.28
12.497 -14.164 0.398 0.25
12.578 -14.165 0.399 0.29
12.665 -14.173 0.399 0.34
12.732 -14.158 0.4 0.21
12.893 -14.247 0.401 0.25
12.981 -14.254 0.402 0.27
13.065 -14.256 0.403 0.36
13.11 -14.26 0.403 0.29
13.189 -14.256 0.404 0.29
13.272 -14.255 0.404 0.29
13.358 -14.257 0.405 0.29
13.438 -14.253 0.405 0.28
13.531 -14.261 0.406 0.32
13.618 -14.262 0.407 0.34
13.661 -14.262 0.407 0.31
13.754 -14.269 0.408 0.27
13.82 -14.248 0.408 0.28
13.906 -14.247 0.408 0.28
13.992 -14.245 0.409 0.26
14.091 -14.256 0.41 0.31
14.16 -14.236 0.41 0.3
14.247 -14.234 0.411 0.25
14.325 -14.266 0.412 0.29
14.412 -14.263 0.412 0.29
14.504 -14.264 0.413 0.32
14.586 -14.255 0.413 0.3
14.665 -14.242 0.414 0.33
14.765 -14.249 0.415 0.26
14.843 -14.234 0.415 0.2
14.932 -14.274 0.416 0.46
15.017 -14.266 0.417 0.25
15.108 -14.262 0.417 0.26
15.188 -14.248 0.418 0.26
15.296 -14.258 0.419 0.26
15.382 -14.248 0.419 0.26
15.484 -14.253 0.42 0.28
15.552 -14.27 0.421 0.27
15.656 -14.275 0.421 0.25
15.739 -14.261 0.422 0.2
15.852 -14.273 0.423 0.43
15.943 -14.264 0.423 0.25
16.041 -14.26 0.424 0.2
16.147 -14.264 0.425 0.35
16.214 -14.278 0.426 0.24
12.46 -10.842 0.374 0.4
12.517 -10.823 0.374 0.32
12.466 -10.711 0.373 0.56
12.618 -10.772 0.375 0.19
16.815 -14.253 0.43 0.21
16.912 -14.29 0.431 0.39
17.014 -14.284 0.432 0.23
17.108 -14.271 0.432 0.19
17.233 -14.284 0.433 0.4
17.327 -14.27 0.434 0.19
17.435 -14.268 0.435 0.36
17.539 -14.261 0.436 0.21
17.644 -14.3 0.437 0.25
17.746 -14.291 0.437 0.18
17.864 -14.293 0.438 0.23
17.961 -14.278 0.439 0.21
18.092 -14.29 0.44 0.2
18.208 -14.288 0.441 0.36
18.319 -14.283 0.442 0.19
18.408 -14.305 0.443 0.36
18.427 -14.228 0.443 0.2
18.537 -14.22 0.443 0.16
18.636 -14.203 0.444 0.16
18.742 -14.191 0.445 0.17
18.868 -14.193 0.446 0.16
19.081 -14.26 0.448 0.2
19.205 -14.305 0.449 0.22
19.34 -14.311 0.45 0.09
19.491 -14.328 0.452 0.14
19.583 -14.301 0.452 0.16
19.692 -14.286 0.453 0.23
19.828 -14.29 0.454 0.25
19.956 -14.287 0.455 0.25
20.047 -14.304 0.456 0.11
20.18 -14.303 0.457 0.13
20.324 -14.31 0.458 0.21
20.474 -14.319 0.46 0.27
20.568 -14.289 0.46 0.11
20.697 -14.282 0.461 0.14
20.846 -14.288 0.463 0.14
20.943 -14.306 0.464 0.17
21.095 -14.313 0.465 0.28
21.24 -14.314 0.466 0.11
21.359 -14.297 0.467 0.17
21.503 -14.295 0.468 0.22
21.634 -14.285 0.469 0.18
21.781 -14.283 0.47 0.16
21.91 -14.269 0.471 0.1
22.046 -14.309 0.473 0.15
22.195 -14.307 0.474 0.17
22.33 -14.294 0.475 0.16
22.493 -14.299 0.477 0.16
22.637 -14.291 0.478 0.16
22.79 -14.287 0.479 0.1
22.92 -14.269 0.48 0.08
23.07 -14.311 0.482 0.12
23.226 -14.307 0.483 0.13
23.37 -14.294 0.484 0.16
23.558 -14.308 0.486 0.21
23.704 -14.295 0.487 0.16
23.857 -14.285 0.488 0.16
24.015 -14.277 0.49 0.0
24.148 -14.305 0.491 0.13
24.303 -14.293 0.492 0.1
24.474 -14.29 0.494 0.08
24.647 -14.288 0.495 0.0
24.82 -14.284 0.497 0.07
24.99 -14.277 0.498 0.18
25.167 -14.273 0.5 0.24
25.285 -14.288 0.501 0.0
25.342 -14.215 0.501 0.0
25.519 -14.209 0.502 0.0
25.669 -14.187 0.504 0.0
25.908 -14.213 0.506 0.0
26.235 -14.285 0.509 0.0
26.377 -14.255 0.51 0.0
26.607 -14.325 0.513 0.0
26.783 -14.311 0.514 0.0
26.946 -14.29 0.515 0.0
27.175 -14.302 0.518 0.0
27.347 -14.283 0.519 0.0
26.63 -13.803 0.51 0.05
26.558 -13.659 0.509 0.18
26.588 -13.622 0.509 0.0
26.7 -13.574 0.51 0.0
28.35 -14.299 0.528 0.0
28.572 -14.299 0.53 0.0
28.793 -14.296 0.532 0.0
29.001 -14.286 0.534 0.0
29.215 -14.277 0.536 0.0
29.395 -14.308 0.538 0.0
29.615 -14.3 0.54 0.0
29.829 -14.288 0.541 0.0
30.076 -14.29 0.544 0.0
30.298 -14.279 0.546 0.0
30.53 -14.27 0.548 0.0
30.783 -14.271 0.55 0.0
30.993 -14.309 0.552 0.0
31.219 -14.294 0.554 0.0
31.472 -14.29 0.556 0.0
31.732 -14.288 0.559 0.0
32.018 -14.296 0.562 0.0
32.205 -14.258 0.563 0.0
32.294 -14.176 0.564 0.0
32.497 -14.205 0.566 0.0
32.946 -14.277 0.57 0.0
33.259 -14.289 0.573 0.0
33.554 -14.291 0.576 0.0
33.849 -14.291 0.578 0.0
34.113 -14.276 0.581 0.0
34.413 -14.274 0.584 0.0
34.674 -14.319 0.586 0.0
35.004 -14.326 0.589 0.0
35.251 -14.298 0.592 0.09
28.274 -11.37 0.515 0.2
28.202 -11.238 0.514 0.31
28.192 -11.132 0.514 0.35
28.227 -11.044 0.514 0.33
28.383 -11.002 0.515 0.4
28.436 -10.971 0.515 0.0
37.43 -14.297 0.612 0.0
37.758 -14.286 0.615 0.0
38.063 -14.265 0.618 0.0
38.458 -14.275 0.622 0.0
38.818 -14.27 0.625 0.0
39.084 -14.229 0.628 0.0
39.212 -14.205 0.629 0.0
39.772 -14.267 0.634 0.0
40.224 -14.286 0.639 0.0
40.588 -14.272 0.642 0.0
40.957 -14.257 0.645 0.0
41.384 -14.26 0.65 0.0
41.775 -14.248 0.653 0.0
42.142 -14.299 0.657 0.0
42.568 -14.294 0.661 0.0
42.973 -14.28 0.665 0.0
43.421 -14.277 0.669 0.0
43.846 -14.264 0.673 0.0
44.313 -14.262 0.678 0.0
44.716 -14.314 0.682 0.0
45.16 -14.299 0.686 0.0
45.598 -14.28 0.69 0.0
45.944 -14.23 0.693 0.0
46.253 -14.167 0.696 0.0
47.084 -14.259 0.704 0.0
47.584 -14.247 0.709 0.0
48.071 -14.31 0.714 0.0
48.572 -14.293 0.719 0.0
49.11 -14.284 0.724 0.0
49.635 -14.268 0.729 0.0
50.226 -14.267 0.735 0.0
50.778 -14.251 0.74 0.0
51.337 -14.233 0.746 0.0
51.941 -14.225 0.751 0.0
52.571 -14.309 0.758 0.0
52.869 -14.211 0.76 0.0
54.404 -14.257 0.775 0.0
55.76 -14.238 0.789 0.0
56.425 -14.219 0.795 0.0
59.75 -14.16 0.828 0.0
36.809 -8.065 0.588 0.0
68.706 -14.24 0.916 0.0
69.254 -14.127 0.921 0.0
70.167 -14.083 0.93 0.0
71.353 -14.088 0.942 0.0
72.412 -14.06 0.953 0.0
73.526 -14.037 0.964 0.0
78.243 -14.046 1.01 0.0
20.205 -2.317 0.413 0.91
20.188 -2.251 0.413 0.99
20.066 -2.174 0.411 0.86
20.226 -2.126 0.413 0.5
20.242 -2.064 0.413 0.21
20.213 -2.029 0.413 0.25
20.216 -1.901 0.412 0.96
20.379 -1.851 0.414 0.74
20.074 -1.761 0.411 0.0
20.147 -1.703 0.412 0.0
52.315 1.843 0.372 0.91
52.199 2.004 0.371 0.99
52.192 2.168 0.371 0.99
52.089 2.327 0.371 0.99
52.183 2.414 0.371 0.99
52.281 2.583 0.372 0.46
52.161 2.741 0.371 0.99
52.15 2.905 0.371 0.99
52.047 3.063 0.371 0.99
52.109 3.231 0.371 0.74
52.374 3.413 0.372 0.0
72.491 13.043 0.439 0.0
72.454 13.271 0.439 0.0
62.513 12.983 0.408 0.0
62.472 13.18 0.408 0.0
68.304 14.969 0.427 0.0
52.57 13.007 0.378 0.0
52.513 13.168 0.377 0.0
42.491 13.034 0.347 0.17
42.37 13.142 0.347 0.21
42.198 13.235 0.346 0.0
42.315 13.417 0.347 0.0
48.366 16.257 0.368 0.0
48.373 16.429 0.368 0.0
47.942 18.671 0.369 0.0
32.349 13.137 0.317 0.26
32.191 13.191 0.316 0.0
32.299 13.354 0.317 0.0
46.237 19.702 0.365 0.09
45.818 19.694 0.364 0.08
45.495 19.725 0.363 0.16
45.424 19.864 0.363 0.19
45.579 20.102 0.364 0.41
45.499 20.238 0.364 0.23
45.541 20.428 0.364 0.2
45.549 20.518 0.364 0.4
45.546 20.689 0.364 0.22
45.438 20.812 0.364 0.0
45.301 20.922 0.364 0.0
28.073 13.191 0.305 0.18
27.982 13.256 0.304 0.35
28.039 13.336 0.305 0.0
67.76 32.45 0.444 0.0
67.611 32.64 0.443 0.0
67.585 32.89 0.444 0.0
67.609 33.164 0.444 0.0
67.569 33.408 0.444 0.0
67.559 33.668 0.445 0.0
67.609 33.826 0.445 0.0
67.599 34.087 0.445 0.0
67.576 34.341 0.446 0.0
67.592 34.617 0.446 0.0
67.547 34.862 0.446 0.0
67.54 35.128 0.447 0.0
67.548 35.402 0.447 0.0
67.577 35.553 0.448 0.0
67.578 35.825 0.448 0.0
67.57 36.093 0.448 0.0
67.553 36.357 0.449 0.0
69.112 37.476 0.455 0.0
57.68 31.517 0.414 0.0
57.464 31.633 0.414 0.0
57.137 31.571 0.413 0.0
56.732 31.58 0.411 0.04
56.084 31.451 0.41 0.09
55.785 31.514 0.409 0.14
55.656 31.672 0.409 0.17
55.635 31.892 0.409 0.14
55.735 32.182 0.41 0.15
55.795 32.334 0.41 0.16
55.785 32.562 0.41 0.23
55.774 32.791 0.411 0.1
55.779 33.03 0.411 0.15
55.685 33.212 0.411 0.17
55.653 33.43 0.411 0.18
55.645 33.663 0.412 0.3
55.677 33.802 0.412 0.0
55.661 34.032 0.412 0.0
55.674 34.523 0.413 0.11
55.667 34.761 0.414 0.17
55.666 35.004 0.414 0.3
55.664 35.247 0.414 0.2
55.703 35.394 0.415 0.18
55.698 35.637 0.415 0.12
55.688 35.878 0.416 0.17
55.679 36.12 0.416 0.12
55.683 36.371 0.416 0.17
55.682 36.621 0.417 0.27
30.09 19.94 0.321 0.2
30.014 19.957 0.32 0.21
29.933 20.039 0.32 0.17
56.175 37.836 0.42 0.0
55.995 37.971 0.42 0.0
55.771 38.075 0.42 0.0
55.62 38.229 0.42 0.0
63.792 44.137 0.451 0.0
55.043 38.216 0.418 0.0
54.964 38.417 0.418 0.0
63.069 44.373 0.45 0.0
63.078 44.676 0.45 0.0
63.064 44.965 0.451 0.0
64.104 46.01 0.456 0.0
33.266 24.05 0.336 0.0
59.818 43.508 0.44 0.0
59.659 43.536 0.44 0.0
59.364 43.607 0.439 0.0
59.529 44.017 0.44 0.0
59.418 44.224 0.44 0.0
48.817 36.579 0.399 0.0
58.093 43.808 0.436 0.0
49.055 37.24 0.401 0.0
49.016 37.331 0.401 0.05
48.857 37.454 0.401 0.0
57.056 44.019 0.434 0.0
57.0 44.262 0.434 0.0
56.832 44.418 0.434 0.0
47.131 37.081 0.396 0.1
46.947 37.175 0.396 0.0
46.957 37.304 0.396 0.0
46.797 37.417 0.396 0.1
16.134 13.005 0.272 0.11
16.044 13.016 0.272 0.44
15.903 12.985 0.272 0.24
15.918 13.081 0.272 0.24
15.881 13.092 0.272 0.23
15.761 13.077 0.271 0.0
45.271 37.738 0.393 0.0
45.402 38.089 0.394 0.0
45.199 38.162 0.393 0.0
44.478 37.794 0.391 0.0
43.716 37.384 0.388 0.0
43.717 37.623 0.389 0.0
45.116 38.949 0.395 0.0
44.956 39.058 0.395 0.0
50.106 43.806 0.417 0.0
50.04 44.026 0.417 0.0
49.75 44.05 0.416 0.0
49.99 44.542 0.418 0.0
49.689 44.555 0.417 0.0
49.873 44.861 0.418 0.0
49.803 45.082 0.419 0.0
49.867 45.426 0.419 0.0
49.805 45.656 0.42 0.0
50.274 46.378 0.422 0.0
50.029 46.443 0.422 0.0
50.061 46.767 0.423 0.09
36.082 33.824 0.363 0.2
35.906 33.871 0.362 0.0
35.952 34.129 0.363 0.0
36.47 34.838 0.366 0.09
36.229 34.826 0.365 0.21
35.932 34.759 0.364 0.1
35.755 34.806 0.364 0.09
35.326 34.605 0.363 0.17
35.487 34.872 0.364 0.2
18.598 18.408 0.289 0.1
35.043 34.872 0.363 0.14
34.831 34.88 0.362 0.35
34.669 34.936 0.362 0.19
34.499 34.984 0.362 0.14
34.435 35.139 0.362 0.16
34.401 35.215 0.362 0.21
34.342 35.376 0.362 0.2
34.228 35.481 0.362 0.23
34.081 35.552 0.362 0.17
33.953 35.641 0.362 0.14
33.857 35.765 0.362 0.16
16.628 17.695 0.283 0.29
16.581 17.7 0.283 0.22
33.57 36.024 0.362 0.0
33.466 36.14 0.362 0.16
33.539 36.448 0.363 0.27
33.388 36.513 0.363 0.2
33.023 36.343 0.362 0.0
32.965 36.509 0.362 0.0
36.347 40.377 0.378 0.06
16.28 18.222 0.284 0.13
15.625 17.6 0.281 0.37
15.667 17.76 0.281 0.27
15.567 17.758 0.281 0.18
15.858 18.205 0.283 0.0
15.544 17.959 0.282 0.0
33.23 38.468 0.367 0.12
33.148 38.618 0.367 0.23
17.488 20.523 0.292 0.25
17.391 20.54 0.292 0.17
28.989 34.65 0.349 0.91
28.837 34.688 0.349 0.99
28.735 34.676 0.349 0.99
28.533 34.654 0.348 0.89
28.557 34.906 0.349 0.39
41.188 50.65 0.413 0.13
15.84 19.629 0.286 0.24
10.328 12.895 0.259 0.33
10.25 12.881 0.259 0.34
10.209 12.872 0.259 0.34
10.165 12.899 0.259 0.33
10.136 12.945 0.259 0.28
10.102 12.987 0.259 0.55
10.218 13.221 0.259 0.0
10.035 13.069 0.259 0.0
39.183 51.236 0.41 0.0
38.674 50.902 0.408 0.09
38.434 50.75 0.407 0.22
38.198 50.77 0.407 0.19
37.957 50.781 0.407 0.21
37.683 50.746 0.406 0.18
37.505 50.84 0.406 0.29
37.466 51.122 0.407 0.24
37.471 51.467 0.407 0.27
37.564 51.766 0.408 0.26
37.569 52.115 0.409 0.27
37.569 52.462 0.41 0.26
37.581 52.828 0.411 0.27
37.58 53.179 0.412 0.25
37.583 53.539 0.413 0.25
37.58 53.895 0.414 0.25
37.67 54.205 0.415 0.25
16.345 23.704 0.298 0.14
16.315 23.82 0.298 0.25
16.083 23.641 0.297 0.46
16.129 23.869 0.298 0.25
15.692 23.381 0.296 0.38
15.658 23.489 0.296 0.36
15.47 23.287 0.295 0.23
15.324 23.225 0.295 0.27
15.25 23.272 0.295 0.52
15.927 24.47 0.299 0.23
15.111 23.379 0.295 0.19
15.039 23.428 0.295 0.36
15.33 24.046 0.297 0.29
15.417 24.266 0.297 0.28
14.982 23.748 0.295 0.24
14.758 23.556 0.294 0.25
14.586 23.446 0.294 0.23
14.459 23.405 0.294 0.49
14.418 23.503 0.294 0.26
14.63 24.018 0.295 0.25
14.469 23.838 0.295 0.2
14.305 23.736 0.294 0.55
14.488 24.209 0.296 0.22
