# .PCD v.7 - Point Cloud Data file format
VERSION .7
FIELDS x y z intensity
SIZE 4 4 4 4
TYPE F F F F
COUNT 1 1 1 1
WIDTH 1912
HEIGHT 1
VIEWPOINT 0 0 0 1 0 0 0
POINTS 1912
DATA ascii
-0.091 -14.313 0.352 0.28
-0.046 -14.299 0.352 0.38
-0.001 -14.307 0.352 0.28
0.044 -14.317 0.352 0.27
0.089 -14.325 0.352 0.35
0.134 -14.319 0.352 0.36
0.18 -14.332 0.352 0.4
0.202 -14.326 0.352 0.46
0.247 -14.311 0.352 0.28
0.291 -14.298 0.352 0.36
0.336 -14.303 0.352 0.29
0.382 -14.324 0.352 0.3
0.427 -14.331 0.352 0.33
0.472 -14.333 0.352 0.35
0.495 -14.339 0.352 0.41
0.54 -14.335 0.352 0.38
0.585 -14.321 0.352 0.44
0.63 -14.337 0.352 0.36
0.675 -14.317 0.352 0.35
0.72 -14.319 0.352 0.38
0.765 -14.325 0.352 0.38
0.788 -14.332 0.352 0.36
0.833 -14.325 0.352 0.45
0.878 -14.318 0.352 0.39
0.923 -14.328 0.352 0.38
0.968 -14.315 0.352 0.38
1.014 -14.325 0.352 0.36
1.058 -14.314 0.352 0.39
1.081 -14.315 0.352 0.4
1.126 -14.315 0.352 0.38
1.172 -14.317 0.352 0.34
1.216 -14.304 0.352 0.41
1.26 -14.296 0.352 0.33
1.307 -14.312 0.352 0.37
1.352 -14.308 0.352 0.36
1.376 -14.317 0.353 0.35
1.421 -14.315 0.353 0.39
1.466 -14.312 0.353 0.36
1.512 -14.322 0.353 0.37
1.557 -14.313 0.353 0.33
1.602 -14.308 0.353 0.35
1.65 -14.329 0.353 0.38
1.672 -14.32 0.353 0.39
1.717 -14.317 0.353 0.41
1.762 -14.313 0.353 0.34
1.807 -14.306 0.353 0.39
1.853 -14.308 0.353 0.32
1.9 -14.32 0.353 0.39
1.944 -14.308 0.353 0.38
1.969 -14.321 0.353 0.35
2.014 -14.312 0.353 0.36
2.057 -14.294 0.353 0.38
2.102 -14.291 0.353 0.33
2.15 -14.305 0.353 0.36
2.195 -14.296 0.353 0.36
2.243 -14.307 0.354 0.35
2.289 -14.311 0.354 0.36
2.311 -14.302 0.354 0.3
2.358 -14.306 0.354 0.32
2.406 -14.317 0.354 0.4
2.45 -14.305 0.354 0.37
2.499 -14.321 0.354 0.33
2.545 -14.315 0.354 0.46
2.588 -14.299 0.354 0.33
2.613 -14.307 0.354 0.38
2.658 -14.3 0.354 0.35
2.704 -14.3 0.354 0.3
2.75 -14.293 0.354 0.29
2.799 -14.306 0.355 0.38
2.844 -14.297 0.355 0.35
2.889 -14.288 0.355 0.36
2.914 -14.297 0.355 0.32
2.962 -14.306 0.355 0.38
3.009 -14.304 0.355 0.37
3.055 -14.301 0.355 0.36
3.104 -14.306 0.355 0.31
3.149 -14.297 0.355 0.41
3.196 -14.298 0.355 0.36
3.222 -14.309 0.355 0.29
3.269 -14.309 0.356 0.48
3.293 -14.207 0.355 0.38
3.335 -14.185 0.355 0.3
3.382 -14.188 0.355 0.34
3.432 -14.198 0.355 0.3
3.481 -14.203 0.355 0.35
3.502 -14.196 0.355 0.29
3.549 -14.194 0.355 0.38
3.599 -14.202 0.355 0.34
3.644 -14.191 0.355 0.3
3.69 -14.187 0.355 0.33
3.74 -14.195 0.356 0.3
3.785 -14.187 0.356 0.41
3.834 -14.188 0.356 0.27
3.888 -14.3 0.357 0.4
3.931 -14.28 0.357 0.33
3.982 -14.289 0.357 0.38
4.036 -14.311 0.358 0.34
4.079 -14.29 0.357 0.41
4.13 -14.297 0.358 0.36
4.18 -14.303 0.358 0.4
4.203 -14.296 0.358 0.36
4.253 -14.302 0.358 0.32
4.303 -14.304 0.358 0.37
4.352 -14.306 0.358 0.38
4.399 -14.296 0.358 0.36
4.448 -14.295 0.359 0.34
4.469 -14.286 0.359 0.37
4.519 -14.288 0.359 0.34
4.573 -14.3 0.359 0.3
4.618 -14.287 0.359 0.37
4.672 -14.299 0.359 0.38
4.723 -14.304 0.359 0.33
4.772 -14.3 0.36 0.36
4.82 -14.296 0.36 0.33
4.851 -14.313 0.36 0.38
4.896 -14.296 0.36 0.4
4.945 -14.294 0.36 0.37
4.997 -14.299 0.36 0.34
5.047 -14.298 0.36 0.34
5.098 -14.298 0.361 0.38
5.151 -14.304 0.361 0.3
5.176 -14.304 0.361 0.37
5.224 -14.295 0.361 0.41
5.278 -14.303 0.361 0.23
5.325 -14.293 0.361 0.2
5.381 -14.305 0.362 0.42
5.426 -14.29 0.362 0.27
5.478 -14.291 0.362 0.38
5.507 -14.299 0.362 0.31
5.555 -14.287 0.362 0.33
5.603 -14.279 0.362 0.32
5.666 -14.306 0.363 0.3
5.714 -14.298 0.363 0.3
5.765 -14.294 0.363 0.38
5.82 -14.3 0.363 0.43
5.848 -14.304 0.363 0.31
5.904 -14.313 0.364 0.4
5.959 -14.319 0.364 0.29
6.011 -14.317 0.364 0.45
6.055 -14.296 0.364 0.43
6.102 -14.28 0.364 0.31
6.158 -14.287 0.364 0.32
6.21 -14.286 0.365 0.33
6.245 -14.303 0.365 0.33
6.295 -14.296 0.365 0.29
6.347 -14.291 0.365 0.39
6.402 -14.293 0.366 0.38
6.453 -14.288 0.366 0.34
6.506 -14.285 0.366 0.4
6.558 -14.279 0.366 0.37
6.589 -14.287 0.366 0.37
6.644 -14.288 0.366 0.39
6.696 -14.284 0.367 0.35
6.749 -14.279 0.367 0.32
6.802 -14.275 0.367 0.36
6.857 -14.274 0.367 0.38
6.892 -14.29 0.368 0.33
6.947 -14.29 0.368 0.35
6.999 -14.282 0.368 0.37
7.055 -14.282 0.368 0.33
7.116 -14.292 0.369 0.4
7.167 -14.282 0.369 0.34
7.225 -14.286 0.369 0.35
7.277 -14.276 0.369 0.35
7.318 -14.302 0.37 0.35
7.363 -14.279 0.37 0.31
7.426 -14.291 0.37 0.37
7.484 -14.292 0.37 0.38
7.543 -14.295 0.371 0.36
7.596 -14.285 0.371 0.37
7.656 -14.291 0.371 0.38
7.693 -14.306 0.371 0.33
7.74 -14.285 0.371 0.39
7.797 -14.283 0.372 0.34
7.858 -14.287 0.372 0.37
7.908 -14.273 0.372 0.36
7.968 -14.274 0.372 0.39
8.027 -14.275 0.373 0.36
8.054 -14.269 0.373 0.36
8.121 -14.284 0.373 0.33
8.18 -14.283 0.374 0.34
8.234 -14.272 0.374 0.38
8.294 -14.272 0.374 0.35
8.356 -14.276 0.374 0.33
8.417 -14.277 0.375 0.3
8.452 -14.284 0.375 0.29
8.512 -14.283 0.375 0.39
8.569 -14.277 0.376 0.33
8.63 -14.277 0.376 0.34
8.693 -14.279 0.376 0.28
8.746 -14.265 0.376 0.37
8.804 -14.258 0.377 0.32
8.847 -14.278 0.377 0.35
8.905 -14.271 0.377 0.34
8.967 -14.27 0.378 0.32
9.032 -14.274 0.378 0.36
9.096 -14.276 0.378 0.33
9.157 -14.272 0.379 0.29
9.203 -14.245 0.379 0.3
9.252 -14.272 0.379 0.31
9.314 -14.268 0.379 0.34
9.371 -14.257 0.38 0.34
9.442 -14.268 0.38 0.29
9.504 -14.265 0.38 0.36
9.57 -14.266 0.381 0.34
9.634 -14.264 0.381 0.3
9.671 -14.271 0.381 0.35
9.742 -14.278 0.382 0.3
9.798 -14.264 0.382 0.36
9.867 -14.268 0.383 0.29
9.943 -14.281 0.383 0.34
9.98 -14.24 0.383 0.36
10.059 -14.256 0.384 0.35
10.129 -14.26 0.384 0.32
10.168 -14.267 0.384 0.3
10.224 -14.251 0.384 0.27
10.299 -14.261 0.385 0.34
10.361 -14.251 0.385 0.38
10.427 -14.247 0.386 0.33
10.488 -14.237 0.386 0.29
10.542 -14.264 0.386 0.45
10.561 -14.196 0.386 0.29
10.613 -14.172 0.386 0.25
10.676 -14.164 0.386 0.31
10.745 -14.162 0.387 0.29
10.803 -14.146 0.387 0.26
10.866 -14.136 0.387 0.27
10.937 -14.136 0.388 0.23
11.005 -14.177 0.389 0.27
11.061 -14.159 0.389 0.31
11.199 -14.241 0.39 0.28
11.271 -14.241 0.391 0.27
11.344 -14.241 0.391 0.3
11.416 -14.24 0.392 0.33
11.481 -14.229 0.392 0.32
11.529 -14.242 0.392 0.32
11.602 -14.241 0.393 0.28
11.683 -14.248 0.393 0.33
11.75 -14.239 0.394 0.27
11.844 -14.26 0.395 0.35
11.912 -14.25 0.395 0.36
11.979 -14.24 0.395 0.3
12.025 -14.249 0.396 0.27
12.118 -14.268 0.396 0.33
12.173 -14.242 0.397 0.29
12.256 -14.247 0.397 0.31
12.33 -14.243 0.398 0.29
12.42 -14.256 0.398 0.26
12.484 -14.239 0.399 0.39
12.533 -14.25 0.399 0.3
12.604 -14.24 0.399 0.28
12.701 -14.258 0.4 0.3
12.772 -14.248 0.401 0.27
12.856 -14.251 0.401 0.33
12.929 -14.242 0.402 0.32
13.018 -14.25 0.402 0.34
13.077 -14.269 0.403 0.3
13.16 -14.269 0.403 0.3
13.236 -14.261 0.404 0.3
13.31 -14.25 0.404 0.3
13.395 -14.252 0.405 0.27
13.469 -14.24 0.405 0.29
13.558 -14.244 0.406 0.29
13.624 -14.269 0.407 0.25
13.711 -14.269 0.407 0.3
13.796 -14.268 0.408 0.29
13.883 -14.267 0.408 0.28
13.961 -14.258 0.409 0.28
14.058 -14.267 0.41 0.31
14.134 -14.254 0.41 0.27
14.208 -14.284 0.411 0.32
14.294 -14.28 0.411 0.26
14.373 -14.269 0.412 0.29
14.469 -14.274 0.413 0.3
14.552 -14.266 0.413 0.29
14.642 -14.264 0.414 0.24
14.732 -14.262 0.414 0.39
14.818 -14.255 0.415 0.25
14.89 -14.28 0.416 0.23
14.97 -14.266 0.416 0.18
15.069 -14.27 0.417 0.26
15.148 -14.255 0.417 0.21
15.266 -14.276 0.418 0.44
15.346 -14.26 0.419 0.25
15.442 -14.259 0.42 0.24
15.512 -14.278 0.42 0.19
15.617 -14.285 0.421 0.43
15.712 -14.281 0.422 0.18
12.129 -10.963 0.372 0.22
12.056 -10.829 0.371 0.35
12.088 -10.789 0.371 0.27
12.151 -10.777 0.371 0.33
12.189 -10.776 0.372 0.24
12.284 -10.792 0.372 0.36
12.312 -10.748 0.372 0.4
12.359 -10.721 0.373 0.43
12.488 -10.764 0.374 0.47
16.678 -14.272 0.429 0.25
16.773 -14.263 0.43 0.23
16.763 -14.209 0.429 0.18
16.88 -14.217 0.43 0.12
16.972 -14.203 0.431 0.16
17.081 -14.204 0.432 0.3
17.189 -14.202 0.433 0.18
17.323 -14.222 0.434 0.18
17.498 -14.273 0.435 0.24
17.578 -14.292 0.436 0.13
17.7 -14.3 0.437 0.14
17.836 -14.316 0.438 0.21
17.915 -14.288 0.439 0.11
18.005 -14.267 0.439 0.15
18.135 -14.277 0.44 0.29
18.26 -14.283 0.442 0.19
18.335 -14.295 0.442 0.19
18.474 -14.311 0.443 0.31
18.58 -14.299 0.444 0.19
18.713 -14.308 0.445 0.25
18.813 -14.291 0.446 0.19
18.934 -14.289 0.447 0.21
19.046 -14.28 0.448 0.2
19.153 -14.313 0.449 0.19
19.274 -14.309 0.45 0.4
19.378 -14.292 0.451 0.21
19.504 -14.29 0.452 0.23
19.612 -14.275 0.452 0.18
19.751 -14.281 0.454 0.33
19.883 -14.282 0.455 0.27
19.987 -14.309 0.456 0.18
20.1 -14.294 0.456 0.17
20.248 -14.304 0.458 0.24
20.362 -14.288 0.459 0.17
20.492 -14.284 0.46 0.33
20.624 -14.279 0.461 0.18
20.761 -14.278 0.462 0.36
20.859 -14.297 0.463 0.27
20.99 -14.29 0.464 0.11
21.109 -14.274 0.465 0.15
21.244 -14.268 0.466 0.23
21.415 -14.286 0.467 0.25
21.553 -14.28 0.469 0.2
21.675 -14.263 0.469 0.18
21.816 -14.306 0.471 0.16
21.967 -14.306 0.472 0.13
22.087 -14.286 0.473 0.08
22.236 -14.284 0.474 0.0
22.364 -14.266 0.475 0.0
22.485 -14.244 0.476 0.14
22.685 -14.271 0.478 0.12
22.835 -14.265 0.479 0.15
22.941 -14.281 0.48 0.0
23.13 -14.298 0.482 0.0
23.257 -14.276 0.483 0.0
23.419 -14.274 0.484 0.13
23.58 -14.271 0.486 0.3
23.637 -14.204 0.486 0.0
23.713 -14.148 0.486 0.0
23.884 -14.2 0.488 0.0
24.022 -14.179 0.489 0.0
24.293 -14.236 0.492 0.12
24.534 -14.274 0.494 0.23
24.685 -14.258 0.495 0.1
24.86 -14.255 0.497 0.08
25.05 -14.26 0.499 0.14
25.21 -14.298 0.5 0.17
25.379 -14.288 0.502 0.1
25.553 -14.281 0.503 0.0
25.68 -14.246 0.504 0.11
24.888 -13.706 0.494 0.13
24.924 -13.623 0.494 0.27
24.977 -13.551 0.494 0.0
26.49 -14.316 0.512 0.0
26.653 -14.296 0.513 0.0
26.846 -14.291 0.515 0.0
27.029 -14.279 0.516 0.0
27.231 -14.276 0.518 0.0
27.412 -14.262 0.519 0.0
27.658 -14.279 0.522 0.0
27.812 -14.303 0.523 0.0
28.01 -14.294 0.525 0.0
28.239 -14.299 0.527 0.0
28.425 -14.281 0.529 0.0
28.636 -14.274 0.531 0.0
28.828 -14.257 0.532 0.0
29.054 -14.255 0.534 0.0
29.274 -14.306 0.536 0.0
29.509 -14.306 0.539 0.0
29.731 -14.298 0.541 0.0
29.96 -14.292 0.543 0.0
30.155 -14.269 0.544 0.0
30.428 -14.281 0.547 0.0
30.532 -14.213 0.548 0.0
30.64 -14.205 0.548 0.0
30.877 -14.197 0.551 0.0
31.267 -14.257 0.554 0.0
31.574 -14.277 0.557 0.0
31.86 -14.286 0.56 0.0
32.08 -14.263 0.562 0.0
32.341 -14.258 0.564 0.0
32.6 -14.31 0.567 0.0
32.842 -14.294 0.569 0.0
33.131 -14.296 0.572 0.0
33.401 -14.287 0.574 0.0
33.679 -14.281 0.577 0.0
33.966 -14.277 0.58 0.0
34.236 -14.264 0.582 0.0
34.505 -14.313 0.585 0.0
34.795 -14.304 0.587 0.14
28.014 -11.42 0.513 0.18
27.87 -11.259 0.511 0.26
27.879 -11.161 0.511 0.28
27.808 -11.032 0.51 0.52
28.01 -11.01 0.511 0.19
28.008 -10.907 0.511 0.0
28.262 -10.955 0.514 0.0
37.204 -14.278 0.61 0.0
37.412 -14.223 0.612 0.0
37.628 -14.17 0.614 0.0
38.201 -14.249 0.619 0.0
38.553 -14.242 0.623 0.0
38.942 -14.246 0.626 0.0
39.255 -14.291 0.629 0.0
39.62 -14.283 0.633 0.0
40.011 -14.282 0.637 0.0
40.35 -14.26 0.64 0.0
40.737 -14.252 0.643 0.0
41.127 -14.244 0.647 0.0
41.507 -14.229 0.651 0.0
41.894 -14.288 0.654 0.0
42.293 -14.276 0.658 0.0
42.719 -14.27 0.662 0.0
43.138 -14.259 0.666 0.0
43.553 -14.245 0.67 0.0
43.973 -14.229 0.674 0.0
44.282 -14.175 0.677 0.0
44.543 -14.181 0.68 0.0
45.337 -14.277 0.687 0.0
45.794 -14.263 0.692 0.0
46.314 -14.265 0.697 0.0
46.765 -14.243 0.701 0.0
47.25 -14.228 0.706 0.0
47.762 -14.219 0.711 0.0
48.241 -14.279 0.716 0.0
48.807 -14.279 0.721 0.0
49.302 -14.256 0.726 0.0
49.877 -14.252 0.731 0.0
50.439 -14.241 0.737 0.0
51.041 -14.238 0.743 0.0
51.286 -14.133 0.745 0.0
52.062 -14.258 0.753 0.0
52.738 -14.265 0.759 0.0
53.36 -14.253 0.765 0.0
55.304 -14.214 0.784 0.0
57.986 -14.225 0.81 0.0
35.13 -8.104 0.572 0.0
35.167 -7.996 0.572 0.0
67.041 -14.116 0.899 0.0
67.658 -14.024 0.905 0.0
68.515 -14.089 0.914 0.0
69.655 -14.095 0.925 0.0
70.689 -14.073 0.935 0.0
71.754 -14.05 0.946 0.0
74.02 -14.01 0.968 0.0
76.522 -14.11 0.993 0.0
18.564 -2.308 0.396 0.85
18.506 -2.272 0.396 0.99
18.384 -2.198 0.394 0.86
18.643 -2.17 0.397 0.19
18.539 -2.04 0.396 0.39
18.532 -1.98 0.396 0.19
18.497 -1.888 0.395 0.99
18.7 -1.849 0.397 0.74
18.371 -1.759 0.394 0.0
18.536 -1.716 0.395 0.0
50.623 1.864 0.366 0.8
50.533 2.02 0.366 0.99
50.526 2.179 0.366 0.99
50.411 2.332 0.366 0.99
50.475 2.415 0.366 0.74
50.497 2.734 0.366 0.99
50.388 2.887 0.366 0.99
50.369 3.045 0.366 0.99
50.387 3.205 0.366 0.74
50.569 3.376 0.367 0.0
70.8 13.084 0.434 0.0
70.759 13.306 0.434 0.0
60.915 12.952 0.403 0.0
60.788 13.125 0.403 0.0
60.816 13.231 0.403 0.0
50.83 13.172 0.372 0.0
40.753 13.135 0.342 0.21
40.633 13.237 0.342 0.24
40.618 13.303 0.342 0.0
46.675 16.263 0.363 0.0
46.663 16.341 0.363 0.0
30.662 13.132 0.312 0.27
30.879 13.339 0.313 0.0
30.621 13.342 0.312 0.0
44.622 19.764 0.361 0.0
44.245 19.764 0.36 0.12
43.931 19.707 0.359 0.28
43.672 19.756 0.358 0.24
43.816 19.987 0.359 0.19
43.82 20.155 0.359 0.41
43.853 20.338 0.359 0.21
43.935 20.544 0.36 0.33
43.983 20.734 0.36 0.16
43.88 20.77 0.36 0.35
43.653 20.831 0.359 0.0
67.384 32.4 0.443 0.0
67.044 32.497 0.442 0.0
66.581 32.531 0.44 0.0
66.127 32.567 0.439 0.07
26.475 13.16 0.3 0.12
26.401 13.174 0.3 0.21
26.286 13.221 0.3 0.18
26.355 13.359 0.3 0.0
65.925 33.634 0.44 0.0
65.901 33.883 0.44 0.0
65.894 34.141 0.441 0.0
65.884 34.399 0.441 0.0
65.925 34.552 0.441 0.0
65.924 34.816 0.442 0.0
65.92 35.079 0.442 0.0
65.891 35.33 0.442 0.0
65.889 35.595 0.443 0.0
65.88 35.859 0.443 0.0
65.872 36.123 0.444 0.0
65.89 36.402 0.444 0.0
67.484 37.421 0.45 0.0
67.459 37.684 0.45 0.0
55.981 31.509 0.409 0.0
55.633 31.543 0.408 0.0
55.25 31.556 0.407 0.0
54.87 31.568 0.406 0.05
54.374 31.511 0.405 0.09
54.127 31.482 0.404 0.14
53.987 31.628 0.404 0.21
53.972 31.847 0.404 0.19
53.964 32.071 0.405 0.21
53.968 32.303 0.405 0.19
53.967 32.534 0.405 0.21
53.95 32.755 0.406 0.17
53.996 32.899 0.406 0.31
53.99 33.128 0.406 0.2
53.976 33.353 0.407 0.18
53.977 33.589 0.407 0.31
53.975 33.823 0.408 0.2
53.95 34.044 0.408 0.18
54.009 34.2 0.408 0.3
54.005 34.435 0.409 0.2
54.007 34.676 0.409 0.17
53.985 34.902 0.409 0.13
53.971 35.133 0.41 0.18
53.984 35.384 0.41 0.3
53.988 35.629 0.411 0.0
53.958 35.853 0.411 0.0
54.006 36.007 0.411 0.0
54.012 36.257 0.412 0.0
54.026 36.513 0.412 0.0
54.003 36.745 0.413 0.0
60.747 41.609 0.439 0.0
61.004 42.068 0.44 0.11
54.545 37.87 0.416 0.1
54.466 37.942 0.416 0.12
28.401 19.932 0.316 0.25
28.315 20.005 0.316 0.32
28.175 20.04 0.316 0.0
53.433 38.23 0.414 0.0
53.284 38.376 0.414 0.0
53.178 38.554 0.414 0.0
61.387 44.648 0.446 0.0
52.159 38.192 0.411 0.0
62.093 45.76 0.45 0.0
61.865 45.893 0.45 0.0
63.213 47.201 0.455 0.0
57.888 43.511 0.435 0.0
57.639 43.608 0.435 0.0
31.61 24.008 0.332 0.0
46.916 35.85 0.393 0.0
47.023 36.167 0.394 0.0
56.43 43.678 0.432 0.0
47.071 36.676 0.395 0.0
47.071 36.914 0.395 0.0
55.983 44.182 0.432 0.0
47.121 37.313 0.396 0.0
46.969 37.433 0.396 0.0
55.071 44.169 0.429 0.0
54.876 44.296 0.429 0.07
45.538 37.001 0.392 0.17
45.339 37.077 0.391 0.14
45.286 37.271 0.392 0.0
54.149 44.702 0.428 0.0
40.509 33.664 0.373 0.0
45.44 38.0 0.394 0.0
45.158 38.006 0.393 0.0
44.843 37.983 0.392 0.0
43.692 37.483 0.388 0.23
43.547 37.596 0.388 0.18
43.53 37.701 0.388 0.0
43.614 38.014 0.389 0.0
42.823 37.563 0.386 0.04
42.482 37.5 0.385 0.15
41.964 37.279 0.384 0.12
41.881 37.441 0.384 0.0
48.903 43.99 0.414 0.07
14.308 12.936 0.268 0.18
14.244 12.96 0.268 0.29
14.216 13.016 0.268 0.26
14.209 13.092 0.268 0.0
48.177 44.584 0.414 0.0
48.149 44.84 0.414 0.0
41.202 38.618 0.385 0.0
48.337 45.442 0.416 0.0
48.134 45.537 0.416 0.0
48.515 46.187 0.418 0.0
48.523 46.486 0.419 0.0
48.748 46.996 0.42 0.0
48.588 47.137 0.42 0.0
49.742 48.56 0.426 0.0
49.315 48.295 0.424 0.09
34.312 33.825 0.359 0.19
34.19 33.917 0.359 0.0
34.689 34.847 0.362 0.12
34.405 34.779 0.361 0.15
33.95 34.536 0.359 0.15
33.806 34.498 0.359 0.24
33.677 34.583 0.359 0.09
33.464 34.581 0.358 0.18
33.528 34.866 0.359 0.0
33.519 35.076 0.36 0.14
33.205 34.967 0.359 0.11
32.973 34.942 0.358 0.16
32.889 34.963 0.358 0.29
32.809 35.098 0.358 0.19
32.7 35.203 0.358 0.24
32.657 35.379 0.359 0.18
32.478 35.407 0.358 0.13
32.313 35.45 0.358 0.14
32.196 35.546 0.358 0.21
32.191 35.652 0.358 0.19
32.183 35.869 0.359 0.12
32.281 36.206 0.36 0.14
31.907 36.014 0.358 0.0
31.614 35.91 0.358 0.0
31.888 36.683 0.36 0.28
31.389 36.34 0.358 0.18
31.354 36.415 0.358 0.14
31.319 36.606 0.359 0.2
15.015 17.682 0.28 0.27
31.737 37.568 0.362 0.0
30.85 36.754 0.358 0.0
31.509 37.778 0.362 0.09
31.593 38.121 0.363 0.09
31.492 38.121 0.363 0.14
31.414 38.271 0.363 0.22
31.408 38.509 0.363 0.09
31.589 38.98 0.365 0.13
14.748 18.339 0.281 0.1
31.235 39.042 0.364 0.13
13.985 17.617 0.278 0.23
27.264 34.638 0.346 0.95
27.14 34.705 0.346 0.93
26.996 34.744 0.346 0.91
26.859 34.794 0.345 0.99
15.926 20.783 0.289 0.62
13.919 18.287 0.279 0.0
38.856 51.14 0.409 0.0
38.625 51.17 0.409 0.1
38.148 50.87 0.407 0.0
38.132 51.182 0.408 0.0
37.897 51.202 0.408 0.0
37.672 51.234 0.407 0.0
14.224 19.629 0.283 0.16
14.177 19.629 0.283 0.32
14.041 19.569 0.283 0.22
13.937 19.555 0.282 0.54
13.629 19.251 0.281 0.31
13.503 19.201 0.281 0.27
13.61 19.482 0.282 0.19
35.806 51.525 0.405 0.13
35.869 51.788 0.405 0.18
35.872 52.141 0.406 0.18
35.882 52.508 0.407 0.18
8.675 12.902 0.256 0.32
8.606 12.888 0.256 0.35
8.545 12.883 0.256 0.38
8.519 12.888 0.256 0.33
8.479 12.917 0.256 0.35
8.444 12.952 0.256 0.32
8.419 13.002 0.256 0.5
8.549 13.293 0.257 0.0
36.187 56.5 0.418 0.0
36.18 57.478 0.421 0.11
36.101 57.754 0.422 0.14
36.1 58.158 0.423 0.12
14.745 23.951 0.295 0.29
14.632 23.935 0.295 0.3
14.495 23.88 0.295 0.28
14.501 23.975 0.295 0.4
14.355 23.904 0.295 0.25
14.056 23.573 0.293 0.22
13.975 23.607 0.293 0.45
13.709 23.325 0.292 0.13
13.566 23.248 0.292 0.4
13.448 23.213 0.291 0.17
13.343 23.2 0.291 0.36
13.368 23.328 0.292 0.27
13.37 23.502 0.292 0.18
13.363 23.662 0.292 0.58
13.345 23.804 0.293 0.21
13.066 23.48 0.292 0.26
12.954 23.451 0.291 0.27
12.823 23.389 0.291 0.38
12.855 23.533 0.291 0.26
12.763 23.54 0.291 0.32
12.801 23.788 0.292 0.31
12.804 23.974 0.292 0.26
12.837 24.217 0.293 0.35
12.946 24.61 0.294 0.27
12.622 24.179 0.293 0.24
12.535 24.105 0.292 0.35
12.506 24.235 0.293 0.09
12.812 25.018 0.295 0.17
12.72 25.033 0.295 0.27
12.661 25.11 0.295 0.0
13.593 29.931 0.31 0.15
13.461 29.89 0.31 0.23
13.404 30.014 0.31 0.16
13.398 30.255 0.311 0.14
13.322 30.212 0.311 0.21
13.262 30.333 0.311 0.27
13.271 30.615 0.312 0.15
8.207 19.288 0.273 0.38
8.141 19.301 0.273 0.43
8.081 19.328 0.273 0.35
8.004 19.314 0.273 0.53
7.974 19.327 0.273 0.33
7.907 19.337 0.273 0.46
7.844 19.358 0.273 0.36
7.769 19.348 0.273 0.57
7.71 19.376 0.273 0.32
7.633 19.359 0.272 0.52
7.605 19.376 0.272 0.34
7.534 19.374 0.272 0.47
7.474 19.401 0.272 0.35
7.403 19.399 0.272 0.47
7.341 19.418 0.272 0.37
7.269 19.413 0.272 0.48
7.208 19.436 0.272 0.37
7.143 19.447 0.272 0.48
7.109 19.449 0.272 0.37
7.04 19.45 0.272 0.48
6.979 19.472 0.272 0.35
6.909 19.468 0.272 0.47
6.848 19.491 0.272 0.37
6.78 19.494 0.272 0.51
6.713 19.498 0.272 0.37
6.678 19.495 0.272 0.47
6.619 19.524 0.272 0.39
6.551 19.524 0.272 0.41
6.482 19.523 0.272 0.5
6.425 19.555 0.272 0.36
6.355 19.548 0.272 0.47
6.294 19.57 0.272 0.39
6.259 19.569 0.272 0.51
6.191 19.565 0.271 0.39
6.129 19.583 0.271 0.49
6.068 19.606 0.271 0.39
5.998 19.598 0.271 0.49
5.938 19.622 0.271 0.38
5.869 19.616 0.271 0.5
5.806 19.629 0.271 0.36
5.77 19.62 0.271 0.5
5.713 19.654 0.271 0.35
5.642 19.641 0.271 0.48
5.583 19.668 0.271 0.36
5.517 19.67 0.271 0.5
5.454 19.684 0.271 0.36
5.386 19.677 0.271 0.48
5.36 19.703 0.271 0.37
5.29 19.691 0.271 0.48
5.23 19.715 0.271 0.38
5.165 19.72 0.271 0.5
5.099 19.721 0.271 0.36
5.035 19.727 0.271 0.47
4.978 19.762 0.271 0.37
4.939 19.741 0.271 0.48
4.879 19.764 0.271 0.38
4.815 19.771 0.271 0.47
4.75 19.773 0.271 0.38
4.685 19.776 0.271 0.48
4.625 19.802 0.271 0.39
4.56 19.805 0.271 0.49
4.498 19.817 0.271 0.39
4.461 19.801 0.271 0.61
4.396 19.801 0.271 0.41
4.331 19.803 0.271 0.44
4.275 19.844 0.271 0.26
4.207 19.83 0.271 0.59
4.148 19.861 0.271 0.31
4.084 19.868 0.271 0.5
4.054 19.876 0.271 0.38
3.99 19.883 0.271 0.49
3.928 19.897 0.271 0.37
3.861 19.89 0.271 0.6
3.798 19.898 0.271 0.41
3.733 19.896 0.271 0.39
3.67 19.904 0.271 0.37
3.606 19.909 0.271 0.38
3.574 19.911 0.271 0.38
3.511 19.92 0.271 0.39
3.449 19.931 0.271 0.39
3.386 19.94 0.271 0.4
3.322 19.946 0.271 0.36
3.259 19.955 0.271 0.38
3.198 19.973 0.271 0.37
3.166 19.972 0.271 0.39
3.103 19.98 0.271 0.39
3.038 19.976 0.27 0.39
2.977 20.001 0.271 0.39
2.914 20.006 0.271 0.4
2.851 20.017 0.271 0.4
2.788 20.024 0.271 0.39
2.757 20.03 0.271 0.41
2.694 20.037 0.271 0.41
2.632 20.051 0.271 0.4
2.57 20.071 0.271 0.35
2.507 20.083 0.271 0.4
2.445 20.099 0.271 0.38
2.382 20.103 0.271 0.5
2.352 20.122 0.271 0.36
2.287 20.11 0.271 0.48
2.225 20.133 0.271 0.37
2.16 20.126 0.271 0.48
2.099 20.15 0.271 0.38
2.034 20.141 0.271 0.59
1.98 20.245 0.271 0.36
1.915 20.235 0.271 0.43
1.884 20.242 0.271 0.36
1.82 20.248 0.271 0.44
1.757 20.257 0.271 0.37
1.693 20.259 0.271 0.45
1.631 20.28 0.271 0.38
1.567 20.285 0.271 0.39
1.504 20.3 0.271 0.39
1.472 20.306 0.271 0.39
1.408 20.308 0.271 0.4
1.345 20.315 0.271 0.4
1.281 20.325 0.271 0.4
1.218 20.333 0.271 0.41
1.154 20.345 0.271 0.41
1.091 20.358 0.271 0.4
1.059 20.368 0.271 0.41
0.995 20.371 0.271 0.4
0.932 20.378 0.271 0.4
0.867 20.365 0.271 0.46
0.804 20.399 0.271 0.32
0.738 20.34 0.271 0.48
0.674 20.356 0.271 0.37
0.642 20.351 0.271 0.48
0.579 20.383 0.271 0.38
0.515 20.369 0.271 0.47
0.451 20.38 0.271 0.37
0.387 20.386 0.271 0.48
0.323 20.403 0.271 0.39
0.259 20.412 0.271 0.6
0.196 20.482 0.271 0.36
0.164 20.479 0.271 0.43
0.099 20.491 0.271 0.42
0.035 20.493 0.271 0.41
-0.029 20.503 0.271 0.41
-0.094 20.515 0.271 0.4
-0.158 20.523 0.271 0.39
-0.223 20.534 0.272 0.39
-0.255 20.54 0.272 0.41
-0.32 20.563 0.272 0.36
-0.385 20.56 0.272 0.44
-0.449 20.562 0.272 0.4
-0.514 20.575 0.272 0.41
-0.579 20.581 0.272 0.4
-0.644 20.585 0.272 0.42
-0.677 20.602 0.272 0.35
-0.742 20.604 0.272 0.43
-0.807 20.619 0.272 0.36
-0.872 20.627 0.272 0.43
-0.938 20.636 0.272 0.36
-1.0 20.575 0.272 0.42
-1.066 20.6 0.272 0.37
-1.13 20.592 0.272 0.5
-1.164 20.612 0.272 0.36
-1.229 20.613 0.272 0.48
-1.296 20.641 0.272 0.38
-1.36 20.63 0.272 0.48
-1.427 20.652 0.272 0.39
-1.49 20.626 0.272 0.66
-1.561 20.71 0.272 0.36
-1.594 20.714 0.272 0.41
-1.661 20.725 0.272 0.39
-1.729 20.759 0.272 0.28
-1.129 12.946 0.248 0.5
-1.166 12.899 0.248 0.26
-1.203 12.863 0.248 0.39
-1.241 12.833 0.247 0.5
-1.26 12.812 0.247 0.34
-1.299 12.8 0.247 0.41
-1.34 12.799 0.247 0.36
-1.381 12.805 0.247 0.33
-1.421 12.803 0.247 0.53
-1.472 12.89 0.248 0.34
-2.428 20.826 0.273 0.36
-2.463 20.842 0.273 0.4
-2.531 20.856 0.273 0.35
-2.599 20.862 0.273 0.4
-2.667 20.876 0.273 0.35
-2.737 20.901 0.273 0.29
-2.794 20.829 0.273 0.47
-2.863 20.846 0.273 0.36
-2.929 20.842 0.273 0.47
-2.966 20.865 0.273 0.38
-3.032 20.862 0.273 0.48
-3.102 20.88 0.273 0.37
-3.168 20.872 0.273 0.55
-3.238 20.894 0.273 0.33
-3.305 20.891 0.273 0.46
-3.375 20.907 0.274 0.36
-3.409 20.907 0.274 0.47
-3.482 20.944 0.274 0.34
-3.545 20.915 0.274 0.64
-3.646 21.111 0.274 0.19
-9.02 51.479 0.372 0.14
-9.111 51.054 0.37 0.1
-9.279 51.065 0.37 0.09
-9.444 51.063 0.371 0.09
-9.505 50.944 0.37 0.0
-9.664 50.912 0.37 0.0
-9.867 51.105 0.371 0.0
-9.98 50.829 0.37 0.0
-11.116 55.703 0.386 0.0
-9.635 47.481 0.36 0.0
-9.787 47.465 0.36 0.0
-10.124 48.718 0.364 0.0
-10.329 48.935 0.364 0.0
-10.295 48.02 0.362 0.13
-10.46 48.056 0.362 0.17
-10.594 47.945 0.362 0.16
-10.739 47.888 0.362 0.0
-10.892 47.863 0.362 0.0
-10.948 47.762 0.361 0.0
-13.007 55.957 0.388 0.08
-9.25 39.203 0.334 0.18
-9.361 39.123 0.334 0.21
-9.487 39.107 0.334 0.2
-9.614 39.09 0.334 0.3
-9.736 39.06 0.334 0.19
-10.081 39.912 0.337 0.2
-10.132 39.849 0.336 0.21
-10.268 39.86 0.337 0.18
-10.396 39.839 0.337 0.32
-10.593 40.077 0.337 0.2
-10.728 40.076 0.338 0.13
-10.876 40.127 0.338 0.16
-10.989 40.043 0.338 0.0
-12.096 43.818 0.35 0.0
-12.973 46.433 0.359 0.13
-11.037 39.012 0.335 0.14
-11.094 38.75 0.334 0.25
-11.25 38.832 0.334 0.19
-11.375 38.806 0.334 0.0
-11.583 39.062 0.335 0.06
-11.669 39.128 0.336 0.15
-13.461 44.636 0.354 0.16
-11.564 37.9 0.332 0.1
-11.67 37.824 0.332 0.16
-11.265 36.103 0.326 0.21
-11.412 36.174 0.326 0.21
-7.515 23.534 0.285 0.12
-7.512 23.271 0.284 0.32
-7.44 22.924 0.283 0.4
-7.58 23.108 0.283 0.29
-7.71 23.259 0.284 0.3
-7.901 23.587 0.285 0.39
-7.968 23.541 0.285 0.19
-8.052 23.545 0.285 0.29
-8.113 23.481 0.285 0.43
-8.155 23.486 0.285 0.36
-8.255 23.533 0.285 0.21
-9.448 26.678 0.296 0.25
-8.921 24.935 0.29 0.27
-8.596 23.788 0.287 0.32
-9.147 25.069 0.291 0.33
-9.17 24.89 0.29 0.24
-9.198 24.843 0.29 0.29
-9.273 24.807 0.29 0.43
-9.151 24.246 0.288 0.25
-9.307 24.428 0.289 0.0
-9.927 25.574 0.293 0.16
-8.667 22.113 0.282 0.36
-10.047 25.527 0.293 0.21
-9.249 23.277 0.286 0.25
-8.918 22.238 0.282 0.3
-9.276 22.924 0.285 0.27
-9.304 22.584 0.284 0.49
-9.415 22.651 0.284 0.4
-9.045 21.565 0.281 0.18
-9.483 22.516 0.284 0.24
-9.121 21.464 0.28 0.5
-9.228 21.527 0.281 0.25
-9.192 21.259 0.28 0.22
-9.327 21.386 0.28 0.31
-9.415 21.404 0.281 0.35
-9.5 21.415 0.281 0.25
-9.564 21.467 0.281 0.39
-9.647 21.472 0.281 0.44
-9.757 21.536 0.281 0.24
-9.799 21.449 0.281 0.35
-9.957 21.616 0.282 0.3
-9.713 20.912 0.279 0.38
-10.054 21.47 0.282 0.22
-9.981 21.141 0.281 0.21
-9.886 20.853 0.28 0.55
-10.222 21.39 0.282 0.22
-10.364 21.513 0.282 0.36
-10.432 21.482 0.282 0.27
-10.367 21.178 0.281 0.33
-10.429 21.136 0.281 0.5
-10.441 20.994 0.281 0.29
-10.669 21.37 0.282 0.38
-10.951 21.593 0.283 0.47
-10.741 21.015 0.281 0.28
-10.773 20.914 0.281 0.36
-10.805 20.816 0.281 0.24
-10.964 20.961 0.281 0.37
-10.989 20.928 0.281 0.46
-11.173 21.118 0.282 0.33
-11.271 21.143 0.282 0.25
-11.346 21.123 0.282 0.45
-12.49 23.085 0.29 0.2
-11.334 20.786 0.281 0.34
-11.512 20.955 0.282 0.27
-11.634 21.021 0.283 0.36
-11.822 21.282 0.284 0.21
-11.612 20.597 0.281 0.52
-11.691 20.585 0.281 0.25
-12.846 22.461 0.288 0.17
-12.902 22.395 0.288 0.3
-12.936 22.292 0.288 0.3
-12.995 22.313 0.288 0.49
-19.567 33.381 0.329 0.25
-19.763 33.474 0.329 0.16
-12.275 20.623 0.282 0.25
-12.452 20.773 0.283 0.0
-20.053 33.245 0.329 0.12
-20.032 32.975 0.328 0.3
-20.074 32.927 0.328 0.16
-20.111 32.756 0.328 0.0
-31.228 50.533 0.394 0.11
-31.476 50.579 0.395 0.09
-19.041 30.365 0.32 0.17
-19.112 30.266 0.32 0.0
-31.76 49.979 0.393 0.0
-31.92 49.884 0.393 0.0
-33.203 51.711 0.401 0.0
-33.304 51.513 0.4 0.0
-33.128 50.888 0.398 0.0
-33.509 51.122 0.399 0.0
-33.501 50.761 0.399 0.0
-33.358 50.2 0.397 0.07
-33.469 50.025 0.397 0.0
-33.841 50.41 0.398 0.05
-34.074 50.414 0.399 0.15
-34.184 50.236 0.398 0.0
-34.296 50.062 0.398 0.0
-35.179 51.006 0.402 0.0
-35.138 50.606 0.401 0.0
-15.803 19.177 0.285 0.17
-15.802 19.053 0.285 0.35
-15.605 18.696 0.284 0.33
-11.148 13.26 0.261 0.16
-11.117 13.181 0.261 0.39
-11.125 13.106 0.261 0.4
-11.157 13.06 0.261 0.3
-11.198 13.025 0.261 0.37
-11.255 13.008 0.261 0.38
-11.311 12.991 0.261 0.43
-11.39 12.999 0.261 0.28
-11.438 13.013 0.261 0.56
-15.257 17.261 0.279 0.34
-16.052 18.047 0.283 0.18
-15.929 17.795 0.282 0.35
-16.007 17.771 0.282 0.26
-15.891 17.53 0.281 0.2
-15.998 17.537 0.282 0.42
-16.01 17.495 0.282 0.26
-15.918 17.284 0.281 0.38
-16.078 17.349 0.281 0.36
-16.154 17.322 0.281 0.27
-16.219 17.282 0.282 0.25
-16.341 17.303 0.282 0.52
-16.571 17.437 0.283 0.23
-16.665 17.425 0.283 0.21
-16.352 17.044 0.281 0.42
-16.776 17.377 0.283 0.26
-16.684 17.173 0.282 0.21
-16.044 16.409 0.279 0.36
-16.192 16.457 0.28 0.42
-17.225 17.4 0.284 0.29
-17.264 17.33 0.284 0.25
-16.424 16.433 0.28 0.28
-16.429 16.335 0.28 0.32
-16.456 16.259 0.28 0.32
-16.36 16.063 0.279 0.37
-16.736 16.33 0.281 0.34
-16.805 16.294 0.281 0.3
-16.919 16.303 0.281 0.23
-16.857 16.191 0.28 0.4
-16.861 16.094 0.28 0.3
-16.875 16.007 0.28 0.39
-17.032 16.054 0.281 0.37
-17.187 16.099 0.281 0.18
-17.05 15.87 0.28 0.47
-17.225 15.932 0.281 0.29
-17.423 16.065 0.282 0.23
-17.194 15.753 0.28 0.32
-17.262 15.717 0.28 0.28
-17.263 15.618 0.28 0.48
-27.996 25.191 0.326 0.2
-28.008 25.043 0.325 0.32
-28.003 24.88 0.325 0.32
-28.012 24.731 0.325 0.32
-27.98 24.625 0.324 0.32
-27.984 24.472 0.324 0.32
-27.985 24.319 0.324 0.33
-27.993 24.172 0.323 0.32
-27.989 24.015 0.323 0.33
-27.993 23.866 0.323 0.33
-28.005 23.724 0.323 0.33
-27.966 23.616 0.322 0.34
-27.971 23.47 0.322 0.34
-27.977 23.326 0.322 0.34
-27.985 23.184 0.321 0.34
-27.987 23.037 0.321 0.34
-27.994 22.896 0.321 0.35
-27.99 22.746 0.32 0.36
-27.962 22.651 0.32 0.35
-27.968 22.51 0.32 0.35
-27.96 22.359 0.32 0.35
-27.974 22.227 0.319 0.36
-27.976 22.085 0.319 0.35
-27.986 21.95 0.319 0.36
-27.982 21.806 0.319 0.36
-27.992 21.672 0.318 0.36
-27.958 21.576 0.318 0.36
-27.964 21.44 0.318 0.33
-27.969 21.305 0.318 0.34
-27.967 21.165 0.317 0.34
-27.968 21.028 0.317 0.35
-27.971 20.893 0.317 0.34
-27.984 20.766 0.317 0.34
-27.946 20.669 0.316 0.34
-27.961 20.545 0.316 0.35
-27.961 20.41 0.316 0.34
-27.96 20.275 0.316 0.36
-27.97 20.148 0.315 0.35
-27.971 20.016 0.315 0.36
-27.974 19.885 0.315 0.35
-27.951 19.803 0.315 0.37
-27.948 19.669 0.315 0.35
-27.95 19.54 0.314 0.37
-27.959 19.415 0.314 0.35
-27.962 19.288 0.314 0.37
-27.962 19.158 0.314 0.36
-27.957 19.026 0.313 0.37
-27.964 18.902 0.313 0.37
-27.946 18.826 0.313 0.37
-27.94 18.694 0.313 0.38
-27.95 18.574 0.313 0.36
-27.95 18.448 0.312 0.38
-27.951 18.323 0.312 0.37
-27.958 18.202 0.312 0.38
-27.958 18.077 0.312 0.37
-27.938 18.002 0.312 0.3
-27.932 17.874 0.311 0.49
-27.986 17.785 0.311 0.34
-28.176 17.781 0.312 0.33
-28.365 17.777 0.312 0.33
-28.551 17.769 0.313 0.3
-28.738 17.76 0.313 0.33
-28.905 17.801 0.314 0.33
-29.103 17.797 0.314 0.32
-29.297 17.79 0.315 0.32
-29.483 17.776 0.315 0.31
-29.691 17.775 0.316 0.31
-29.893 17.769 0.316 0.3
-30.1 17.764 0.317 0.3
-30.28 17.806 0.318 0.3
-30.491 17.802 0.318 0.3
-30.707 17.799 0.319 0.3
-30.916 17.791 0.319 0.29
-31.133 17.786 0.32 0.29
-31.352 17.781 0.32 0.29
-31.551 17.763 0.321 0.26
-31.735 17.801 0.322 0.19
-31.964 17.798 0.322 0.5
-32.092 17.737 0.322 0.2
-32.251 17.693 0.323 0.21
-28.772 15.664 0.31 0.27
-28.84 15.584 0.31 0.25
-32.263 17.306 0.322 0.14
-28.145 14.98 0.307 0.15
-28.124 14.912 0.307 0.57
-28.12 14.797 0.307 0.3
-28.136 14.693 0.307 0.3
-28.363 14.698 0.308 0.39
-27.993 14.395 0.306 0.14
-27.956 14.265 0.306 0.2
-27.935 14.143 0.306 0.18
-28.077 14.16 0.306 0.16
-32.238 16.136 0.32 0.19
-32.246 16.013 0.32 0.39
-32.253 15.891 0.32 0.23
-32.249 15.763 0.32 0.19
-32.261 15.643 0.32 0.4
-32.261 15.518 0.32 0.22
-32.242 15.447 0.32 0.21
-32.24 15.321 0.319 0.27
-32.373 15.26 0.32 0.0
-32.612 15.248 0.32 0.0
-32.504 15.073 0.32 0.0
-32.753 15.064 0.32 0.0
-33.028 15.065 0.321 0.0
-33.277 15.116 0.322 0.0
-33.492 15.087 0.323 0.0
-33.932 15.157 0.324 0.0
-34.215 15.155 0.325 0.0
-34.694 15.238 0.326 0.0
-41.168 17.779 0.348 0.28
-41.479 17.836 0.349 0.29
-41.809 17.822 0.35 0.28
-42.13 17.803 0.351 0.29
-42.505 17.805 0.352 0.26
-42.836 17.785 0.353 0.2
-43.124 17.747 0.354 0.17
-43.411 17.706 0.355 0.14
-43.487 17.578 0.355 0.2
-43.466 17.49 0.354 0.16
-39.117 15.594 0.34 0.16
-39.153 15.466 0.34 0.29
-43.478 17.02 0.354 0.23
-43.496 16.87 0.354 0.23
-43.484 16.708 0.354 0.17
-43.491 16.554 0.353 0.43
-43.472 16.469 0.353 0.24
-43.479 16.315 0.353 0.24
-43.459 16.152 0.353 0.14
-43.43 15.986 0.353 0.14
-43.477 15.848 0.353 0.21
-43.474 15.693 0.353 0.42
-43.481 15.541 0.352 0.25
-43.496 15.393 0.352 0.22
-43.46 15.303 0.352 0.0
-43.749 15.251 0.353 0.0
-44.164 15.24 0.354 0.0
-44.603 15.235 0.355 0.0
-45.058 15.233 0.357 0.0
-45.489 15.22 0.358 0.0
-45.953 15.295 0.359 0.12
-54.135 17.835 0.386 0.1
-54.525 17.774 0.388 0.15
-54.699 17.64 0.388 0.09
-54.731 17.461 0.388 0.15
-54.721 17.269 0.388 0.1
-54.718 17.079 0.387 0.0
-54.71 16.982 0.387 0.0
-54.692 16.788 0.387 0.0
-54.737 16.614 0.387 0.0
-50.194 15.061 0.372 0.0
-50.56 14.998 0.373 0.06
-54.728 16.05 0.387 0.14
-54.719 15.86 0.386 0.1
-54.686 15.665 0.386 0.08
-54.676 15.569 0.386 0.08
-54.703 15.391 0.386 0.0
-54.823 15.239 0.386 0.0
-55.491 15.237 0.388 0.0
-56.152 15.23 0.39 0.0
-56.793 15.212 0.392 0.0
-63.472 16.791 0.414 0.0
-64.935 17.07 0.418 0.0
-65.96 17.118 0.422 0.0
-66.426 17.017 0.423 0.0
-67.379 17.036 0.426 0.0
-67.958 16.955 0.428 0.0
-69.162 17.026 0.431 0.0
-60.781 14.757 0.404 0.0
-70.847 17.087 0.437 0.0
-71.698 17.055 0.439 0.11
-72.026 16.894 0.44 0.12
-72.021 16.654 0.44 0.18
-72.035 16.419 0.44 0.29
-72.034 16.181 0.44 0.2
-72.026 15.942 0.439 0.0
-72.033 15.706 0.439 0.0
-67.94 14.477 0.426 0.0
-67.84 14.233 0.425 0.0
-67.975 14.038 0.426 0.0
-78.355 14.78 0.458 0.0
-78.793 12.694 0.458 0.0
-78.842 12.448 0.458 0.0
-78.936 12.208 0.459 0.0
-79.139 -10.923 0.459 0.0
-78.557 -10.968 0.457 0.0
-78.326 -11.187 0.456 0.0
-78.176 -11.416 0.456 0.0
-78.219 -11.674 0.456 0.0
-78.099 -11.907 0.456 0.0
-77.386 -12.296 0.454 0.0
-77.353 -12.416 0.454 0.0
-59.326 -9.72 0.396 0.0
-55.565 -9.284 0.384 0.0
-58.414 -9.948 0.394 0.0
-58.314 -10.119 0.393 0.0
-54.594 -9.652 0.382 0.0
-57.444 -10.341 0.391 0.0
-51.356 -9.331 0.371 0.0
-50.711 -9.379 0.369 0.12
-50.349 -9.476 0.368 0.0
-50.781 -9.722 0.37 0.0
-49.884 -9.714 0.367 0.0
-49.987 -9.897 0.367 0.08
-49.469 -9.956 0.366 0.17
-49.316 -10.087 0.365 0.14
-49.228 -10.149 0.365 0.15
-49.113 -10.287 0.365 0.2
-48.854 -10.393 0.364 0.0
-48.891 -10.561 0.364 0.0
-52.516 -13.256 0.378 0.0
-52.375 -13.396 0.377 0.0
-69.965 -18.355 0.435 0.0
-70.033 -18.608 0.435 0.0
-52.011 -14.002 0.377 0.0
-52.109 -14.116 0.377 0.0
-59.431 -16.296 0.401 0.0
-59.351 -16.475 0.401 0.0
-58.519 -16.442 0.398 0.0
-58.148 -16.536 0.397 0.07
-58.074 -16.712 0.397 0.0
-58.273 -16.968 0.398 0.0
-58.196 -17.144 0.398 0.0
-58.187 -17.24 0.398 0.0
-58.199 -17.443 0.398 0.0
-57.972 -17.574 0.398 0.0
-57.962 -17.77 0.398 0.0
-71.603 -22.191 0.443 0.0
-71.605 -22.439 0.443 0.0
-49.783 -16.039 0.372 0.13
-49.31 -16.058 0.37 0.0
-49.571 -16.316 0.371 0.0
-49.25 -16.382 0.37 0.0
-49.126 -16.512 0.37 0.0
-48.993 -16.639 0.37 0.0
-53.084 -18.119 0.384 0.0
-49.16 -16.954 0.371 0.0
-48.077 -16.75 0.367 0.0
-47.812 -16.827 0.367 0.09
-44.135 -15.691 0.354 0.15
-43.85 -15.745 0.354 0.34
-43.735 -15.859 0.353 0.23
-43.751 -15.943 0.354 0.23
-43.702 -16.081 0.354 0.23
-43.569 -16.187 0.353 0.18
-43.404 -16.281 0.353 0.0
-47.221 -17.88 0.366 0.0
-43.181 -16.508 0.353 0.0
-40.176 -15.579 0.343 0.31
-39.881 -15.609 0.342 0.1
-38.885 -15.361 0.339 0.16
-38.136 -15.204 0.336 0.16
-38.146 -15.347 0.336 0.43
-38.04 -15.443 0.336 0.19
-37.477 -15.352 0.334 0.24
-36.879 -15.243 0.333 0.14
-36.663 -15.222 0.332 0.15
-36.336 -15.22 0.331 0.14
-35.675 -15.075 0.329 0.23
-35.25 -15.027 0.328 0.36
-34.807 -14.968 0.326 0.25
-34.4 -14.922 0.325 0.29
-34.258 -14.988 0.325 0.29
-34.024 -14.949 0.324 0.23
-33.794 -14.975 0.323 0.28
-33.557 -14.997 0.323 0.29
-33.3 -15.008 0.322 0.2
-32.733 -14.877 0.32 0.0
-32.293 -14.8 0.319 0.13
-31.33 -14.478 0.316 0.21
-31.3 -14.524 0.316 0.16
-31.761 -14.859 0.317 0.15
-31.799 -14.999 0.318 0.24
-31.376 -14.92 0.316 0.2
-31.353 -15.03 0.316 0.46
-31.14 -15.049 0.316 0.23
-30.851 -15.029 0.315 0.25
-30.351 -14.845 0.313 0.25
-29.651 -14.619 0.311 0.34
-29.525 -14.672 0.311 0.25
-29.203 -14.627 0.31 0.32
-28.937 -14.608 0.309 0.38
-29.092 -14.801 0.31 0.2
-28.537 -14.632 0.308 0.36
-28.391 -14.614 0.307 0.28
-28.103 -14.578 0.307 0.32
-27.834 -14.549 0.306 0.32
-27.54 -14.506 0.305 0.32
-27.321 -14.501 0.304 0.31
-27.108 -14.497 0.304 0.37
-27.006 -14.552 0.304 0.27
-26.747 -14.522 0.303 0.31
-26.649 -14.523 0.302 0.36
-26.282 -14.43 0.301 0.25
-26.09 -14.432 0.301 0.38
-26.032 -14.507 0.301 0.28
-25.712 -14.435 0.3 0.34
-25.444 -14.39 0.299 0.3
-25.442 -14.495 0.299 0.37
-25.251 -14.438 0.298 0.28
-24.989 -14.393 0.298 0.38
-24.827 -14.404 0.297 0.32
-24.578 -14.363 0.297 0.29
-24.438 -14.385 0.296 0.38
-24.298 -14.405 0.296 0.29
-24.093 -14.386 0.295 0.32
-23.903 -14.376 0.295 0.34
-23.72 -14.316 0.294 0.28
-23.454 -14.257 0.293 0.37
-23.349 -14.294 0.293 0.31
-23.141 -14.267 0.292 0.34
-23.047 -14.309 0.292 0.32
-22.811 -14.262 0.292 0.42
-22.64 -14.254 0.291 0.3
-22.514 -14.225 0.291 0.33
-22.373 -14.234 0.29 0.4
-22.175 -14.207 0.29 0.3
-21.992 -14.187 0.289 0.33
-21.863 -14.202 0.289 0.35
-21.74 -14.219 0.289 0.36
-21.603 -14.227 0.288 0.3
-21.431 -14.162 0.288 0.3
-21.241 -14.133 0.287 0.42
-21.102 -14.136 0.287 0.3
-20.911 -14.104 0.286 0.37
-20.754 -14.093 0.286 0.36
-20.733 -14.174 0.286 0.31
-20.514 -14.119 0.285 0.46
-20.463 -14.132 0.285 0.31
-20.227 -14.063 0.284 0.36
-20.032 -14.021 0.284 0.29
-19.768 -13.93 0.283 0.38
-19.684 -13.963 0.283 0.31
-19.511 -13.933 0.282 0.37
-19.449 -13.982 0.282 0.36
-19.266 -13.897 0.282 0.34
-19.04 -13.824 0.281 0.3
-18.97 -13.865 0.281 0.36
-18.849 -13.868 0.281 0.35
-18.809 -13.93 0.281 0.35
-18.73 -13.962 0.28 0.41
-18.614 -13.967 0.28 0.37
-18.489 -13.92 0.28 0.39
-18.379 -13.927 0.279 0.26
-18.258 -13.926 0.279 0.43
-18.138 -13.925 0.279 0.32
-18.145 -14.021 0.279 0.32
-17.93 -13.946 0.278 0.4
-17.894 -14.008 0.278 0.37
-17.83 -14.048 0.278 0.33
-17.732 -14.017 0.278 0.39
-17.671 -14.059 0.278 0.34
-17.57 -14.069 0.278 0.41
-17.437 -14.053 0.277 0.36
-17.284 -14.02 0.277 0.33
-17.207 -14.047 0.277 0.37
-17.159 -14.098 0.277 0.36
-17.022 -14.031 0.276 0.43
-16.95 -14.061 0.276 0.35
-16.849 -14.067 0.276 0.38
-16.774 -14.094 0.276 0.29
-16.69 -14.113 0.276 0.32
-16.539 -14.075 0.275 0.36
-16.448 -14.086 0.275 0.36
-16.41 -14.099 0.275 0.38
-16.366 -14.151 0.275 0.35
-16.273 -14.16 0.275 0.52
-16.307 -14.28 0.275 0.32
-16.238 -14.31 0.275 0.3
-16.172 -14.342 0.275 0.27
-16.076 -14.348 0.275 0.33
-15.998 -14.323 0.274 0.32
-15.89 -14.318 0.274 0.25
-15.494 -14.049 0.273 0.3
-15.476 -14.122 0.273 0.42
-15.432 -14.171 0.273 0.2
-15.271 -14.112 0.272 0.42
-15.243 -14.175 0.272 0.34
-15.25 -14.226 0.273 0.31
-15.065 -14.143 0.272 0.38
-15.006 -14.176 0.272 0.25
-14.955 -14.218 0.272 0.56
-14.976 -14.327 0.272 0.31
-14.908 -14.352 0.272 0.27
-14.806 -14.344 0.272 0.24
-14.707 -14.338 0.272 0.25
-14.514 -14.195 0.271 0.27
-14.406 -14.179 0.271 0.27
-14.234 -14.097 0.27 0.3
-14.118 -14.071 0.27 0.36
-14.064 -14.106 0.27 0.43
-14.137 -14.268 0.27 0.22
-14.067 -14.286 0.27 0.56
-14.048 -14.313 0.27 0.31
-13.973 -14.325 0.27 0.29
-13.883 -14.323 0.27 0.29
-13.788 -14.315 0.269 0.3
-13.717 -14.331 0.269 0.36
-13.641 -14.342 0.269 0.32
-13.545 -14.331 0.269 0.29
-13.473 -14.3 0.269 0.27
-13.417 -14.331 0.269 0.39
-13.324 -14.321 0.268 0.33
-13.24 -14.321 0.268 0.3
-13.161 -14.325 0.268 0.25
-13.075 -14.323 0.268 0.34
-12.997 -14.327 0.268 0.29
-12.939 -14.308 0.268 0.29
-12.862 -14.313 0.267 0.3
-12.786 -14.319 0.267 0.31
-12.696 -14.309 0.267 0.23
-12.626 -14.32 0.267 0.46
-12.548 -14.322 0.267 0.26
-12.47 -14.324 0.267 0.27
-12.383 -14.315 0.266 0.22
-12.342 -14.313 0.266 0.42
-12.261 -14.309 0.266 0.27
-12.175 -14.3 0.266 0.3
-12.107 -14.311 0.266 0.32
-12.031 -14.312 0.266 0.29
-11.947 -14.304 0.266 0.21
-11.913 -14.309 0.265 0.4
-11.83 -14.3 0.265 0.31
-11.757 -14.303 0.265 0.26
-11.684 -14.306 0.265 0.28
-11.612 -14.309 0.265 0.24
-11.536 -14.308 0.265 0.27
-11.46 -14.305 0.265 0.44
-11.399 -14.32 0.264 0.22
-11.345 -14.299 0.264 0.18
-11.269 -14.296 0.264 0.39
-11.197 -14.296 0.264 0.36
-11.132 -14.306 0.264 0.26
-11.06 -14.306 0.264 0.26
-10.959 -14.268 0.264 0.32
-10.884 -14.263 0.263 0.3
-10.834 -14.243 0.263 0.3
-10.768 -14.25 0.263 0.3
-10.689 -14.238 0.263 0.28
-10.613 -14.229 0.263 0.3
-10.543 -14.229 0.263 0.29
-10.474 -14.23 0.263 0.27
-10.447 -14.287 0.263 0.34
-10.415 -14.29 0.263 0.3
-10.343 -14.286 0.262 0.31
-10.277 -14.289 0.262 0.31
-10.214 -14.295 0.262 0.32
-10.141 -14.288 0.262 0.27
-10.075 -14.291 0.262 0.32
-10.007 -14.289 0.262 0.31
-9.946 -14.298 0.262 0.3
-9.898 -14.276 0.262 0.32
-9.838 -14.285 0.261 0.33
-9.772 -14.285 0.261 0.36
-9.703 -14.281 0.261 0.29
-9.642 -14.288 0.261 0.34
-9.591 -14.308 0.261 0.34
-9.521 -14.302 0.261 0.3
-9.473 -14.278 0.261 0.32
-9.416 -14.29 0.261 0.38
-9.353 -14.291 0.261 0.31
-9.288 -14.29 0.261 0.32
-9.226 -14.292 0.26 0.32
-9.16 -14.289 0.26 0.36
-9.1 -14.294 0.26 0.36
-9.063 -14.285 0.26 0.29
-8.998 -14.281 0.26 0.39
-8.946 -14.299 0.26 0.33
-8.88 -14.293 0.26 0.3
-8.814 -14.287 0.26 0.29
-8.764 -14.306 0.26 0.33
-8.695 -14.294 0.26 0.3
-8.649 -14.269 0.259 0.21
-8.591 -14.275 0.259 0.4
-8.532 -14.278 0.259 0.3
-8.473 -14.281 0.259 0.3
-8.415 -14.285 0.259 0.29
-8.355 -14.286 0.259 0.39
-8.293 -14.282 0.259 0.27
-8.26 -14.278 0.259 0.36
-8.201 -14.28 0.259 0.38
-8.143 -14.283 0.259 0.26
-8.086 -14.286 0.259 0.37
-8.022 -14.278 0.258 0.33
-7.967 -14.286 0.258 0.39
-7.911 -14.29 0.258 0.31
-7.999 -14.502 0.259 0.0
-5.01 -9.238 0.24 0.16
-4.946 -9.191 0.24 0.18
-7.587 -14.283 0.258 0.3
-7.536 -14.294 0.258 0.43
-7.5 -14.28 0.258 0.28
-7.445 -14.285 0.258 0.27
-7.381 -14.272 0.257 0.35
-7.331 -14.284 0.257 0.29
-7.272 -14.28 0.257 0.27
-7.215 -14.278 0.257 0.32
-7.158 -14.277 0.257 0.34
-7.103 -14.28 0.257 0.32
-7.066 -14.261 0.257 0.31
-7.013 -14.267 0.257 0.45
-6.965 -14.282 0.257 0.28
-6.909 -14.282 0.257 0.3
-6.852 -14.278 0.257 0.32
-6.793 -14.269 0.257 0.32
-6.737 -14.267 0.257 0.38
-6.707 -14.263 0.256 0.28
-6.657 -14.271 0.256 0.39
-6.599 -14.265 0.256 0.29
-6.543 -14.262 0.256 0.35
-6.493 -14.27 0.256 0.34
-6.433 -14.257 0.256 0.36
-6.382 -14.263 0.256 0.36
-6.356 -14.265 0.256 0.33
-6.296 -14.252 0.256 0.32
-6.252 -14.272 0.256 0.38
-6.2 -14.275 0.256 0.3
-6.136 -14.252 0.256 0.3
-6.092 -14.272 0.256 0.39
-6.04 -14.274 0.256 0.3
-6.009 -14.265 0.256 0.35
-5.953 -14.256 0.256 0.31
-5.907 -14.273 0.255 0.39
-5.851 -14.264 0.255 0.32
-5.802 -14.273 0.255 0.31
-5.749 -14.271 0.255 0.26
-5.703 -14.285 0.255 0.35
-5.675 -14.281 0.255 0.22
-5.619 -14.269 0.255 0.27
-5.569 -14.273 0.255 0.4
-5.517 -14.274 0.255 0.32
-5.467 -14.278 0.255 0.27
-5.416 -14.279 0.255 0.3
-5.364 -14.277 0.255 0.25
-5.336 -14.27 0.255 0.32
-5.283 -14.264 0.255 0.26
-5.238 -14.281 0.255 0.36
-5.185 -14.275 0.255 0.25
-5.131 -14.267 0.255 0.27
-5.082 -14.271 0.255 0.36
-5.033 -14.274 0.255 0.29
-4.977 -14.258 0.254 0.25
-4.951 -14.256 0.254 0.35
-4.9 -14.254 0.254 0.28
-4.854 -14.264 0.254 0.47
-4.801 -14.257 0.254 0.27
-4.752 -14.258 0.254 0.25
-4.702 -14.258 0.254 0.36
-4.674 -14.25 0.254 0.3
-4.628 -14.261 0.254 0.39
-4.579 -14.262 0.254 0.23
-4.53 -14.263 0.254 0.33
-4.479 -14.258 0.254 0.33
-4.43 -14.257 0.254 0.38
-4.383 -14.265 0.254 0.34
-4.333 -14.262 0.254 0.35
-4.307 -14.255 0.254 0.37
-4.258 -14.255 0.254 0.32
-4.208 -14.253 0.254 0.32
-4.165 -14.272 0.254 0.21
-4.111 -14.252 0.254 0.54
-4.045 -14.19 0.253 0.34
-3.985 -14.149 0.253 0.33
-3.963 -14.155 0.253 0.36
-3.916 -14.16 0.253 0.28
-3.866 -14.151 0.253 0.27
-3.819 -14.153 0.253 0.25
-3.774 -14.163 0.253 0.38
-3.727 -14.167 0.253 0.36
-3.677 -14.158 0.253 0.38
-3.653 -14.156 0.253 0.31
-3.602 -14.142 0.253 0.28
-3.56 -14.163 0.253 0.3
-3.52 -14.195 0.253 0.21
-3.491 -14.268 0.253 0.48
-3.441 -14.258 0.253 0.24
-3.39 -14.241 0.253 0.27
-3.366 -14.243 0.253 0.35
-3.319 -14.24 0.253 0.31
-3.272 -14.244 0.253 0.3
-3.226 -14.247 0.253 0.39
-3.178 -14.241 0.253 0.32
-3.132 -14.245 0.253 0.32
-3.089 -14.267 0.253 0.39
-3.037 -14.241 0.253 0.31
-3.014 -14.244 0.253 0.36
-2.966 -14.24 0.253 0.33
-2.92 -14.241 0.253 0.29
-2.875 -14.25 0.253 0.35
-2.827 -14.243 0.253 0.23
-2.784 -14.258 0.253 0.44
-2.739 -14.267 0.253 0.31
-2.712 -14.247 0.253 0.28
-2.666 -14.248 0.252 0.31
-2.622 -14.262 0.253 0.3
-2.573 -14.247 0.252 0.29
-2.529 -14.259 0.252 0.33
-2.482 -14.255 0.252 0.28
-2.436 -14.257 0.252 0.29
-2.413 -14.253 0.252 0.19
-2.367 -14.254 0.252 0.39
-2.321 -14.256 0.252 0.33
-2.274 -14.249 0.252 0.28
-2.228 -14.25 0.252 0.36
-2.181 -14.239 0.252 0.32
-2.136 -14.244 0.252 0.29
-2.113 -14.247 0.252 0.38
-2.067 -14.244 0.252 0.23
-2.023 -14.252 0.252 0.32
-1.976 -14.247 0.252 0.32
-1.929 -14.239 0.252 0.35
-1.884 -14.239 0.252 0.36
-1.841 -14.257 0.252 0.32
-1.815 -14.234 0.252 0.34
-1.77 -14.24 0.252 0.34
-1.727 -14.257 0.252 0.34
-1.68 -14.247 0.252 0.36
-1.635 -14.246 0.252 0.36
-1.591 -14.257 0.252 0.37
-1.543 -14.234 0.252 0.4
-1.522 -14.246 0.252 0.3
-1.477 -14.253 0.252 0.35
-1.43 -14.234 0.252 0.29
-1.387 -14.26 0.252 0.36
-1.342 -14.26 0.252 0.34
-1.295 -14.244 0.252 0.31
-1.25 -14.241 0.252 0.3
-1.205 -14.24 0.252 0.35
-1.182 -14.24 0.252 0.36
-1.137 -14.236 0.252 0.36
-1.092 -14.233 0.252 0.33
-1.047 -14.237 0.252 0.35
-1.003 -14.254 0.252 0.35
-0.957 -14.237 0.252 0.33
-0.935 -14.241 0.252 0.27
-0.89 -14.247 0.252 0.35
-0.845 -14.244 0.252 0.34
-0.8 -14.233 0.252 0.29
-0.756 -14.247 0.252 0.39
-0.71 -14.236 0.252 0.27
-0.666 -14.252 0.252 0.39
-0.621 -14.248 0.252 0.26
-0.599 -14.249 0.252 0.35
-0.553 -14.235 0.252 0.29
-0.509 -14.244 0.252 0.41
-0.464 -14.242 0.252 0.3
-0.419 -14.241 0.252 0.31
-0.374 -14.242 0.252 0.33
-0.329 -14.235 0.252 0.34
-0.307 -14.238 0.252 0.34
-0.262 -14.235 0.252 0.36
-0.218 -14.244 0.252 0.33
-0.173 -14.244 0.252 0.35
-0.128 -14.243 0.252 0.28
-0.084 -14.255 0.252 0.46
-0.039 -14.253 0.252 0.29
-0.016 -14.255 0.252 0.3
0.028 -14.249 0.252 0.31
0.073 -14.245 0.252 0.3
0.118 -14.249 0.252 0.34
0.163 -14.244 0.252 0.29
0.207 -14.252 0.252 0.35
0.252 -14.241 0.252 0.24
0.275 -14.253 0.252 0.41
0.319 -14.244 0.252 0.29
0.364 -14.251 0.252 0.28
0.409 -14.249 0.252 0.33
0.454 -14.246 0.252 0.34
0.498 -14.243 0.252 0.27
0.543 -14.245 0.252 0.32
0.566 -14.248 0.252 0.37
0.611 -14.248 0.252 0.31
0.655 -14.244 0.252 0.32
0.7 -14.25 0.252 0.32
0.745 -14.248 0.252 0.32
0.79 -14.251 0.252 0.33
0.836 -14.257 0.252 0.3
0.857 -14.242 0.252 0.37
0.902 -14.239 0.252 0.33
0.947 -14.248 0.252 0.37
0.992 -14.241 0.252 0.35
1.037 -14.244 0.252 0.31
1.082 -14.244 0.252 0.34
1.127 -14.243 0.252 0.35
1.15 -14.251 0.252 0.35
1.195 -14.245 0.252 0.36
1.239 -14.239 0.252 0.37
1.284 -14.237 0.252 0.37
1.33 -14.249 0.252 0.34
1.376 -14.253 0.252 0.35
1.421 -14.253 0.252 0.37
1.443 -14.242 0.252 0.38
1.489 -14.25 0.252 0.33
1.534 -14.255 0.252 0.34
1.578 -14.24 0.252 0.36
1.624 -14.243 0.252 0.34
1.67 -14.248 0.252 0.37
1.715 -14.246 0.252 0.36
1.76 -14.249 0.252 0.34
1.784 -14.254 0.252 0.32
1.829 -14.248 0.252 0.37
1.874 -14.247 0.252 0.31
1.919 -14.241 0.252 0.36
1.965 -14.248 0.252 0.29
2.011 -14.252 0.252 0.32
2.056 -14.248 0.252 0.33
2.078 -14.24 0.252 0.34
2.124 -14.24 0.252 0.38
2.17 -14.245 0.252 0.33
2.215 -14.236 0.252 0.32
2.262 -14.243 0.252 0.46
2.308 -14.247 0.252 0.34
2.355 -14.254 0.252 0.27
2.378 -14.254 0.252 0.32
2.425 -14.259 0.252 0.34
2.467 -14.233 0.252 0.26
2.514 -14.237 0.252 0.36
2.56 -14.239 0.252 0.38
2.606 -14.237 0.252 0.32
2.653 -14.242 0.252 0.33
2.677 -14.248 0.253 0.34
2.721 -14.235 0.252 0.27
2.77 -14.247 0.253 0.44
2.815 -14.238 0.253 0.24
2.862 -14.241 0.253 0.29
2.906 -14.23 0.253 0.3
2.953 -14.234 0.253 0.4
2.978 -14.239 0.253 0.29
3.024 -14.238 0.253 0.33
3.072 -14.242 0.253 0.29
3.117 -14.236 0.253 0.38
3.164 -14.234 0.253 0.36
3.214 -14.249 0.253 0.36
3.257 -14.231 0.253 0.4
3.296 -14.196 0.253 0.37
3.307 -14.14 0.253 0.29
3.352 -14.135 0.253 0.36
3.4 -14.136 0.253 0.33
3.448 -14.141 0.253 0.29
3.491 -14.126 0.253 0.32
3.539 -14.129 0.253 0.32
3.588 -14.137 0.253 0.41
3.61 -14.129 0.253 0.31
3.658 -14.134 0.253 0.32
3.708 -14.141 0.253 0.37
3.752 -14.13 0.253 0.3
3.803 -14.141 0.253 0.29
3.871 -14.216 0.253 0.34
3.9 -14.235 0.253 0.36
3.947 -14.232 0.253 0.36
3.998 -14.243 0.253 0.34
4.044 -14.234 0.253 0.36
4.094 -14.24 0.254 0.37
4.145 -14.249 0.254 0.36
4.191 -14.241 0.254 0.34
4.24 -14.24 0.254 0.27
4.266 -14.246 0.254 0.43
4.309 -14.229 0.254 0.32
4.359 -14.231 0.254 0.35
4.411 -14.242 0.254 0.37
4.458 -14.234 0.254 0.36
4.51 -14.242 0.254 0.38
4.562 -14.251 0.254 0.26
4.583 -14.24 0.254 0.45
4.633 -14.243 0.254 0.27
4.683 -14.245 0.254 0.42
4.731 -14.238 0.254 0.33
4.782 -14.242 0.254 0.35
4.833 -14.246 0.254 0.26
4.88 -14.238 0.254 0.48
4.906 -14.242 0.254 0.33
4.954 -14.236 0.254 0.36
5.006 -14.239 0.254 0.34
5.054 -14.235 0.254 0.31
5.104 -14.232 0.254 0.33
5.151 -14.223 0.254 0.27
5.207 -14.237 0.255 0.42
5.237 -14.25 0.255 0.3
5.283 -14.237 0.255 0.25
5.334 -14.239 0.255 0.3
5.388 -14.246 0.255 0.37
5.433 -14.229 0.255 0.33
5.488 -14.24 0.255 0.38
5.54 -14.24 0.255 0.33
5.589 -14.233 0.255 0.34
5.615 -14.234 0.255 0.29
5.671 -14.246 0.255 0.3
