# .PCD v.7 - Point Cloud Data file format
VERSION .7
FIELDS x y z intensity
SIZE 4 4 4 4
TYPE F F F F
COUNT 1 1 1 1
WIDTH 1947
HEIGHT 1
VIEWPOINT 0 0 0 1 0 0 0
POINTS 1947
DATA ascii
-0.073 -8.437 -1.509 0.14
-0.06 -8.411 -1.504 0.21
-0.034 -8.39 -1.5 0.16
-0.007 -8.394 -1.501 0.3
0.019 -8.355 -1.493 0.18
0.045 -8.36 -1.494 0.25
0.071 -8.358 -1.494 0.2
0.097 -8.336 -1.49 0.05
0.111 -8.34 -1.49 0.17
0.137 -8.346 -1.492 0.05
0.163 -8.33 -1.489 0.14
0.19 -8.356 -1.494 0.05
0.215 -8.336 -1.49 0.16
0.242 -8.351 -1.493 0.19
0.269 -8.384 -1.5 0.17
0.283 -8.385 -1.5 0.23
0.308 -8.355 -1.494 0.14
0.336 -8.401 -1.503 0.27
0.361 -8.367 -1.497 0.24
0.388 -8.379 -1.5 0.2
0.414 -8.38 -1.5 0.24
0.439 -8.345 -1.493 0.23
0.467 -8.373 -1.499 0.25
0.481 -8.388 -1.502 0.12
0.506 -8.361 -1.497 0.19
0.534 -8.387 -1.503 0.11
0.561 -8.399 -1.505 0.18
0.586 -8.381 -1.502 0.12
0.612 -8.368 -1.5 0.21
0.639 -8.378 -1.502 0.11
0.652 -8.371 -1.501 0.2
0.672 -8.296 -1.487 0.12
0.7 -8.317 -1.492 0.28
0.729 -8.35 -1.498 0.19
0.752 -8.313 -1.492 0.23
0.777 -8.299 -1.489 0.19
0.806 -8.326 -1.495 0.12
0.819 -8.324 -1.495 0.09
0.842 -8.294 -1.49 0.14
0.865 -8.258 -1.483 0.05
0.893 -8.273 -1.487 0.14
0.922 -8.302 -1.493 0.18
0.944 -8.258 -1.485 0.04
0.97 -8.257 -1.485 0.04
0.984 -8.265 -1.487 0.03
1.009 -8.254 -1.485 0.03
1.035 -8.253 -1.486 0.03
1.057 -8.222 -1.481 0.0
1.081 -8.201 -1.477 0.0
1.11 -8.219 -1.481 0.03
1.141 -8.255 -1.489 0.0
1.143 -8.179 -1.474 0.0
1.149 -8.039 -1.448 0.0
1.167 -7.985 -1.438 0.0
1.181 -7.908 -1.424 0.0
1.187 -7.784 -1.4 0.0
1.204 -7.733 -1.391 0.0
1.219 -7.673 -1.38 0.0
1.228 -7.65 -1.376 0.0
1.25 -7.638 -1.374 0.0
1.275 -7.638 -1.375 0.0
1.304 -7.663 -1.381 0.0
1.329 -7.665 -1.382 0.0
1.351 -7.649 -1.379 0.0
1.373 -7.635 -1.378 0.0
1.385 -7.631 -1.377 0.0
1.409 -7.629 -1.378 0.0
1.434 -7.628 -1.378 0.0
1.461 -7.641 -1.382 0.0
1.485 -7.636 -1.382 0.0
1.511 -7.641 -1.384 0.0
1.535 -7.636 -1.384 0.0
1.548 -7.636 -1.384 0.0
1.573 -7.637 -1.385 0.0
1.598 -7.638 -1.386 0.0
1.624 -7.64 -1.388 0.0
1.648 -7.639 -1.389 0.0
1.672 -7.63 -1.388 0.0
1.697 -7.63 -1.389 0.0
1.723 -7.633 -1.39 0.0
1.736 -7.638 -1.392 0.0
1.76 -7.63 -1.392 0.0
1.785 -7.63 -1.393 0.0
1.814 -7.644 -1.397 0.0
1.84 -7.646 -1.398 0.0
1.863 -7.638 -1.398 0.0
1.89 -7.645 -1.4 0.0
1.902 -7.642 -1.4 0.0
1.93 -7.65 -1.403 0.0
1.958 -7.661 -1.406 0.07
1.98 -7.647 -1.405 0.04
2.006 -7.646 -1.406 0.04
2.035 -7.657 -1.409 0.04
2.064 -7.671 -1.414 0.07
2.074 -7.659 -1.412 0.04
2.102 -7.667 -1.415 0.07
2.129 -7.67 -1.417 0.04
2.158 -7.68 -1.42 0.07
2.177 -7.658 -1.417 0.04
2.209 -7.676 -1.422 0.07
2.228 -7.654 -1.419 0.04
2.245 -7.668 -1.422 0.07
2.268 -7.655 -1.421 0.04
2.296 -7.661 -1.424 0.07
2.319 -7.652 -1.424 0.04
2.355 -7.682 -1.431 0.07
2.374 -7.658 -1.428 0.04
2.404 -7.671 -1.432 0.07
2.418 -7.672 -1.433 0.04
2.441 -7.661 -1.432 0.07
2.467 -7.661 -1.434 0.04
2.499 -7.675 -1.438 0.07
2.52 -7.66 -1.437 0.04
2.546 -7.656 -1.438 0.04
2.577 -7.67 -1.442 0.07
2.586 -7.657 -1.44 0.04
2.62 -7.676 -1.446 0.07
2.641 -7.659 -1.444 0.04
2.671 -7.669 -1.448 0.07
2.697 -7.664 -1.449 0.04
2.73 -7.682 -1.454 0.07
2.748 -7.657 -1.451 0.04
2.768 -7.674 -1.455 0.07
2.794 -7.669 -1.456 0.04
2.82 -7.666 -1.457 0.07
2.843 -7.653 -1.456 0.04
2.875 -7.666 -1.461 0.07
2.896 -7.65 -1.459 0.04
2.922 -7.645 -1.46 0.0
2.941 -7.66 -1.464 0.0
2.96 -7.638 -1.462 0.0
2.981 -7.62 -1.46 0.0
3.006 -7.612 -1.46 0.0
3.027 -7.597 -1.459 0.06
3.043 -7.568 -1.455 0.04
3.079 -7.589 -1.461 0.03
3.111 -7.597 -1.465 0.03
3.127 -7.603 -1.467 0.03
3.168 -7.633 -1.476 0.03
3.191 -7.621 -1.475 0.03
3.22 -7.624 -1.478 0.03
3.248 -7.623 -1.48 0.04
3.288 -7.65 -1.488 0.07
3.295 -7.633 -1.485 0.04
3.319 -7.622 -1.485 0.0
3.339 -7.603 -1.483 0.0
3.375 -7.619 -1.489 0.06
3.403 -7.619 -1.491 0.14
3.425 -7.603 -1.49 0.04
3.438 -7.569 -1.485 0.14
3.468 -7.571 -1.488 0.22
3.496 -7.601 -1.495 0.16
3.517 -7.585 -1.494 0.04
3.566 -7.627 -1.506 0.07
3.593 -7.621 -1.507 0.0
3.607 -7.59 -1.503 0.13
3.621 -7.558 -1.498 0.2
3.643 -7.543 -1.497 0.18
3.66 -7.547 -1.5 0.09
3.666 -7.499 -1.492 0.04
3.687 -7.484 -1.491 0.07
3.706 -7.462 -1.489 0.04
3.732 -7.455 -1.49 0.07
3.752 -7.438 -1.489 0.04
3.775 -7.425 -1.488 0.04
3.787 -7.421 -1.489 0.04
3.82 -7.426 -1.492 0.07
3.851 -7.43 -1.496 0.04
3.874 -7.416 -1.495 0.07
3.895 -7.4 -1.495 0.04
3.927 -7.403 -1.498 0.07
3.95 -7.391 -1.498 0.09
3.953 -7.369 -1.495 0.04
3.958 -7.324 -1.487 0.0
3.972 -7.294 -1.484 0.12
3.975 -7.246 -1.476 0.05
4.014 -7.262 -1.482 0.16
4.068 -7.306 -1.495 0.11
4.112 -7.331 -1.503 0.17
4.106 -7.292 -1.496 0.05
4.118 -7.26 -1.492 0.16
4.157 -7.276 -1.498 0.2
4.196 -7.291 -1.504 0.19
4.215 -7.271 -1.503 0.05
4.222 -7.23 -1.497 0.14
4.246 -7.22 -1.497 0.05
4.256 -7.21 -1.497 0.16
4.277 -7.195 -1.496 0.11
4.3 -7.182 -1.496 0.15
4.322 -7.168 -1.496 0.21
4.338 -7.143 -1.493 0.16
4.378 -7.157 -1.5 0.05
4.397 -7.139 -1.499 0.15
4.399 -7.117 -1.495 0.12
4.425 -7.11 -1.497 0.28
4.449 -7.097 -1.497 0.23
4.464 -7.072 -1.495 0.19
4.495 -7.073 -1.498 0.09
4.511 -7.048 -1.496 0.09
4.528 -7.026 -1.494 0.08
4.538 -7.017 -1.493 0.08
4.566 -7.013 -1.496 0.15
4.583 -6.99 -1.494 0.04
4.598 -6.966 -1.492 0.14
4.664 -7.017 -1.507 0.18
4.68 -6.994 -1.505 0.17
4.696 -6.969 -1.503 0.09
4.699 -6.951 -1.5 0.17
4.73 -6.949 -1.503 0.23
4.769 -6.96 -1.509 0.0
4.774 -6.921 -1.503 0.13
4.783 -6.886 -1.499 0.04
4.802 -6.868 -1.498 0.0
4.829 -6.861 -1.5 0.0
4.724 -6.69 -1.461 0.0
4.404 -6.199 -1.348 0.0
4.392 -6.141 -1.337 0.02
4.41 -6.125 -1.337 0.03
4.452 -6.143 -1.344 0.07
4.475 -6.134 -1.346 0.15
4.508 -6.139 -1.35 0.16
4.537 -6.137 -1.353 0.17
4.551 -6.136 -1.355 0.17
4.58 -6.135 -1.358 0.17
4.611 -6.136 -1.362 0.17
4.65 -6.148 -1.368 0.16
4.679 -6.146 -1.371 0.16
4.712 -6.148 -1.375 0.04
4.76 -6.171 -1.384 0.07
4.765 -6.157 -1.383 0.04
4.801 -6.163 -1.388 0.07
4.841 -6.175 -1.395 0.16
4.865 -6.165 -1.396 0.16
4.898 -6.167 -1.4 0.16
4.929 -6.165 -1.404 0.16
4.955 -6.159 -1.406 0.16
4.971 -6.159 -1.408 0.04
5.014 -6.172 -1.415 0.07
5.045 -6.17 -1.419 0.16
5.073 -6.165 -1.421 0.04
5.115 -6.176 -1.428 0.07
5.137 -6.163 -1.429 0.04
5.168 -6.16 -1.432 0.07
5.2 -6.179 -1.439 0.14
5.209 -6.151 -1.436 0.04
5.254 -6.164 -1.444 0.07
5.248 -6.118 -1.436 0.04
5.258 -6.091 -1.433 0.04
5.282 -6.08 -1.435 0.07
5.322 -6.087 -1.441 0.04
5.349 -6.098 -1.446 0.07
5.386 -6.102 -1.451 0.04
5.425 -6.107 -1.457 0.15
5.462 -6.11 -1.462 0.05
5.481 -6.093 -1.462 0.15
5.491 -6.065 -1.46 0.18
5.521 -6.06 -1.463 0.17
5.549 -6.052 -1.465 0.17
5.549 -6.034 -1.463 0.16
5.563 -6.01 -1.461 0.17
5.609 -6.022 -1.469 0.09
5.625 -6.001 -1.468 0.16
5.641 -5.981 -1.467 0.21
5.664 -5.967 -1.468 0.04
5.668 -5.952 -1.467 0.07
5.684 -5.932 -1.466 0.09
5.711 -5.922 -1.468 0.09
5.718 -5.893 -1.465 0.18
5.73 -5.868 -1.463 0.12
5.756 -5.859 -1.466 0.2
5.809 -5.875 -1.475 0.2
5.821 -5.869 -1.476 0.1
5.848 -5.859 -1.478 0.09
5.879 -5.853 -1.482 0.16
5.87 -5.807 -1.474 0.05
5.896 -5.797 -1.476 0.16
5.906 -5.77 -1.474 0.05
5.889 -5.717 -1.465 0.14
5.868 -5.679 -1.457 0.12
5.891 -5.666 -1.458 0.16
5.949 -5.686 -1.469 0.05
5.925 -5.628 -1.458 0.16
5.879 -5.549 -1.441 0.05
5.833 -5.471 -1.424 0.15
5.854 -5.457 -1.425 0.04
5.884 -5.451 -1.428 0.16
5.89 -5.439 -1.428 0.11
5.851 -5.369 -1.413 0.08
5.895 -5.375 -1.42 0.09
5.934 -5.376 -1.426 0.14
5.973 -5.377 -1.432 0.25
5.973 -5.344 -1.427 0.16
6.015 -5.347 -1.434 0.23
6.013 -5.329 -1.431 0.1
6.0 -5.284 -1.424 0.14
6.05 -5.294 -1.432 0.23
6.078 -5.285 -1.435 0.18
6.105 -5.275 -1.438 0.24
6.092 -5.23 -1.43 0.17
6.08 -5.187 -1.423 0.04
6.109 -5.195 -1.428 0.14
6.158 -5.203 -1.436 0.05
6.17 -5.18 -1.435 0.17
6.192 -5.166 -1.437 0.2
6.236 -5.169 -1.444 0.16
6.258 -5.154 -1.445 0.06
6.274 -5.135 -1.445 0.16
6.294 -5.135 -1.448 0.2
6.317 -5.12 -1.45 0.04
6.354 -5.117 -1.455 0.14
6.389 -5.112 -1.46 0.04
6.42 -5.104 -1.463 0.08
6.458 -5.101 -1.469 0.09
6.475 -5.081 -1.469 0.09
6.494 -5.08 -1.472 0.08
6.524 -5.07 -1.475 0.08
6.554 -5.06 -1.479 0.0
6.564 -5.035 -1.477 0.0
6.592 -5.024 -1.48 0.0
6.507 -4.927 -1.456 0.0
6.107 -4.581 -1.354 0.0
6.153 -4.585 -1.361 0.0
6.173 -4.571 -1.363 0.0
6.224 -4.578 -1.371 0.0
6.293 -4.598 -1.384 0.0
6.334 -4.597 -1.391 0.0
6.368 -4.591 -1.395 0.0
6.413 -4.608 -1.405 0.0
6.463 -4.613 -1.413 0.0
6.498 -4.608 -1.418 0.0
6.538 -4.605 -1.424 0.0
6.595 -4.614 -1.434 0.0
6.629 -4.606 -1.438 0.0
6.666 -4.601 -1.444 0.0
6.723 -4.625 -1.455 0.0
6.756 -4.616 -1.46 0.0
6.811 -4.622 -1.469 0.0
6.827 -4.602 -1.47 0.0
6.864 -4.596 -1.475 0.0
6.885 -4.578 -1.476 0.0
6.904 -4.56 -1.478 0.0
6.93 -4.561 -1.482 0.03
6.964 -4.552 -1.486 0.03
7.014 -4.553 -1.495 0.07
7.048 -4.544 -1.499 0.04
7.059 -4.52 -1.498 0.07
7.093 -4.51 -1.503 0.15
7.141 -4.509 -1.511 0.16
7.138 -4.491 -1.508 0.16
7.16 -4.474 -1.51 0.18
7.181 -4.456 -1.512 0.18
7.183 -4.426 -1.509 0.04
7.212 -4.412 -1.512 0.0
7.231 -4.393 -1.514 0.0
7.209 -4.349 -1.506 0.0
7.247 -4.34 -1.511 0.0
7.27 -4.339 -1.515 0.0
7.232 -4.285 -1.503 0.0
7.291 -4.289 -1.513 0.0
7.292 -4.259 -1.511 0.03
7.307 -4.237 -1.511 0.03
7.329 -4.219 -1.513 0.03
7.353 -4.202 -1.515 0.03
7.352 -4.187 -1.514 0.03
7.405 -4.186 -1.522 0.03
7.432 -4.17 -1.525 0.04
7.443 -4.146 -1.525 0.13
7.475 -4.133 -1.529 0.04
7.526 -4.13 -1.538 0.13
7.54 -4.107 -1.538 0.05
7.556 -4.1 -1.54 0.16
7.568 -4.076 -1.54 0.2
7.555 -4.038 -1.534 0.17
7.576 -4.019 -1.536 0.1
7.6 -4.001 -1.538 0.2
7.614 -3.978 -1.539 0.11
7.598 -3.94 -1.533 0.18
7.585 -3.918 -1.528 0.19
7.603 -3.897 -1.53 0.18
7.641 -3.886 -1.535 0.09
7.648 -3.859 -1.534 0.17
7.68 -3.845 -1.538 0.21
7.697 -3.823 -1.539 0.16
7.734 -3.811 -1.545 0.04
7.786 -3.821 -1.555 0.14
7.79 -3.794 -1.553 0.21
7.724 -3.732 -1.536 0.18
7.734 -3.707 -1.536 0.06
7.749 -3.684 -1.537 0.18
7.772 -3.665 -1.539 0.11
7.792 -3.644 -1.541 0.16
7.817 -3.641 -1.545 0.05
7.795 -3.601 -1.538 0.16
7.786 -3.568 -1.534 0.2
7.747 -3.52 -1.523 0.17
7.816 -3.522 -1.535 0.18
7.879 -3.52 -1.546 0.0
7.883 -3.492 -1.545 0.0
7.883 -3.478 -1.544 0.0
7.087 -3.103 -1.373 0.0
7.105 -3.084 -1.375 0.02
7.16 -3.081 -1.385 0.03
7.242 -3.089 -1.4 0.07
7.315 -3.093 -1.413 0.15
7.408 -3.105 -1.431 0.18
7.485 -3.109 -1.445 0.17
7.534 -3.115 -1.454 0.16
7.605 -3.117 -1.467 0.17
7.675 -3.117 -1.479 0.16
7.723 -3.108 -1.487 0.04
7.759 -3.094 -1.493 0.0
7.79 -3.078 -1.497 0.0
7.801 -3.068 -1.498 0.0
7.816 -3.046 -1.5 0.13
7.864 -3.036 -1.508 0.2
7.879 -3.013 -1.509 0.1
7.875 -2.983 -1.506 0.15
7.918 -2.971 -1.513 0.21
7.925 -2.945 -1.512 0.18
7.931 -2.919 -1.512 0.06
7.946 -2.911 -1.514 0.0
7.967 -2.89 -1.516 0.07
7.961 -2.859 -1.513 0.16
7.951 -2.828 -1.509 0.09
7.966 -2.805 -1.511 0.08
7.974 -2.78 -1.511 0.08
7.972 -2.751 -1.508 0.09
8.012 -2.75 -1.516 0.08
8.011 -2.722 -1.514 0.04
8.023 -2.698 -1.514 0.0
7.91 -2.633 -1.49 0.13
7.842 -2.583 -1.474 0.19
7.781 -2.536 -1.46 0.17
7.765 -2.504 -1.455 0.24
7.765 -2.491 -1.454 0.17
7.892 -2.504 -1.479 0.25
7.848 -2.463 -1.468 0.14
7.835 -2.432 -1.464 0.26
7.835 -2.405 -1.462 0.18
7.844 -2.381 -1.463 0.25
7.829 -2.349 -1.458 0.18
7.818 -2.333 -1.455 0.25
7.81 -2.304 -1.452 0.14
7.821 -2.28 -1.453 0.26
7.824 -2.255 -1.452 0.16
7.824 -2.228 -1.451 0.25
7.853 -2.21 -1.455 0.19
7.849 -2.182 -1.453 0.22
7.847 -2.168 -1.452 0.18
7.844 -2.141 -1.45 0.25
7.854 -2.117 -1.451 0.16
7.882 -2.098 -1.455 0.23
7.814 -2.054 -1.44 0.18
7.823 -2.03 -1.44 0.13
7.846 -2.01 -1.444 0.17
7.903 -2.011 -1.454 0.22
7.859 -1.974 -1.444 0.16
7.894 -1.956 -1.45 0.25
7.914 -1.934 -1.453 0.15
7.925 -1.911 -1.454 0.26
7.924 -1.884 -1.452 0.18
7.954 -1.865 -1.457 0.25
7.944 -1.849 -1.455 0.1
7.865 -1.805 -1.438 0.09
7.875 -1.781 -1.439 0.08
7.867 -1.754 -1.436 0.0
7.884 -1.731 -1.438 0.14
7.916 -1.712 -1.444 0.05
7.922 -1.688 -1.444 0.14
7.957 -1.682 -1.45 0.2
8.026 -1.67 -1.463 0.21
8.014 -1.641 -1.459 0.28
8.046 -1.621 -1.465 0.3
8.099 -1.605 -1.474 0.32
8.075 -1.574 -1.468 0.28
8.153 -1.563 -1.483 0.32
8.199 -1.545 -1.491 0.3
8.182 -1.528 -1.487 0.28
8.219 -1.509 -1.493 0.29
8.263 -1.49 -1.501 0.3
8.296 -1.469 -1.507 0.3
8.33 -1.448 -1.512 0.3
8.346 -1.423 -1.515 0.29
8.331 -1.394 -1.511 0.2
8.448 -1.399 -1.533 0.32
8.551 -1.389 -1.553 0.22
8.639 -1.375 -1.569 0.05
8.726 -1.36 -1.585 0.07
8.731 -1.333 -1.585 0.15
8.715 -1.303 -1.582 0.04
8.735 -1.278 -1.585 0.07
8.723 -1.262 -1.582 0.15
8.716 -1.233 -1.58 0.04
8.733 -1.207 -1.582 0.07
8.715 -1.177 -1.578 0.04
8.719 -1.15 -1.578 0.07
8.719 -1.122 -1.577 0.04
8.726 -1.095 -1.578 0.07
8.722 -1.08 -1.577 0.04
8.735 -1.054 -1.579 0.04
8.746 -1.028 -1.581 0.0
8.749 -1.0 -1.581 0.0
8.741 -0.971 -1.578 0.0
8.755 -0.945 -1.581 0.0
8.756 -0.917 -1.58 0.0
8.758 -0.904 -1.58 0.0
8.761 -0.876 -1.58 0.0
8.795 -0.852 -1.586 0.0
8.762 -0.821 -1.579 0.0
8.796 -0.796 -1.585 0.0
8.773 -0.766 -1.581 0.0
8.803 -0.741 -1.586 0.0
8.79 -0.726 -1.583 0.0
8.812 -0.7 -1.587 0.0
8.789 -0.67 -1.582 0.0
8.834 -0.646 -1.59 0.0
8.818 -0.617 -1.587 0.0
8.82 -0.589 -1.587 0.0
8.824 -0.561 -1.587 0.0
8.82 -0.533 -1.586 0.0
8.822 -0.52 -1.587 0.0
8.832 -0.492 -1.588 0.0
8.804 -0.463 -1.582 0.0
8.845 -0.437 -1.59 0.0
8.83 -0.409 -1.587 0.0
8.828 -0.381 -1.586 0.0
8.824 -0.367 -1.585 0.0
8.804 -0.338 -1.581 0.0
8.83 -0.312 -1.586 0.0
8.796 -0.283 -1.579 0.0
8.826 -0.256 -1.585 0.0
8.792 -0.227 -1.578 0.0
8.79 -0.2 -1.578 0.03
8.787 -0.186 -1.577 0.03
8.787 -0.158 -1.577 0.03
8.794 -0.131 -1.578 0.03
8.794 -0.103 -1.578 0.03
8.784 -0.075 -1.576 0.04
8.789 -0.048 -1.577 0.07
8.793 -0.02 -1.578 0.04
8.785 -0.006 -1.576 0.04
8.257 0.017 -1.571 0.24
8.231 0.043 -1.566 0.21
8.245 0.069 -1.568 0.27
8.235 0.095 -1.566 0.24
8.231 0.108 -1.566 0.26
8.23 0.134 -1.566 0.19
8.242 0.16 -1.568 0.26
8.227 0.186 -1.565 0.23
8.213 0.211 -1.562 0.17
8.232 0.237 -1.566 0.27
8.229 0.263 -1.566 0.23
8.223 0.276 -1.565 0.16
8.232 0.302 -1.567 0.29
8.229 0.328 -1.566 0.23
8.228 0.354 -1.566 0.22
8.227 0.38 -1.566 0.13
8.227 0.405 -1.567 0.21
8.216 0.431 -1.565 0.18
8.229 0.444 -1.568 0.26
8.24 0.471 -1.57 0.22
8.244 0.497 -1.571 0.12
8.252 0.524 -1.573 0.18
8.245 0.549 -1.572 0.12
8.245 0.575 -1.572 0.19
8.257 0.602 -1.575 0.1
8.25 0.615 -1.574 0.21
8.267 0.642 -1.578 0.11
8.275 0.669 -1.58 0.18
8.267 0.694 -1.579 0.05
8.267 0.72 -1.579 0.17
8.266 0.747 -1.58 0.2
8.268 0.773 -1.58 0.1
8.257 0.785 -1.578 0.2
8.28 0.813 -1.584 0.11
8.262 0.838 -1.58 0.18
8.269 0.865 -1.582 0.11
8.268 0.891 -1.583 0.19
8.269 0.917 -1.584 0.1
8.256 0.942 -1.582 0.19
8.261 0.956 -1.583 0.11
8.246 0.98 -1.58 0.2
8.252 1.007 -1.582 0.2
8.257 1.034 -1.584 0.1
8.246 1.059 -1.582 0.18
8.248 1.086 -1.584 0.11
8.229 1.11 -1.58 0.2
8.232 1.123 -1.581 0.11
8.224 1.149 -1.58 0.2
8.222 1.175 -1.581 0.11
8.209 1.199 -1.579 0.21
8.221 1.227 -1.582 0.17
8.199 1.25 -1.578 0.29
8.195 1.276 -1.578 0.33
8.197 1.29 -1.579 0.34
8.189 1.315 -1.578 0.35
8.179 1.339 -1.577 0.44
8.163 1.363 -1.575 0.31
8.175 1.391 -1.578 0.27
8.164 1.416 -1.577 0.25
8.143 1.439 -1.573 0.19
8.161 1.468 -1.578 0.26
8.157 1.481 -1.578 0.25
8.141 1.504 -1.575 0.27
8.155 1.534 -1.579 0.29
8.143 1.558 -1.578 0.27
8.136 1.583 -1.577 0.26
8.138 1.61 -1.579 0.29
8.116 1.632 -1.575 0.29
8.136 1.649 -1.58 0.27
8.126 1.674 -1.579 0.27
8.113 1.698 -1.577 0.27
8.117 1.725 -1.579 0.27
8.106 1.75 -1.578 0.26
8.1 1.775 -1.578 0.28
8.098 1.801 -1.579 0.27
8.092 1.813 -1.578 0.26
8.092 1.84 -1.579 0.27
8.082 1.864 -1.578 0.28
8.08 1.891 -1.579 0.27
8.07 1.915 -1.578 0.26
8.066 1.941 -1.579 0.27
8.081 1.971 -1.583 0.25
8.06 1.98 -1.58 0.3
8.062 2.007 -1.581 0.27
8.061 2.034 -1.582 0.29
8.053 2.059 -1.582 0.28
8.048 2.084 -1.582 0.28
8.047 2.111 -1.584 0.24
8.039 2.136 -1.583 0.25
8.037 2.149 -1.584 0.24
8.027 2.173 -1.583 0.19
8.037 2.203 -1.587 0.27
8.03 2.228 -1.587 0.24
8.03 2.256 -1.588 0.23
8.004 2.276 -1.584 0.18
8.009 2.304 -1.587 0.29
8.007 2.317 -1.587 0.23
7.992 2.34 -1.585 0.27
7.998 2.369 -1.588 0.27
7.981 2.391 -1.586 0.26
7.977 2.417 -1.587 0.27
7.971 2.443 -1.587 0.25
7.96 2.467 -1.587 0.3
7.948 2.491 -1.586 0.28
7.946 2.504 -1.586 0.27
7.948 2.532 -1.588 0.25
7.942 2.557 -1.589 0.29
7.937 2.583 -1.589 0.28
7.929 2.608 -1.589 0.29
7.908 2.629 -1.587 0.28
7.903 2.655 -1.587 0.2
7.897 2.667 -1.587 0.29
7.891 2.692 -1.587 0.25
7.901 2.723 -1.591 0.23
7.874 2.742 -1.587 0.3
7.865 2.766 -1.587 0.27
7.865 2.794 -1.589 0.27
7.849 2.816 -1.588 0.29
7.85 2.831 -1.589 0.27
7.847 2.857 -1.59 0.29
7.847 2.885 -1.592 0.27
7.847 2.913 -1.594 0.29
7.838 2.938 -1.594 0.28
7.816 2.958 -1.591 0.28
7.814 2.985 -1.593 0.28
7.817 3.0 -1.595 0.28
7.813 3.027 -1.596 0.29
7.803 3.051 -1.596 0.29
7.784 3.072 -1.594 0.31
7.771 3.095 -1.593 0.28
7.768 3.123 -1.595 0.27
7.768 3.151 -1.597 0.25
7.757 3.161 -1.595 0.27
7.747 3.185 -1.595 0.3
7.743 3.212 -1.597 0.28
7.729 3.234 -1.596 0.27
7.728 3.262 -1.598 0.27
7.712 3.284 -1.597 0.29
7.694 3.306 -1.595 0.27
7.706 3.325 -1.599 0.23
7.693 3.348 -1.598 0.19
7.697 3.378 -1.601 0.28
7.674 3.397 -1.599 0.24
7.668 3.424 -1.6 0.27
7.652 3.445 -1.599 0.26
7.649 3.472 -1.6 0.19
7.659 3.492 -1.604 0.28
7.627 3.506 -1.599 0.24
7.626 3.535 -1.601 0.21
7.628 3.565 -1.604 0.28
7.593 3.578 -1.599 0.23
7.603 3.612 -1.604 0.27
7.583 3.631 -1.602 0.27
7.577 3.643 -1.602 0.2
7.578 3.673 -1.605 0.27
7.565 3.696 -1.604 0.24
7.557 3.721 -1.605 0.25
7.547 3.746 -1.605 0.18
7.528 3.766 -1.604 0.29
7.523 3.793 -1.605 0.23
7.519 3.806 -1.606 0.3
7.511 3.831 -1.607 0.28
7.502 3.857 -1.607 0.25
7.481 3.876 -1.605 0.3
7.474 3.902 -1.607 0.28
7.47 3.93 -1.609 0.26
7.441 3.944 -1.605 0.29
7.443 3.961 -1.607 0.29
7.436 3.987 -1.608 0.28
7.43 4.014 -1.609 0.28
7.426 4.042 -1.611 0.27
7.4 4.057 -1.608 0.28
7.389 4.082 -1.609 0.29
7.379 4.107 -1.609 0.27
7.368 4.131 -1.61 0.2
7.362 4.142 -1.61 0.28
7.338 4.16 -1.607 0.4
7.334 4.188 -1.609 0.38
7.317 4.209 -1.609 0.39
7.311 4.236 -1.61 0.39
7.296 4.258 -1.61 0.38
7.287 4.283 -1.611 0.37
7.279 4.294 -1.611 0.38
7.269 4.319 -1.611 0.37
7.26 4.345 -1.613 0.38
7.243 4.365 -1.612 0.43
7.219 4.382 -1.609 0.47
7.224 4.416 -1.614 0.27
7.227 4.449 -1.618 0.27
7.216 4.458 -1.617 0.27
7.206 4.483 -1.618 0.28
7.198 4.509 -1.619 0.26
7.194 4.538 -1.622 0.28
7.181 4.562 -1.622 0.28
7.167 4.584 -1.622 0.25
7.164 4.614 -1.625 0.2
7.157 4.626 -1.625 0.28
7.149 4.652 -1.627 0.25
7.134 4.675 -1.627 0.26
7.129 4.704 -1.629 0.19
7.114 4.726 -1.629 0.27
7.106 4.753 -1.631 0.22
7.096 4.778 -1.632 0.2
7.105 4.8 -1.636 0.27
7.093 4.825 -1.637 0.22
7.089 4.855 -1.64 0.2
7.074 4.877 -1.64 0.25
7.071 4.908 -1.643 0.2
7.059 4.932 -1.644 0.23
7.056 4.964 -1.647 0.19
7.05 4.976 -1.647 0.11
7.026 4.992 -1.645 0.21
7.038 5.034 -1.652 0.11
7.016 5.051 -1.65 0.2
7.009 5.08 -1.653 0.11
6.992 5.101 -1.652 0.19
6.999 5.14 -1.658 0.11
6.987 5.148 -1.657 0.2
6.985 5.18 -1.661 0.1
6.953 5.19 -1.657 0.19
6.958 5.228 -1.663 0.1
6.948 5.255 -1.664 0.18
6.93 5.276 -1.664 0.21
6.919 5.302 -1.665 0.1
6.908 5.311 -1.665 0.2
6.91 5.347 -1.669 0.11
6.892 5.367 -1.669 0.2
6.89 5.401 -1.673 0.11
6.881 5.428 -1.675 0.18
6.861 5.448 -1.674 0.22
6.85 5.474 -1.676 0.17
6.85 5.492 -1.678 0.24
6.828 5.51 -1.677 0.19
6.82 5.539 -1.679 0.23
6.809 5.565 -1.681 0.21
6.805 5.598 -1.685 0.22
6.802 5.631 -1.689 0.16
6.773 5.643 -1.685 0.24
6.768 5.657 -1.687 0.19
6.76 5.686 -1.689 0.25
6.758 5.721 -1.693 0.2
6.742 5.743 -1.694 0.23
6.722 5.763 -1.693 0.22
6.714 5.793 -1.696 0.21
6.701 5.818 -1.697 0.13
6.691 5.829 -1.697 0.21
6.697 5.87 -1.704 0.2
6.684 5.897 -1.706 0.24
6.655 5.908 -1.703 0.23
6.66 5.95 -1.709 0.2
6.644 5.974 -1.71 0.25
6.626 5.994 -1.71 0.23
6.632 6.019 -1.714 0.2
6.615 6.041 -1.715 0.23
6.614 6.079 -1.72 0.21
6.595 6.1 -1.72 0.12
6.58 6.125 -1.721 0.21
6.578 6.161 -1.726 0.11
6.55 6.174 -1.724 0.21
6.544 6.207 -1.727 0.11
6.543 6.225 -1.73 0.21
6.533 6.255 -1.732 0.11
6.52 6.282 -1.734 0.18
6.508 6.31 -1.737 0.22
6.488 6.33 -1.737 0.1
6.472 6.354 -1.738 0.18
6.465 6.387 -1.741 0.05
6.453 6.396 -1.741 0.17
6.439 6.422 -1.743 0.11
6.432 6.456 -1.747 0.19
6.415 6.479 -1.747 0.2
6.392 6.496 -1.747 0.1
6.386 6.531 -1.751 0.16
6.366 6.551 -1.751 0.05
6.357 6.563 -1.751 0.17
6.351 6.598 -1.756 0.19
6.325 6.612 -1.754 0.18
6.314 6.642 -1.757 0.09
6.295 6.665 -1.758 0.19
6.278 6.689 -1.759 0.18
6.261 6.713 -1.76 0.18
6.263 6.736 -1.764 0.04
6.244 6.758 -1.765 0.16
6.226 6.781 -1.765 0.18
6.224 6.822 -1.771 0.18
6.187 6.824 -1.767 0.04
6.172 6.851 -1.769 0.17
6.164 6.884 -1.773 0.05
6.155 6.897 -1.773 0.16
6.142 6.925 -1.776 0.2
6.131 6.958 -1.78 0.09
6.11 6.977 -1.78 0.18
6.082 6.99 -1.778 0.05
6.075 7.025 -1.782 0.18
6.058 7.05 -1.784 0.21
6.052 7.066 -1.786 0.1
6.037 7.094 -1.788 0.18
6.019 7.117 -1.789 0.2
6.0 7.14 -1.79 0.18
5.989 7.173 -1.794 0.23
5.965 7.19 -1.794 0.21
5.951 7.219 -1.796 0.26
5.937 7.226 -1.796 0.29
5.911 7.24 -1.794 0.33
5.896 7.267 -1.797 0.31
5.878 7.292 -1.798 0.23
5.857 7.313 -1.799 0.3
5.85 7.352 -1.804 0.2
5.845 7.393 -1.81 0.25
5.827 7.417 -1.812 0.2
5.82 7.433 -1.814 0.23
5.794 7.448 -1.813 0.19
5.78 7.478 -1.816 0.24
5.764 7.506 -1.819 0.2
5.752 7.54 -1.823 0.22
5.727 7.556 -1.822 0.19
5.712 7.585 -1.825 0.23
5.695 7.588 -1.823 0.19
5.686 7.624 -1.828 0.23
5.656 7.634 -1.826 0.23
5.643 7.668 -1.83 0.2
5.63 7.7 -1.834 0.24
5.616 7.731 -1.837 0.21
5.59 7.748 -1.837 0.23
5.581 7.759 -1.838 0.19
5.561 7.783 -1.839 0.24
5.543 7.81 -1.842 0.19
5.519 7.828 -1.842 0.25
5.498 7.851 -1.843 0.21
5.476 7.872 -1.844 0.17
5.461 7.903 -1.848 0.26
5.438 7.922 -1.848 0.19
5.435 7.945 -1.852 0.25
5.406 7.956 -1.85 0.23
5.385 7.979 -1.852 0.17
5.374 8.017 -1.857 0.26
5.346 8.029 -1.856 0.23
5.323 8.049 -1.857 0.18
5.309 8.084 -1.861 0.26
5.296 8.092 -1.861 0.24
5.276 8.117 -1.863 0.21
5.26 8.148 -1.867 0.25
5.23 8.157 -1.865 0.23
5.21 8.183 -1.867 0.19
5.192 8.211 -1.87 0.27
5.168 8.23 -1.871 0.24
5.159 8.245 -1.872 0.19
5.14 8.271 -1.875 0.27
5.11 8.281 -1.873 0.24
5.094 8.313 -1.877 0.26
5.063 8.321 -1.875 0.19
5.047 8.354 -1.879 0.27
5.025 8.378 -1.881 0.24
5.022 8.402 -1.885 0.21
4.974 8.381 -1.876 0.27
4.955 8.41 -1.88 0.26
4.919 8.409 -1.876 0.58
4.916 8.465 -1.885 0.22
4.904 8.506 -1.891 0.28
4.878 8.521 -1.891 0.24
4.865 8.53 -1.892 0.18
4.849 8.564 -1.896 0.26
4.825 8.585 -1.897 0.25
4.801 8.605 -1.899 0.19
4.776 8.623 -1.899 0.26
4.752 8.645 -1.901 0.25
4.729 8.667 -1.903 0.19
4.722 8.686 -1.905 0.27
4.688 8.689 -1.903 0.25
4.666 8.714 -1.905 0.2
4.649 8.748 -1.909 0.27
4.624 8.768 -1.911 0.25
4.599 8.786 -1.911 0.26
4.572 8.802 -1.912 0.25
4.546 8.82 -1.913 0.19
4.544 8.849 -1.918 0.27
4.512 8.855 -1.916 0.24
4.489 8.879 -1.918 0.19
4.466 8.904 -1.921 0.27
4.443 8.927 -1.923 0.25
4.421 8.953 -1.926 0.19
4.392 8.965 -1.925 0.27
4.376 8.968 -1.924 0.23
4.356 9.0 -1.928 0.19
4.326 9.01 -1.928 0.26
4.304 9.036 -1.93 0.24
4.278 9.054 -1.932 0.2
4.255 9.078 -1.934 0.27
4.225 9.088 -1.933 0.23
4.214 9.104 -1.935 0.19
4.19 9.126 -1.937 0.28
4.164 9.144 -1.938 0.25
4.145 9.179 -1.943 0.25
4.109 9.176 -1.94 0.19
4.086 9.203 -1.943 0.28
4.061 9.225 -1.945 0.23
4.039 9.253 -1.948 0.24
4.021 9.251 -1.946 0.26
3.991 9.262 -1.946 0.24
3.966 9.285 -1.948 0.43
3.943 9.312 -1.952 0.28
3.916 9.328 -1.952 0.27
3.886 9.338 -1.952 0.27
3.861 9.363 -1.955 0.27
3.853 9.385 -1.958 0.24
3.817 9.381 -1.955 0.18
3.794 9.409 -1.958 0.29
3.768 9.428 -1.96 0.24
3.743 9.451 -1.962 0.26
3.716 9.47 -1.964 0.25
3.687 9.484 -1.965 0.26
3.67 9.486 -1.964 0.26
3.643 9.505 -1.965 0.27
3.618 9.527 -1.968 0.27
3.588 9.538 -1.968 0.27
3.558 9.549 -1.968 0.27
3.529 9.564 -1.969 0.27
3.504 9.588 -1.971 0.26
3.496 9.614 -1.976 0.25
3.466 9.625 -1.976 0.24
3.422 9.599 -1.968 0.18
3.347 9.482 -1.94 0.27
3.319 9.498 -1.941 0.52
3.341 9.657 -1.973 0.31
3.321 9.698 -1.98 0.29
3.293 9.716 -1.982 0.26
3.282 9.734 -1.985 0.27
3.248 9.734 -1.982 0.29
3.221 9.753 -1.984 0.27
3.189 9.759 -1.983 0.28
3.16 9.775 -1.985 0.26
3.139 9.815 -1.991 0.26
3.114 9.843 -1.995 0.28
3.11 9.883 -2.003 0.26
3.077 9.889 -2.002 0.28
3.043 9.89 -2.0 0.26
3.012 9.897 -1.999 0.27
2.992 9.942 -2.007 0.26
2.956 9.937 -2.004 0.32
2.926 9.95 -2.005 0.29
2.913 9.964 -2.007 0.27
2.883 9.976 -2.008 0.28
2.851 9.984 -2.007 0.29
2.817 9.985 -2.006 0.28
2.786 9.996 -2.006 0.27
2.763 10.033 -2.012 0.27
2.738 10.066 -2.017 0.27
2.724 10.078 -2.019 0.3
2.692 10.082 -2.018 0.28
2.665 10.11 -2.022 0.31
2.634 10.122 -2.023 0.29
2.603 10.134 -2.024 0.29
2.576 10.159 -2.027 0.29
2.541 10.158 -2.025 0.29
2.51 10.169 -2.026 0.28
2.498 10.187 -2.029 0.3
2.458 10.164 -2.022 0.28
2.428 10.179 -2.024 0.35
2.398 10.194 -2.026 0.39
2.365 10.198 -2.025 0.26
2.326 10.177 -2.019 0.39
2.296 10.19 -2.02 0.41
2.278 10.188 -2.019 0.42
2.246 10.191 -2.018 0.36
2.214 10.202 -2.019 0.32
2.18 10.197 -2.016 0.31
2.145 10.191 -2.014 0.32
2.116 10.211 -2.016 0.34
2.083 10.214 -2.016 0.37
2.063 10.2 -2.012 0.29
2.03 10.2 -2.011 0.3
1.996 10.197 -2.009 0.34
1.964 10.201 -2.008 0.33
1.932 10.211 -2.009 0.32
1.895 10.19 -2.004 0.29
1.865 10.206 -2.006 0.33
1.85 10.216 -2.007 0.34
1.816 10.209 -2.004 0.31
1.781 10.197 -2.001 0.29
1.75 10.208 -2.002 0.33
1.716 10.202 -1.999 0.3
1.684 10.208 -1.999 0.32
1.652 10.217 -2.0 0.33
1.619 10.216 -1.999 0.36
1.602 10.213 -1.998 0.3
1.569 10.21 -1.996 0.31
1.537 10.217 -1.997 0.34
1.505 10.223 -1.997 0.33
1.472 10.22 -1.995 0.3
1.441 10.237 -1.998 0.32
1.411 10.251 -2.0 0.31
1.395 10.255 -2.0 0.28
1.363 10.261 -2.001 0.28
1.331 10.271 -2.002 0.29
1.299 10.273 -2.002 0.28
1.268 10.285 -2.003 0.29
1.236 10.295 -2.004 0.29
1.204 10.303 -2.005 0.29
1.188 10.307 -2.006 0.28
1.155 10.304 -2.004 0.27
1.125 10.325 -2.008 0.34
1.092 10.323 -2.007 0.23
1.06 10.33 -2.008 0.37
1.03 10.361 -2.013 0.29
0.998 10.374 -2.015 0.3
0.965 10.365 -2.013 0.25
0.949 10.377 -2.015 0.27
0.916 10.372 -2.013 0.4
0.883 10.373 -2.013 0.31
0.851 10.379 -2.014 0.41
0.82 10.407 -2.019 0.33
0.788 10.412 -2.019 0.25
0.755 10.418 -2.02 0.4
0.741 10.45 -2.026 0.29
0.708 10.449 -2.026 0.29
0.675 10.451 -2.026 0.27
0.642 10.447 -2.024 0.29
0.61 10.463 -2.027 0.34
0.578 10.474 -2.029 0.28
0.545 10.476 -2.029 0.28
0.511 10.466 -2.027 0.27
0.495 10.477 -2.029 0.32
0.462 10.478 -2.029 0.3
0.429 10.47 -2.027 0.3
0.397 10.485 -2.03 0.3
0.364 10.482 -2.029 0.3
0.33 10.471 -2.026 0.33
0.298 10.482 -2.028 0.27
0.281 10.489 -2.03 0.27
0.248 10.487 -2.029 0.29
0.216 10.492 -2.03 0.29
0.183 10.495 -2.03 0.29
0.15 10.501 -2.032 0.3
0.117 10.513 -2.034 0.31
0.084 10.51 -2.033 0.28
0.067 10.51 -2.033 0.26
0.034 10.508 -2.033 0.35
0.001 10.516 -2.034 0.27
-0.032 10.524 -2.036 0.28
-0.065 10.527 -2.037 0.28
-0.098 10.527 -2.037 0.29
-0.131 10.529 -2.037 0.28
-0.147 10.532 -2.038 0.29
-0.18 10.526 -2.037 0.3
-0.214 10.529 -2.038 0.3
-0.247 10.525 -2.037 0.23
-0.28 10.538 -2.04 0.37
-0.313 10.539 -2.04 0.28
-0.347 10.547 -2.042 0.29
-0.379 10.534 -2.04 0.27
-0.396 10.532 -2.039 0.24
-0.429 10.544 -2.042 0.41
-0.462 10.541 -2.042 0.31
-0.496 10.545 -2.043 0.29
-0.529 10.554 -2.045 0.28
-0.562 10.544 -2.043 0.32
-0.596 10.554 -2.046 0.28
-0.613 10.555 -2.046 0.29
-0.646 10.549 -2.045 0.29
-0.679 10.559 -2.048 0.29
-0.713 10.558 -2.048 0.27
-0.746 10.56 -2.049 0.29
-0.78 10.562 -2.05 0.29
-0.813 10.567 -2.051 0.29
-0.831 10.575 -2.053 0.27
-0.864 10.581 -2.055 0.3
-0.897 10.564 -2.052 0.31
-0.93 10.565 -2.053 0.3
-0.964 10.572 -2.055 0.28
-0.998 10.577 -2.057 0.29
-1.031 10.568 -2.055 0.29
-1.065 10.578 -2.058 0.28
-1.082 10.582 -2.059 0.28
-1.115 10.567 -2.057 0.28
-1.147 10.558 -2.056 0.26
-1.182 10.571 -2.059 0.32
-1.217 10.581 -2.062 0.35
-1.25 10.577 -2.062 0.28
-1.285 10.589 -2.065 0.29
-1.301 10.577 -2.063 0.3
-1.334 10.575 -2.064 0.29
-1.369 10.584 -2.067 0.28
-1.402 10.58 -2.067 0.27
-1.435 10.574 -2.066 0.26
-1.469 10.575 -2.067 0.34
-1.503 10.576 -2.069 0.27
-1.518 10.562 -2.066 0.28
-1.553 10.569 -2.069 0.29
-1.586 10.56 -2.068 0.29
-1.62 10.565 -2.07 0.29
-1.652 10.552 -2.068 0.28
-1.687 10.556 -2.07 0.29
-1.721 10.555 -2.071 0.31
-1.737 10.55 -2.071 0.24
-1.772 10.552 -2.072 0.36
-1.804 10.543 -2.071 0.32
-1.838 10.541 -2.072 0.27
-1.874 10.551 -2.075 0.35
-1.908 10.554 -2.078 0.32
-1.943 10.554 -2.079 0.3
-1.977 10.552 -2.08 0.28
-1.993 10.549 -2.08 0.29
-2.027 10.548 -2.081 0.27
-2.06 10.542 -2.081 0.34
-2.093 10.533 -2.08 0.27
-2.127 10.532 -2.082 0.27
-2.157 10.51 -2.078 0.23
-2.193 10.517 -2.081 0.47
-2.213 10.529 -2.084 0.3
-2.243 10.508 -2.082 0.29
-2.281 10.522 -2.086 0.28
-2.314 10.519 -2.087 0.29
-2.344 10.496 -2.084 0.21
-2.377 10.489 -2.084 0.43
-2.416 10.508 -2.089 0.3
-2.434 10.51 -2.09 0.27
-2.469 10.51 -2.092 0.29
-2.503 10.506 -2.093 0.29
-2.537 10.502 -2.094 0.28
-2.569 10.494 -2.094 0.25
-2.604 10.493 -2.095 0.32
-2.634 10.472 -2.092 0.25
-2.652 10.475 -2.094 0.35
-2.688 10.476 -2.096 0.3
-2.72 10.466 -2.096 0.29
-2.752 10.454 -2.095 0.27
-2.791 10.468 -2.1 0.34
-2.819 10.44 -2.096 0.29
-2.856 10.45 -2.1 0.31
-2.891 10.447 -2.101 0.29
-2.901 10.419 -2.096 0.27
-2.932 10.404 -2.095 0.25
-2.97 10.414 -2.099 0.41
-3.008 10.422 -2.102 0.28
-3.04 10.41 -2.102 0.28
-3.075 10.408 -2.104 0.27
-3.105 10.389 -2.102 0.25
-3.119 10.379 -2.1 0.28
-3.158 10.387 -2.104 0.38
-3.189 10.374 -2.104 0.29
-3.218 10.351 -2.101 0.25
-3.251 10.342 -2.101 0.29
-3.282 10.33 -2.101 0.4
-3.317 10.327 -2.102 0.29
-3.338 10.335 -2.105 0.28
-3.366 10.311 -2.102 0.28
-3.402 10.312 -2.105 0.31
-3.435 10.303 -2.105 0.28
-3.467 10.29 -2.105 0.27
-3.505 10.298 -2.109 0.34
-3.54 10.294 -2.11 0.29
-3.563 10.255 -2.104 0.27
-3.58 10.252 -2.105 0.29
-3.622 10.268 -2.111 0.31
-3.651 10.249 -2.109 0.28
-3.686 10.245 -2.111 0.3
-3.722 10.245 -2.113 0.27
-3.75 10.222 -2.111 0.26
-3.786 10.219 -2.113 0.35
-3.805 10.221 -2.114 0.25
-3.837 10.21 -2.115 0.37
-3.865 10.187 -2.112 0.26
-3.9 10.182 -2.114 0.38
-3.938 10.187 -2.118 0.28
-3.975 10.187 -2.121 0.28
-4.009 10.178 -2.121 0.23
-4.043 10.171 -2.123 0.2
-4.07 10.192 -2.129 0.29
-4.099 10.174 -2.127 0.55
-4.136 10.172 -2.13 0.37
-4.171 10.168 -2.132 0.29
-4.209 10.169 -2.135 0.29
-4.243 10.159 -2.136 0.32
-4.279 10.157 -2.138 0.41
-4.309 10.184 -2.146 0.29
-4.344 10.176 -2.147 0.29
-4.369 10.148 -2.144 0.25
-4.415 10.165 -2.151 0.25
-4.448 10.154 -2.151 0.31
-4.478 10.137 -2.151 0.36
-4.518 10.141 -2.155 0.35
-4.533 10.132 -2.154 0.47
-4.567 10.121 -2.155 0.34
-4.606 10.125 -2.159 0.4
-4.639 10.112 -2.16 0.39
-4.674 10.104 -2.161 0.36
-4.721 10.122 -2.168 0.41
-4.756 10.114 -2.17 0.41
-4.802 10.129 -2.177 0.32
-4.813 10.111 -2.174 0.48
-4.851 10.11 -2.178 0.34
-4.9 10.13 -2.186 0.37
-4.932 10.114 -2.186 0.43
-4.954 10.079 -2.181 0.41
-5.003 10.099 -2.189 0.32
-5.041 10.097 -2.193 0.41
-5.06 10.095 -2.194 0.34
-5.101 10.098 -2.198 0.35
-5.149 10.113 -2.205 0.43
-5.168 10.073 -2.2 0.27
-5.194 10.046 -2.197 0.36
-5.207 9.993 -2.189 0.3
-5.228 9.957 -2.184 0.27
-5.23 9.923 -2.178 0.18
-5.265 9.914 -2.18 0.29
-5.283 9.871 -2.174 0.25
-5.316 9.86 -2.175 0.25
-5.35 9.848 -2.176 0.25
-5.367 9.805 -2.17 0.18
-5.401 9.795 -2.172 0.28
-5.41 9.775 -2.169 0.24
-5.437 9.751 -2.168 0.26
-5.474 9.746 -2.17 0.26
-5.503 9.725 -2.17 0.25
-5.523 9.689 -2.165 0.26
-5.555 9.675 -2.166 0.28
-5.588 9.661 -2.167 0.27
-5.611 9.631 -2.164 0.27
-5.63 9.629 -2.166 0.27
-5.665 9.62 -2.168 0.2
-5.692 9.596 -2.166 0.28
-5.721 9.576 -2.166 0.24
-5.746 9.549 -2.164 0.17
-5.775 9.53 -2.163 0.29
-5.802 9.506 -2.162 0.25
-5.815 9.496 -2.162 0.26
-5.843 9.474 -2.161 0.2
-5.881 9.469 -2.164 0.27
-5.908 9.445 -2.163 0.25
-5.933 9.42 -2.161 0.2
-5.965 9.405 -2.162 0.28
-5.988 9.376 -2.16 0.24
-5.997 9.357 -2.157 0.27
-6.026 9.338 -2.157 0.2
-6.057 9.322 -2.158 0.27
-6.089 9.306 -2.159 0.25
-6.115 9.282 -2.158 0.27
-6.137 9.253 -2.155 0.26
-6.175 9.247 -2.158 0.25
-6.192 9.21 -2.154 0.24
-6.205 9.198 -2.154 0.29
-6.226 9.166 -2.15 0.22
-6.262 9.157 -2.153 0.44
-6.287 9.133 -2.152 0.21
-6.319 9.118 -2.153 0.27
-6.341 9.088 -2.151 0.25
-6.371 9.07 -2.151 0.26
-6.38 9.052 -2.149 0.21
-6.41 9.035 -2.15 0.28
-6.437 9.013 -2.149 0.25
-6.464 8.99 -2.149 0.28
-6.499 8.979 -2.151 0.21
-6.516 8.944 -2.147 0.28
-6.541 8.919 -2.146 0.25
-6.567 8.895 -2.145 0.19
-6.588 8.894 -2.148 0.27
-6.612 8.869 -2.147 0.25
-6.634 8.84 -2.145 0.26
-6.657 8.813 -2.143 0.19
-6.686 8.794 -2.143 0.27
-6.712 8.771 -2.143 0.25
-6.741 8.752 -2.143 0.2
-6.749 8.733 -2.141 0.27
-6.776 8.712 -2.141 0.25
-6.799 8.684 -2.14 0.2
-6.831 8.669 -2.141 0.27
-6.845 8.631 -2.137 0.23
-6.879 8.618 -2.139 0.17
-6.902 8.592 -2.138 0.29
-6.907 8.571 -2.135 0.24
-6.943 8.56 -2.138 0.2
-6.962 8.529 -2.136 0.26
-6.993 8.511 -2.137 0.23
-7.011 8.479 -2.134 0.21
-7.034 8.452 -2.133 0.26
-7.053 8.421 -2.131 0.25
-7.08 8.4 -2.131 0.2
-7.096 8.392 -2.132 0.28
-7.115 8.361 -2.129 0.25
-7.154 8.353 -2.133 0.24
-7.161 8.308 -2.127 0.22
-7.187 8.286 -2.127 0.27
-7.208 8.257 -2.126 0.25
-7.23 8.23 -2.125 0.25
-7.24 8.216 -2.124 0.26
-7.272 8.201 -2.126 0.26
-7.286 8.164 -2.122 0.18
-7.313 8.143 -2.123 0.27
-7.339 8.12 -2.123 0.24
-7.358 8.09 -2.121 0.19
-7.386 8.069 -2.121 0.27
-7.394 8.053 -2.12 0.25
-7.413 8.023 -2.118 0.16
-7.441 8.002 -2.119 0.28
-7.47 7.983 -2.12 0.23
-7.484 7.948 -2.117 0.25
-7.501 7.916 -2.114 0.2
-7.533 7.9 -2.117 0.26
-7.537 7.879 -2.114 0.25
-7.563 7.857 -2.114 0.2
-7.594 7.84 -2.117 0.26
-7.612 7.81 -2.114 0.23
-7.633 7.781 -2.113 0.19
-7.663 7.763 -2.115 0.27
-7.675 7.726 -2.111 0.22
-7.702 7.705 -2.112 0.21
-7.709 7.689 -2.111 0.25
-7.734 7.664 -2.111 0.23
-7.749 7.632 -2.108 0.19
-7.776 7.61 -2.109 0.27
-7.782 7.568 -2.104 0.22
-7.803 7.541 -2.103 0.18
-7.839 7.528 -2.107 0.27
-7.825 7.492 -2.1 0.22
-7.849 7.467 -2.1 0.19
-7.876 7.446 -2.101 0.26
-7.888 7.411 -2.098 0.25
-7.919 7.393 -2.1 0.21
-7.935 7.361 -2.098 0.25
-7.929 7.309 -2.09 0.23
-7.964 7.295 -2.093 0.23
-7.956 7.265 -2.088 0.28
-7.966 7.228 -2.084 0.28
-8.002 7.215 -2.088 0.36
-8.022 7.187 -2.087 0.33
-8.053 7.17 -2.089 0.23
-8.074 7.143 -2.089 0.12
-8.086 7.109 -2.086 0.21
-8.09 7.09 -2.084 0.11
-8.103 7.057 -2.082 0.2
-8.128 7.034 -2.082 0.11
-8.153 7.011 -2.083 0.18
-8.165 6.976 -2.08 0.22
-8.188 6.952 -2.081 0.1
-8.21 6.926 -2.081 0.18
-8.215 6.908 -2.079 0.21
-8.235 6.881 -2.079 0.09
-8.255 6.854 -2.078 0.16
-8.265 6.818 -2.075 0.05
-8.28 6.787 -2.073 0.17
-8.3 6.759 -2.073 0.05
-8.315 6.728 -2.071 0.17
-8.327 6.717 -2.072 0.19
-8.337 6.682 -2.069 0.04
-8.355 6.653 -2.068 0.16
-8.371 6.623 -2.067 0.05
-8.392 6.597 -2.067 0.17
-8.416 6.573 -2.068 0.05
-8.421 6.534 -2.064 0.17
-8.433 6.522 -2.064 0.19
-8.452 6.495 -2.064 0.04
-8.463 6.461 -2.061 0.18
-8.486 6.437 -2.062 0.2
-8.502 6.406 -2.061 0.1
-8.514 6.374 -2.059 0.18
-8.535 6.348 -2.059 0.2
-8.544 6.313 -2.057 0.1
-8.553 6.298 -2.056 0.2
-8.563 6.265 -2.054 0.1
-8.573 6.231 -2.051 0.2
-8.602 6.211 -2.054 0.11
-8.615 6.179 -2.052 0.18
-8.623 6.144 -2.049 0.23
-8.64 6.115 -2.049 0.1
-8.644 6.098 -2.047 0.2
-8.663 6.07 -2.047 0.11
-8.673 6.036 -2.045 0.2
-8.685 6.005 -2.043 0.11
-8.693 5.97 -2.041 0.2
-8.708 5.94 -2.04 0.11
-8.719 5.907 -2.038 0.2
-8.723 5.89 -2.036 0.2
-8.743 5.864 -2.037 0.21
-8.754 5.831 -2.035 0.11
-8.777 5.807 -2.036 0.18
-8.784 5.771 -2.033 0.23
-8.795 5.739 -2.032 0.2
-8.8 5.703 -2.028 0.23
-8.823 5.679 -2.03 0.2
-8.828 5.663 -2.029 0.12
-8.838 5.63 -2.027 0.2
-8.851 5.599 -2.026 0.11
-8.865 5.569 -2.025 0.18
-8.879 5.539 -2.024 0.12
-8.883 5.503 -2.021 0.21
-8.9 5.475 -2.021 0.11
-8.895 5.453 -2.018 0.19
-8.914 5.426 -2.018 0.1
-8.931 5.398 -2.018 0.18
-8.948 5.369 -2.018 0.11
-8.962 5.339 -2.017 0.18
-8.956 5.298 -2.012 0.21
-8.976 5.272 -2.013 0.09
-8.978 5.254 -2.011 0.18
-8.994 5.226 -2.011 0.2
-9.009 5.196 -2.011 0.09
-9.017 5.163 -2.009 0.09
-9.021 5.128 -2.006 0.19
-9.035 5.099 -2.006 0.2
-9.058 5.074 -2.007 0.09
-9.061 5.057 -2.006 0.16
-9.065 5.022 -2.003 0.21
-9.074 4.99 -2.002 0.19
-9.095 4.964 -2.003 0.21
-9.096 4.928 -1.999 0.1
-9.119 4.903 -2.001 0.18
-9.108 4.86 -1.995 0.22
-9.106 4.822 -1.991 0.18
-9.124 4.814 -1.993 0.23
-9.134 4.782 -1.992 0.17
-9.135 4.746 -1.989 0.25
-9.139 4.712 -1.987 0.22
-9.142 4.677 -1.984 0.2
-9.164 4.652 -1.985 0.25
-9.164 4.616 -1.982 0.23
-9.159 4.595 -1.979 0.25
-9.174 4.567 -1.979 0.22
-9.183 4.535 -1.978 0.25
-9.185 4.5 -1.975 0.24
-9.209 4.477 -1.978 0.26
-9.197 4.435 -1.972 0.27
-9.211 4.406 -1.972 0.27
-9.2 4.383 -1.968 0.29
-9.235 4.364 -1.973 0.25
-9.222 4.322 -1.967 0.22
-9.223 4.288 -1.964 0.27
-9.231 4.256 -1.962 0.39
-9.257 4.233 -1.965 0.24
-9.267 4.202 -1.965 0.34
-9.27 4.186 -1.964 0.41
-9.292 4.161 -1.966 0.36
-9.301 4.13 -1.965 0.43
-9.323 4.105 -1.967 0.35
-9.325 4.071 -1.965 0.46
-9.363 4.052 -1.97 0.45
-9.376 4.023 -1.97 0.28
-9.377 4.006 -1.969 0.28
-9.391 3.977 -1.969 0.28
-9.411 3.951 -1.971 0.29
-9.412 3.917 -1.969 0.29
-9.417 3.884 -1.967 0.3
-9.428 3.854 -1.967 0.28
-9.445 3.826 -1.968 0.28
-9.455 3.813 -1.969 0.29
-9.467 3.783 -1.969 0.28
-9.484 3.756 -1.97 0.25
-9.492 3.724 -1.969 0.28
-9.509 3.697 -1.97 0.27
-9.515 3.665 -1.969 0.27
-9.534 3.638 -1.971 0.27
-9.544 3.607 -1.97 0.27
-9.566 3.598 -1.974 0.26
-9.573 3.567 -1.973 0.29
-9.573 3.532 -1.971 0.18
-9.583 3.502 -1.97 0.29
-9.601 3.474 -1.972 0.25
-9.61 3.443 -1.971 0.27
-9.613 3.411 -1.97 0.26
-9.619 3.395 -1.97 0.27
-9.637 3.368 -1.971 0.28
-9.645 3.337 -1.971 0.27
-9.648 3.304 -1.969 0.26
-9.666 3.276 -1.971 0.26
-9.658 3.24 -1.967 0.26
-9.668 3.209 -1.967 0.27
-9.687 3.182 -1.969 0.27
-9.683 3.164 -1.967 0.26
-9.71 3.139 -1.971 0.26
-9.703 3.103 -1.967 0.29
-9.714 3.073 -1.967 0.29
-9.72 3.041 -1.967 0.28
-9.752 3.018 -1.971 0.25
-9.732 2.978 -1.965 0.2
-9.742 2.964 -1.966 0.29
-9.749 2.933 -1.966 0.25
-9.768 2.905 -1.968 0.24
-9.777 2.874 -1.968 0.29
-9.778 2.841 -1.966 0.29
-9.783 2.81 -1.965 0.29
-9.793 2.796 -1.967 0.27
-9.808 2.767 -1.968 0.3
-9.794 2.729 -1.963 0.28
-9.81 2.701 -1.965 0.29
-9.826 2.672 -1.966 0.28
-9.821 2.638 -1.963 0.3
-9.833 2.608 -1.964 0.26
-9.839 2.576 -1.964 0.29
-9.841 2.56 -1.963 0.25
-9.836 2.526 -1.96 0.3
-9.857 2.498 -1.963 0.28
-9.861 2.467 -1.962 0.29
-9.867 2.435 -1.962 0.27
-9.877 2.405 -1.962 0.29
-9.89 2.375 -1.964 0.26
-9.878 2.356 -1.96 0.27
-9.909 2.33 -1.965 0.26
-9.904 2.296 -1.963 0.29
-9.906 2.264 -1.962 0.28
-9.917 2.234 -1.962 0.27
-9.926 2.203 -1.963 0.26
-9.938 2.173 -1.964 0.27
-9.937 2.14 -1.962 0.27
-9.939 2.124 -1.962 0.25
-9.955 2.095 -1.964 0.26
-9.963 2.064 -1.965 0.21
-9.956 2.03 -1.962 0.27
-9.969 2.0 -1.963 0.25
-9.986 1.971 -1.965 0.24
-9.977 1.936 -1.962 0.21
-9.988 1.922 -1.964 0.27
-9.984 1.889 -1.962 0.23
-9.977 1.855 -1.959 0.26
-9.988 1.825 -1.96 0.25
-9.988 1.792 -1.959 0.21
-10.003 1.763 -1.961 0.28
-9.995 1.729 -1.958 0.24
-10.0 1.713 -1.958 0.27
-10.007 1.682 -1.959 0.24
-10.01 1.65 -1.958 0.18
-10.019 1.62 -1.959 0.29
-10.015 1.587 -1.957 0.24
-10.006 1.553 -1.954 0.27
-10.019 1.523 -1.956 0.26
-10.013 1.506 -1.954 0.2
-10.028 1.476 -1.956 0.28
-10.028 1.444 -1.956 0.24
-10.017 1.41 -1.952 0.27
-10.026 1.379 -1.953 0.26
-10.047 1.35 -1.957 0.25
-10.038 1.317 -1.954 0.21
-10.042 1.301 -1.954 0.27
-10.048 1.27 -1.955 0.25
-10.042 1.237 -1.953 0.19
-10.056 1.207 -1.955 0.27
-10.073 1.177 -1.958 0.2
-10.071 1.144 -1.956 0.24
-10.071 1.112 -1.956 0.18
-10.094 1.083 -1.96 0.23
-10.093 1.067 -1.959 0.21
-10.091 1.034 -1.958 0.11
-10.092 1.002 -1.958 0.19
-10.101 0.971 -1.959 0.11
-10.106 0.94 -1.959 0.19
-10.115 0.909 -1.96 0.11
-10.104 0.876 -1.958 0.19
-10.105 0.86 -1.958 0.11
-10.114 0.828 -1.959 0.18
-10.106 0.796 -1.957 0.05
-10.105 0.764 -1.956 0.18
-10.127 0.733 -1.96 0.11
-10.098 0.699 -1.954 0.18
-10.112 0.668 -1.956 0.11
-10.115 0.653 -1.956 0.19
-10.099 0.62 -1.953 0.11
-10.101 0.588 -1.953 0.18
-10.099 0.556 -1.952 0.22
-10.093 0.524 -1.95 0.18
-10.09 0.492 -1.95 0.23
-10.086 0.46 -1.948 0.19
-10.069 0.443 -1.945 0.24
-10.057 0.411 -1.942 0.22
-10.058 0.38 -1.942 0.18
-10.053 0.348 -1.941 0.26
-10.039 0.316 -1.938 0.24
-10.036 0.284 -1.937 0.19
-10.041 0.253 -1.938 0.27
-10.035 0.221 -1.936 0.25
-10.055 0.206 -1.94 0.26
-10.034 0.174 -1.936 0.26
-10.039 0.142 -1.937 0.26
-10.035 0.111 -1.936 0.28
-10.03 0.079 -1.935 0.27
-10.048 0.048 -1.938 0.25
-10.038 0.016 -1.936 0.18
-10.032 0.0 -1.935 0.29
-10.034 -0.031 -1.936 0.25
-10.036 -0.063 -1.936 0.2
-10.03 -0.094 -1.935 0.27
-10.033 -0.126 -1.936 0.25
-10.04 -0.158 -1.937 0.2
-10.038 -0.189 -1.937 0.26
-10.042 -0.205 -1.938 0.23
-10.047 -0.237 -1.939 0.2
-10.028 -0.268 -1.935 0.25
-10.024 -0.299 -1.934 0.19
-10.019 -0.33 -1.934 0.23
-10.033 -0.362 -1.937 0.21
-10.026 -0.394 -1.936 0.12
-10.016 -0.409 -1.934 0.2
-10.022 -0.441 -1.935 0.11
-10.017 -0.472 -1.934 0.21
-10.025 -0.504 -1.936 0.11
-10.004 -0.535 -1.932 0.2
-10.0 -0.566 -1.932 0.11
-9.995 -0.597 -1.931 0.2
-10.008 -0.63 -1.934 0.11
-9.992 -0.644 -1.931 0.18
-9.997 -0.676 -1.933 0.11
-9.985 -0.707 -1.931 0.2
-9.981 -0.738 -1.93 0.11
-9.981 -0.77 -1.931 0.2
-9.905 -0.78 -1.915 0.2
-9.907 -0.811 -1.916 0.11
-9.907 -0.827 -1.917 0.18
-9.899 -0.857 -1.915 0.11
-9.888 -0.888 -1.914 0.2
-9.889 -0.919 -1.915 0.11
-9.877 -0.949 -1.913 0.2
-9.866 -0.98 -1.911 0.11
-9.863 -1.011 -1.911 0.2
-9.858 -1.041 -1.911 0.16
-9.858 -1.057 -1.911 0.26
-9.843 -1.087 -1.909 0.23
-9.847 -1.119 -1.91 0.18
-9.846 -1.15 -1.911 0.26
-9.834 -1.18 -1.909 0.25
-9.834 -1.211 -1.91 0.25
-9.828 -1.242 -1.909 0.27
-9.836 -1.258 -1.911 0.26
-9.832 -1.289 -1.911 0.19
-9.84 -1.322 -1.914 0.29
-9.832 -1.352 -1.913 0.25
-9.823 -1.382 -1.912 0.28
-9.813 -1.413 -1.911 0.28
-9.83 -1.446 -1.915 0.26
-9.824 -1.461 -1.915 0.22
-9.81 -1.491 -1.913 0.28
-9.816 -1.523 -1.915 0.25
-9.816 -1.555 -1.916 0.26
-9.799 -1.584 -1.913 0.26
-9.808 -1.617 -1.916 0.28
-9.851 -1.655 -1.926 0.27
-9.84 -1.67 -1.925 0.29
-9.841 -1.702 -1.926 0.27
-9.839 -1.733 -1.927 0.26
-9.816 -1.761 -1.923 0.19
-9.734 -1.778 -1.907 0.28
-9.584 -1.782 -1.877 0.25
-9.462 -1.791 -1.853 0.25
-9.324 -1.795 -1.825 0.27
-9.227 -1.792 -1.805 0.3
-9.211 -1.819 -1.803 0.29
-9.21 -1.848 -1.804 0.26
-9.192 -1.875 -1.802 0.27
-9.179 -1.902 -1.8 0.25
-9.159 -1.928 -1.797 0.22
-9.188 -1.964 -1.804 0.32
-9.207 -1.984 -1.809 0.39
-9.207 -2.014 -1.81 0.36
-9.292 -2.063 -1.83 0.37
-9.313 -2.098 -1.835 0.4
-9.295 -2.125 -1.833 0.31
-9.309 -2.159 -1.837 0.36
-9.275 -2.182 -1.832 0.31
-9.306 -2.204 -1.839 0.32
-9.314 -2.237 -1.842 0.27
-9.319 -2.269 -1.845 0.29
-9.289 -2.293 -1.84 0.35
-9.287 -2.324 -1.841 0.3
-9.354 -2.371 -1.857 0.24
-9.341 -2.399 -1.856 0.39
-9.278 -2.399 -1.843 0.32
-9.273 -2.428 -1.843 0.27
-9.307 -2.469 -1.852 0.32
-9.238 -2.482 -1.839 0.41
-9.325 -2.536 -1.86 0.28
-9.302 -2.561 -1.856 0.31
-9.28 -2.587 -1.854 0.19
-9.352 -2.622 -1.87 0.46
-9.342 -2.651 -1.869 0.37
-9.39 -2.697 -1.881 0.3
-9.374 -2.724 -1.88 0.27
-9.352 -2.75 -1.877 0.3
-9.358 -2.783 -1.88 0.26
-9.333 -2.808 -1.876 0.22
-9.264 -2.819 -1.864 0.3
-9.293 -2.844 -1.871 0.37
-9.34 -2.89 -1.883 0.27
-9.253 -2.895 -1.866 0.27
-9.344 -2.956 -1.888 0.28
-9.333 -2.984 -1.887 0.25
-9.341 -3.019 -1.891 0.32
-9.335 -3.05 -1.892 0.31
-9.269 -3.044 -1.878 0.25
-9.313 -3.091 -1.89 0.34
-9.231 -3.096 -1.874 0.26
-9.108 -3.087 -1.85 0.25
-9.057 -3.102 -1.841 0.22
-9.027 -3.123 -1.837 0.25
-8.965 -3.134 -1.825 0.28
-8.882 -3.121 -1.808 0.27
-8.802 -3.124 -1.793 0.28
-8.721 -3.126 -1.778 0.28
-8.619 -3.12 -1.757 0.28
-8.482 -3.101 -1.73 0.21
-8.398 -3.101 -1.714 0.06
-8.331 -3.106 -1.701 0.0
-8.276 -3.115 -1.691 0.0
-9.04 -3.449 -1.862 0.23
-9.003 -3.468 -1.856 0.22
-9.025 -3.509 -1.864 0.26
-9.021 -3.54 -1.865 0.28
-9.034 -3.578 -1.87 0.3
-9.037 -3.595 -1.872 0.32
-9.044 -3.631 -1.876 0.21
-9.047 -3.665 -1.88 0.15
-9.025 -3.689 -1.877 0.21
-9.021 -3.72 -1.879 0.24
-8.991 -3.741 -1.875 0.24
-8.983 -3.771 -1.876 0.29
-8.978 -3.802 -1.877 0.4
-8.988 -3.823 -1.881 0.24
-8.976 -3.851 -1.881 0.19
-8.975 -3.884 -1.883 0.48
-8.939 -3.902 -1.878 0.39
-8.954 -3.942 -1.884 0.31
-8.882 -3.944 -1.871 0.31
-8.866 -3.97 -1.87 0.25
-8.869 -3.988 -1.872 0.27
-8.831 -4.005 -1.866 0.34
-8.82 -4.033 -1.867 0.23
-8.804 -4.06 -1.866 0.2
-8.802 -4.092 -1.868 0.33
-8.773 -4.112 -1.865 0.23
-8.774 -4.147 -1.868 0.21
-8.728 -4.158 -1.86 0.25
-8.709 -4.166 -1.858 0.2
-8.683 -4.187 -1.855 0.23
-8.679 -4.219 -1.857 0.19
-8.655 -4.241 -1.854 0.23
-8.635 -4.265 -1.853 0.18
-8.618 -4.29 -1.852 0.24
-8.602 -4.316 -1.852 0.18
-8.599 -4.332 -1.852 0.23
-8.598 -4.365 -1.855 0.2
-8.582 -4.391 -1.855 0.18
-8.521 -4.394 -1.844 0.3
-8.499 -4.416 -1.842 0.24
-8.473 -4.436 -1.839 0.19
-8.476 -4.472 -1.843 0.27
-8.474 -4.488 -1.844 0.22
-8.441 -4.504 -1.84 0.2
-8.432 -4.534 -1.841 0.25
-8.418 -4.56 -1.841 0.35
-8.414 -4.592 -1.843 0.14
-8.282 -4.555 -1.816 0.21
-8.258 -4.575 -1.814 0.2
-8.211 -4.566 -1.804 0.1
-8.197 -4.592 -1.804 0.17
-8.134 -4.591 -1.793 0.21
-8.023 -4.562 -1.77 0.19
-8.025 -4.596 -1.774 0.22
-8.009 -4.621 -1.774 0.19
-7.955 -4.623 -1.765 0.23
-7.907 -4.612 -1.755 0.19
-7.849 -4.611 -1.745 0.25
-7.792 -4.611 -1.734 0.23
-7.749 -4.619 -1.728 0.18
-7.691 -4.617 -1.717 0.26
-7.633 -4.615 -1.707 0.21
-7.536 -4.589 -1.687 0.21
-7.478 -4.586 -1.677 0.0
-7.431 -4.573 -1.667 0.0
-7.389 -4.58 -1.661 0.0
-7.35 -4.588 -1.654 0.0
-7.312 -4.596 -1.649 0.0
-7.849 -5.001 -1.786 0.07
-7.873 -5.051 -1.796 0.22
-7.875 -5.069 -1.798 0.31
-7.818 -5.068 -1.788 0.29
-7.759 -5.064 -1.778 0.2
-7.706 -5.064 -1.769 0.35
-7.683 -5.084 -1.767 0.41
-7.635 -5.086 -1.759 0.36
-7.583 -5.087 -1.75 0.29
-7.594 -5.111 -1.755 0.24
-7.57 -5.13 -1.753 0.3
-7.577 -5.169 -1.759 0.38
-7.552 -5.187 -1.757 0.23
-7.468 -5.164 -1.74 0.3
-7.445 -5.183 -1.738 0.27
-7.423 -5.202 -1.737 0.28
-7.376 -5.187 -1.727 0.28
-7.401 -5.239 -1.737 0.3
-7.356 -5.242 -1.73 0.28
-7.357 -5.278 -1.734 0.36
-7.339 -5.3 -1.734 0.32
-7.305 -5.31 -1.73 0.31
-7.277 -5.325 -1.727 0.3
-7.261 -5.331 -1.725 0.32
-7.188 -5.313 -1.711 0.24
-7.169 -5.333 -1.71 0.23
-7.16 -5.361 -1.712 0.33
-7.146 -5.386 -1.713 0.26
-7.11 -5.395 -1.708 0.43
-7.051 -5.385 -1.697 0.31
-7.051 -5.42 -1.702 0.23
-7.077 -5.457 -1.71 0.23
-7.061 -5.481 -1.711 0.36
-7.072 -5.525 -1.718 0.3
-7.048 -5.542 -1.716 0.32
-6.971 -5.517 -1.701 0.3
-6.949 -5.535 -1.7 0.29
-6.931 -5.557 -1.7 0.32
-6.924 -5.569 -1.7 0.2
-6.962 -5.635 -1.714 0.36
-6.965 -5.674 -1.72 0.27
-6.972 -5.716 -1.726 0.33
-6.948 -5.733 -1.725 0.32
-6.91 -5.738 -1.72 0.34
-6.884 -5.754 -1.718 0.29
-6.878 -5.767 -1.718 0.26
-6.857 -5.786 -1.718 0.26
-6.852 -5.819 -1.721 0.3
-6.843 -5.848 -1.724 0.3
-6.847 -5.888 -1.73 0.3
-6.812 -5.896 -1.725 0.33
-6.81 -5.931 -1.73 0.28
-6.789 -5.932 -1.726 0.31
-6.773 -5.956 -1.727 0.19
-6.742 -5.967 -1.724 0.4
-6.778 -6.036 -1.739 0.38
-6.7 -6.005 -1.723 0.31
-6.706 -6.048 -1.73 0.27
-6.651 -6.036 -1.72 0.25
-6.665 -6.068 -1.726 0.29
-6.611 -6.057 -1.716 0.28
-6.616 -6.1 -1.723 0.32
-6.545 -6.073 -1.709 0.28
-6.515 -6.083 -1.706 0.29
-6.494 -6.102 -1.705 0.31
-6.448 -6.097 -1.697 0.21
-6.418 -6.088 -1.692 0.26
-6.386 -6.096 -1.688 0.2
-6.356 -6.106 -1.685 0.25
-6.279 -6.07 -1.669 0.22
-6.258 -6.088 -1.668 0.18
-6.205 -6.075 -1.658 0.27
-6.218 -6.126 -1.668 0.24
-6.157 -6.104 -1.656 0.18
-6.178 -6.144 -1.665 0.27
-6.138 -6.143 -1.658 0.25
-6.093 -6.136 -1.651 0.26
-6.075 -6.156 -1.651 0.26
-6.024 -6.143 -1.642 0.27
-5.986 -6.144 -1.637 0.27
-5.952 -6.147 -1.632 0.28
-5.931 -6.145 -1.629 0.27
-5.89 -6.142 -1.623 0.27
-5.871 -6.16 -1.623 0.28
-5.819 -6.144 -1.613 0.25
-5.79 -6.153 -1.61 0.32
-5.763 -6.162 -1.608 0.29
-5.714 -6.149 -1.599 0.28
-5.687 -6.139 -1.594 0.29
-5.659 -6.147 -1.591 0.29
-5.61 -6.133 -1.582 0.3
-5.574 -6.132 -1.577 0.29
-5.545 -6.139 -1.574 0.27
-5.502 -6.13 -1.567 0.28
-5.459 -6.121 -1.56 0.29
-5.446 -6.126 -1.558 0.3
-5.404 -6.118 -1.552 0.3
-5.369 -6.117 -1.547 0.29
-5.34 -6.122 -1.543 0.29
-5.301 -6.117 -1.537 0.28
-5.272 -6.121 -1.534 0.25
-5.236 -6.119 -1.529 0.24
-5.205 -6.102 -1.522 0.0
-5.177 -6.108 -1.519 0.0
-5.159 -6.125 -1.52 0.0
-5.57 -6.652 -1.657 0.02
-5.691 -6.84 -1.702 0.1
-5.657 -6.842 -1.698 0.21
-5.613 -6.833 -1.691 0.41
-5.612 -6.854 -1.694 0.28
-5.594 -6.876 -1.695 0.42
-5.591 -6.916 -1.702 0.36
-5.557 -6.919 -1.697 0.26
-5.552 -6.957 -1.703 0.4
-5.498 -6.934 -1.692 0.29
-5.475 -6.949 -1.692 0.3
-5.452 -6.965 -1.691 0.29
-5.427 -6.956 -1.687 0.27
-5.401 -6.967 -1.685 0.27
-5.383 -6.99 -1.687 0.34
-5.384 -7.037 -1.695 0.33
-5.369 -7.063 -1.697 0.34
-5.32 -7.044 -1.688 0.21
-5.282 -7.04 -1.683 0.31
-5.285 -7.067 -1.687 0.48
-5.23 -7.04 -1.676 0.25
-5.21 -7.06 -1.677 0.35
-5.192 -7.081 -1.678 0.3
-5.184 -7.117 -1.683 0.38
-5.138 -7.1 -1.675 0.28
-5.125 -7.129 -1.678 0.44
-5.102 -7.121 -1.674 0.27
-5.068 -7.121 -1.67 0.42
-5.053 -7.147 -1.673 0.27
-5.056 -7.2 -1.682 0.29
-5.035 -7.217 -1.682 0.45
-4.968 -7.17 -1.667 0.2
-4.927 -7.158 -1.66 0.27
-4.908 -7.179 -1.661 0.45
-4.903 -7.196 -1.663 0.31
