# .PCD v.7 - Point Cloud Data file format
VERSION .7
FIELDS x y z intensity
SIZE 4 4 4 4
TYPE F F F F
COUNT 1 1 1 1
WIDTH 1861
HEIGHT 1
VIEWPOINT 0 0 0 1 0 0 0
POINTS 1861
DATA ascii
3.147 -14.377 -0.883 0.24
2.573 -11.603 -0.674 0.31
2.599 -11.546 -0.671 0.62
2.627 -11.505 -0.668 0.29
3.34 -14.388 -0.887 0.45
3.383 -14.37 -0.886 0.41
3.431 -14.371 -0.887 0.41
3.456 -14.375 -0.888 0.35
3.507 -14.388 -0.89 0.41
3.56 -14.409 -0.892 0.33
3.606 -14.398 -0.892 0.45
3.654 -14.4 -0.893 0.37
3.697 -14.379 -0.893 0.47
3.75 -14.398 -0.895 0.37
3.77 -14.383 -0.894 0.46
3.823 -14.398 -0.896 0.37
3.869 -14.39 -0.896 0.59
3.898 -14.318 -0.892 0.36
3.932 -14.265 -0.889 0.4
3.983 -14.276 -0.891 0.39
4.03 -14.271 -0.891 0.3
4.076 -14.264 -0.892 0.45
4.11 -14.296 -0.895 0.36
4.153 -14.277 -0.894 0.39
4.2 -14.271 -0.895 0.45
4.252 -14.283 -0.897 0.37
4.297 -14.27 -0.897 0.39
4.344 -14.262 -0.897 0.45
4.372 -14.272 -0.898 0.41
4.422 -14.275 -0.9 0.38
4.51 -14.4 -0.91 0.39
4.562 -14.405 -0.912 0.41
4.606 -14.387 -0.912 0.53
4.661 -14.403 -0.914 0.39
4.708 -14.394 -0.914 0.52
4.735 -14.399 -0.915 0.36
4.781 -14.388 -0.916 0.46
4.832 -14.39 -0.917 0.39
4.877 -14.373 -0.917 0.4
4.932 -14.388 -0.919 0.38
4.979 -14.378 -0.92 0.39
5.031 -14.381 -0.921 0.41
5.083 -14.384 -0.923 0.35
5.112 -14.395 -0.924 0.47
5.163 -14.396 -0.925 0.39
5.221 -14.413 -0.928 0.41
5.271 -14.41 -0.929 0.42
5.314 -14.387 -0.929 0.49
5.371 -14.4 -0.931 0.39
5.417 -14.387 -0.931 0.52
5.445 -14.394 -0.932 0.38
5.499 -14.397 -0.934 0.45
5.55 -14.396 -0.935 0.35
5.593 -14.373 -0.935 0.52
5.657 -14.404 -0.939 0.29
5.703 -14.386 -0.939 0.48
5.756 -14.388 -0.94 0.32
5.779 -14.381 -0.941 0.55
5.84 -14.4 -0.944 0.34
5.89 -14.394 -0.945 0.49
5.938 -14.381 -0.945 0.42
5.995 -14.392 -0.947 0.36
6.044 -14.382 -0.948 0.47
6.101 -14.391 -0.95 0.36
6.127 -14.389 -0.951 0.46
6.178 -14.384 -0.952 0.42
6.236 -14.394 -0.954 0.34
6.285 -14.383 -0.955 0.53
6.338 -14.38 -0.956 0.45
6.385 -14.365 -0.957 0.38
6.439 -14.365 -0.959 0.36
6.469 -14.371 -0.96 0.4
6.525 -14.374 -0.962 0.38
6.578 -14.37 -0.963 0.31
6.625 -14.355 -0.964 0.43
6.684 -14.363 -0.966 0.35
6.738 -14.362 -0.967 0.39
6.791 -14.357 -0.969 0.41
6.828 -14.377 -0.971 0.37
6.877 -14.362 -0.972 0.36
6.927 -14.351 -0.973 0.38
6.987 -14.36 -0.975 0.34
7.041 -14.356 -0.977 0.41
7.093 -14.348 -0.978 0.39
7.148 -14.345 -0.98 0.37
7.183 -14.359 -0.982 0.4
7.243 -14.365 -0.984 0.32
7.298 -14.362 -0.986 0.43
7.35 -14.353 -0.987 0.36
7.405 -14.349 -0.988 0.38
7.459 -14.342 -0.99 0.42
7.525 -14.359 -0.993 0.39
7.555 -14.361 -0.994 0.42
7.613 -14.362 -0.996 0.35
7.671 -14.362 -0.998 0.38
7.732 -14.366 -1.001 0.3
7.784 -14.356 -1.002 0.47
7.839 -14.349 -1.003 0.41
7.893 -14.34 -1.005 0.4
7.954 -14.345 -1.007 0.35
7.988 -14.351 -1.009 0.43
8.028 -14.318 -1.008 0.27
8.027 -14.212 -1.001 0.5
8.118 -14.269 -1.008 0.43
8.15 -14.22 -1.006 0.4
8.229 -14.253 -1.011 0.4
8.316 -14.3 -1.017 0.39
8.326 -14.266 -1.016 0.32
8.396 -14.283 -1.019 0.43
8.451 -14.274 -1.021 0.35
8.495 -14.245 -1.021 0.37
8.538 -14.215 -1.02 0.43
8.59 -14.2 -1.021 0.38
8.636 -14.176 -1.022 0.41
8.65 -14.149 -1.021 0.37
8.704 -14.137 -1.022 0.37
8.742 -14.1 -1.021 0.39
8.789 -14.076 -1.021 0.38
8.836 -14.053 -1.022 0.36
8.87 -14.01 -1.02 0.28
8.917 -13.985 -1.021 0.43
8.941 -13.975 -1.021 0.38
8.981 -13.942 -1.021 0.36
9.033 -13.925 -1.022 0.3
9.077 -13.898 -1.022 0.32
9.103 -13.843 -1.019 0.29
9.123 -13.778 -1.016 0.37
9.185 -13.777 -1.019 0.43
9.222 -13.786 -1.021 0.34
9.269 -13.762 -1.021 0.29
9.321 -13.746 -1.022 0.38
9.348 -13.694 -1.02 0.26
9.4 -13.677 -1.021 0.32
9.448 -13.654 -1.022 0.31
9.477 -13.605 -1.02 0.31
9.527 -13.586 -1.021 0.31
9.544 -13.565 -1.021 0.32
9.584 -13.532 -1.02 0.33
9.634 -13.511 -1.021 0.34
9.677 -13.482 -1.021 0.32
9.715 -13.445 -1.021 0.29
9.765 -13.426 -1.022 0.35
9.79 -13.416 -1.022 0.29
9.838 -13.393 -1.023 0.37
9.884 -13.367 -1.023 0.33
9.933 -13.345 -1.024 0.33
9.965 -13.301 -1.023 0.27
10.007 -13.27 -1.023 0.39
10.053 -13.245 -1.024 0.32
10.073 -13.227 -1.024 0.32
10.122 -13.205 -1.025 0.32
10.158 -13.167 -1.024 0.32
10.207 -13.144 -1.025 0.31
10.253 -13.118 -1.025 0.31
10.302 -13.096 -1.026 0.3
10.345 -13.066 -1.027 0.31
10.373 -13.059 -1.027 0.31
10.418 -13.031 -1.028 0.3
10.46 -13.0 -1.028 0.3
10.507 -12.975 -1.029 0.3
10.558 -12.954 -1.03 0.32
10.607 -12.932 -1.031 0.35
10.648 -12.898 -1.031 0.3
10.705 -12.885 -1.033 0.34
10.728 -12.871 -1.033 0.29
10.772 -12.842 -1.034 0.31
10.833 -12.832 -1.036 0.35
10.875 -12.8 -1.036 0.3
10.913 -12.764 -1.036 0.3
10.946 -12.721 -1.035 0.28
10.992 -12.694 -1.036 0.31
11.013 -12.678 -1.036 0.28
11.061 -12.652 -1.037 0.29
11.087 -12.602 -1.035 0.21
10.498 -11.859 -0.966 0.44
11.184 -12.552 -1.037 0.29
11.239 -12.534 -1.039 0.28
11.286 -12.508 -1.04 0.29
11.311 -12.496 -1.041 0.29
11.365 -12.477 -1.042 0.31
11.396 -12.432 -1.041 0.29
11.44 -12.401 -1.042 0.26
11.477 -12.363 -1.042 0.14
11.028 -11.806 -0.989 0.56
11.311 -12.033 -1.015 0.25
11.596 -12.296 -1.044 0.32
11.545 -12.165 -1.034 0.28
11.71 -12.262 -1.048 0.3
11.595 -12.065 -1.032 0.22
11.667 -12.065 -1.035 0.16
11.587 -11.907 -1.023 0.39
11.672 -11.919 -1.028 0.48
11.706 -11.916 -1.029 0.22
11.725 -11.861 -1.027 0.54
11.797 -11.859 -1.031 0.27
11.878 -11.866 -1.036 0.49
11.937 -11.849 -1.038 0.4
11.988 -11.826 -1.039 0.35
12.03 -11.792 -1.04 0.39
12.041 -11.766 -1.039 0.43
12.15 -11.798 -1.046 0.37
12.248 -11.819 -1.053 0.41
12.27 -11.765 -1.051 0.36
12.348 -11.766 -1.055 0.44
12.426 -11.766 -1.06 0.43
12.47 -11.734 -1.06 0.41
12.523 -11.747 -1.064 0.38
12.63 -11.773 -1.071 0.59
11.762 -10.897 -0.98 0.16
12.637 -11.631 -1.064 0.17
12.704 -11.619 -1.067 0.54
12.687 -11.531 -1.062 0.22
12.757 -11.522 -1.065 0.55
12.799 -11.523 -1.068 0.33
12.849 -11.495 -1.069 0.46
12.25 -10.892 -1.006 0.28
13.024 -11.505 -1.079 0.24
13.09 -11.49 -1.082 0.56
13.171 -11.488 -1.086 0.43
13.226 -11.463 -1.088 0.18
12.579 -10.869 -1.023 0.39
12.538 -10.766 -1.016 0.2
13.304 -11.349 -1.087 0.27
13.383 -11.343 -1.091 0.3
12.923 -10.886 -1.044 0.21
13.0 -10.881 -1.048 0.2
13.36 -11.11 -1.079 0.48
13.393 -11.102 -1.08 0.24
13.224 -10.892 -1.061 0.29
13.39 -10.958 -1.073 0.23
13.683 -11.126 -1.098 0.29
13.73 -11.093 -1.099 0.3
13.793 -11.072 -1.102 0.32
13.825 -11.026 -1.102 0.31
13.873 -10.994 -1.103 0.25
13.911 -10.988 -1.105 0.34
13.945 -10.944 -1.105 0.25
14.005 -10.92 -1.107 0.35
14.041 -10.877 -1.107 0.19
14.103 -10.855 -1.11 0.46
14.055 -10.747 -1.102 0.2
14.203 -10.79 -1.113 0.29
13.247 -10.033 -1.023 0.21
13.315 -10.019 -1.026 0.37
13.081 -9.779 -1.002 0.22
13.271 -9.856 -1.017 0.43
13.348 -9.848 -1.021 0.3
13.519 -9.909 -1.034 0.42
13.461 -9.802 -1.026 0.29
13.59 -9.862 -1.036 0.4
13.621 -9.82 -1.036 0.35
13.71 -9.819 -1.041 0.45
13.676 -9.729 -1.035 0.34
13.778 -9.737 -1.042 0.41
13.727 -9.636 -1.034 0.36
13.752 -9.59 -1.034 0.39
13.775 -9.574 -1.035 0.28
13.814 -9.536 -1.035 0.5
13.827 -9.481 -1.034 0.39
13.924 -9.484 -1.04 0.27
13.886 -9.394 -1.034 0.57
14.053 -9.443 -1.046 0.21
14.154 -9.446 -1.052 0.52
14.131 -9.399 -1.049 0.3
13.979 -9.235 -1.033 0.45
14.086 -9.242 -1.04 0.39
14.167 -9.231 -1.045 0.34
14.189 -9.182 -1.044 0.5
14.169 -9.107 -1.04 0.34
14.146 -9.029 -1.035 0.34
14.185 -9.023 -1.037 0.45
14.212 -8.977 -1.037 0.36
14.233 -8.928 -1.037 0.45
14.33 -8.926 -1.043 0.35
14.301 -8.846 -1.038 0.48
14.378 -8.831 -1.042 0.32
14.465 -8.822 -1.047 0.38
14.433 -8.771 -1.043 0.46
14.436 -8.712 -1.041 0.35
14.515 -8.697 -1.045 0.45
14.587 -8.678 -1.049 0.3
14.7 -8.682 -1.057 0.48
14.782 -8.668 -1.061 0.34
14.798 -8.615 -1.06 0.44
14.876 -8.598 -1.065 0.35
14.89 -8.575 -1.065 0.44
14.977 -8.563 -1.07 0.34
15.035 -8.533 -1.072 0.44
15.09 -8.502 -1.075 0.34
15.151 -8.473 -1.078 0.48
15.183 -8.429 -1.078 0.29
15.332 -8.448 -1.088 0.49
15.363 -8.434 -1.09 0.39
15.403 -8.393 -1.091 0.3
15.491 -8.378 -1.096 0.36
15.593 -8.369 -1.103 0.34
15.693 -8.36 -1.109 0.33
15.809 -8.358 -1.116 0.31
15.903 -8.343 -1.122 0.34
15.958 -8.34 -1.125 0.22
16.029 -8.313 -1.129 0.36
16.118 -8.295 -1.134 0.43
16.191 -8.268 -1.138 0.23
16.217 -8.217 -1.138 0.29
16.276 -8.183 -1.141 0.43
16.371 -8.167 -1.147 0.32
16.39 -8.144 -1.147 0.21
16.44 -8.104 -1.149 0.45
16.473 -8.056 -1.15 0.19
16.53 -8.02 -1.152 0.35
16.575 -7.978 -1.154 0.2
16.642 -7.945 -1.157 0.38
16.683 -7.901 -1.159 0.21
16.719 -7.885 -1.161 0.25
16.743 -7.833 -1.161 0.2
16.817 -7.803 -1.165 0.18
16.867 -7.762 -1.167 0.4
16.918 -7.721 -1.169 0.23
17.006 -7.696 -1.174 0.29
17.117 -7.682 -1.181 0.0
17.155 -7.666 -1.183 0.0
17.117 -7.585 -1.178 0.05
17.159 -7.539 -1.18 0.14
17.197 -7.492 -1.181 0.18
17.186 -7.423 -1.178 0.34
17.196 -7.363 -1.177 0.2
17.201 -7.301 -1.176 0.34
17.199 -7.269 -1.174 0.16
17.226 -7.216 -1.175 0.37
17.243 -7.16 -1.174 0.19
17.251 -7.1 -1.173 0.32
17.288 -7.051 -1.174 0.22
17.3 -6.993 -1.174 0.33
17.289 -6.926 -1.171 0.18
17.324 -6.908 -1.173 0.26
17.318 -6.843 -1.171 0.19
17.333 -6.786 -1.17 0.21
17.351 -6.73 -1.17 0.26
17.37 -6.675 -1.17 0.2
17.4 -6.624 -1.171 0.22
17.436 -6.575 -1.172 0.18
17.461 -6.553 -1.173 0.34
17.504 -6.506 -1.175 0.22
17.526 -6.452 -1.175 0.31
17.567 -6.404 -1.176 0.18
17.627 -6.363 -1.179 0.37
17.671 -6.317 -1.181 0.2
17.696 -6.263 -1.182 0.34
17.733 -6.244 -1.184 0.0
17.811 -6.209 -1.188 0.0
17.834 -6.154 -1.189 0.05
17.802 -6.081 -1.185 0.12
17.84 -6.031 -1.186 0.32
17.823 -5.963 -1.183 0.16
17.84 -5.907 -1.183 0.37
17.854 -5.849 -1.183 0.18
17.86 -5.82 -1.183 0.36
17.857 -5.757 -1.181 0.23
17.898 -5.708 -1.183 0.22
17.9 -5.647 -1.182 0.21
17.867 -5.575 -1.178 0.24
17.911 -5.527 -1.18 0.33
17.934 -5.473 -1.18 0.25
17.931 -5.441 -1.179 0.37
17.984 -5.395 -1.182 0.28
17.99 -5.335 -1.181 0.32
18.035 -5.287 -1.183 0.39
18.044 -5.228 -1.183 0.28
18.049 -5.168 -1.182 0.32
18.08 -5.116 -1.183 0.34
18.082 -5.086 -1.183 0.29
18.118 -5.034 -1.184 0.34
18.151 -4.982 -1.186 0.29
18.201 -4.935 -1.188 0.3
18.193 -4.871 -1.186 0.27
18.22 -4.817 -1.187 0.22
18.25 -4.764 -1.188 0.36
18.316 -4.75 -1.193 0.24
18.363 -4.701 -1.195 0.26
18.382 -4.644 -1.196 0.21
18.46 -4.602 -1.201 0.0
18.494 -4.549 -1.202 0.0
18.518 -4.493 -1.203 0.0
18.579 -4.446 -1.206 0.08
18.556 -4.41 -1.204 0.14
18.588 -4.356 -1.205 0.36
18.597 -4.296 -1.205 0.19
18.599 -4.235 -1.204 0.16
18.63 -4.181 -1.206 0.46
18.641 -4.122 -1.205 0.25
18.652 -4.063 -1.205 0.29
18.672 -4.036 -1.206 0.28
18.702 -3.981 -1.208 0.29
18.703 -3.92 -1.207 0.26
18.74 -3.867 -1.209 0.26
18.766 -3.811 -1.21 0.3
18.778 -3.752 -1.21 0.29
18.799 -3.694 -1.21 0.28
18.819 -3.637 -1.211 0.33
18.848 -3.612 -1.213 0.27
18.869 -3.554 -1.213 0.26
18.876 -3.494 -1.213 0.33
18.852 -3.429 -1.21 0.29
18.937 -3.383 -1.216 0.34
18.965 -3.326 -1.217 0.26
19.011 -3.273 -1.22 0.23
19.034 -3.246 -1.221 0.38
19.06 -3.189 -1.223 0.2
19.05 -3.126 -1.221 0.34
19.172 -3.084 -1.229 0.0
19.318 -3.045 -1.24 0.1
19.122 -2.952 -1.224 0.23
19.08 -2.885 -1.22 0.19
19.104 -2.858 -1.222 0.36
19.131 -2.8 -1.223 0.21
19.151 -2.742 -1.224 0.26
19.15 -2.68 -1.223 0.34
19.196 -2.625 -1.226 0.2
19.245 -2.57 -1.229 0.29
19.265 -2.511 -1.23 0.32
19.313 -2.487 -1.233 0.25
19.315 -2.425 -1.233 0.22
19.282 -2.36 -1.23 0.34
19.292 -2.299 -1.23 0.35
19.259 -2.234 -1.227 0.24
19.278 -2.175 -1.228 0.24
19.145 -2.13 -1.218 0.26
19.118 -2.066 -1.215 0.36
19.154 -2.009 -1.218 0.52
19.299 -1.963 -1.228 0.2
19.368 -1.908 -1.233 0.34
19.374 -1.847 -1.233 0.29
19.4 -1.788 -1.234 0.37
19.485 -1.734 -1.24 0.28
19.525 -1.707 -1.243 0.27
19.527 -1.645 -1.243 0.2
19.828 -1.608 -1.264 0.44
20.438 -1.592 -1.309 0.24
20.842 -1.557 -1.339 0.27
20.825 -1.49 -1.337 0.27
20.836 -1.425 -1.338 0.18
20.758 -1.387 -1.332 0.45
20.777 -1.322 -1.333 0.25
20.791 -1.258 -1.333 0.23
20.772 -1.191 -1.332 0.18
20.822 -1.128 -1.335 0.43
20.815 -1.062 -1.334 0.25
20.831 -0.998 -1.335 0.2
20.856 -0.966 -1.337 0.15
20.871 -0.901 -1.338 0.16
20.886 -0.836 -1.339 0.21
20.906 -0.771 -1.34 0.17
20.914 -0.705 -1.341 0.13
20.924 -0.64 -1.341 0.16
20.928 -0.574 -1.341 0.12
20.937 -0.541 -1.342 0.17
20.947 -0.476 -1.343 0.3
20.93 -0.41 -1.341 0.21
20.909 -0.344 -1.34 0.18
20.912 -0.278 -1.34 0.34
20.895 -0.212 -1.338 0.18
20.908 -0.147 -1.339 0.37
20.922 -0.114 -1.34 0.2
20.936 -0.048 -1.341 0.38
19.544 0.004 -1.367 0.18
19.568 0.035 -1.369 0.36
19.559 0.096 -1.368 0.19
19.567 0.158 -1.369 0.36
19.57 0.219 -1.369 0.18
19.582 0.281 -1.37 0.35
19.581 0.342 -1.37 0.19
19.593 0.404 -1.371 0.23
19.609 0.435 -1.373 0.17
19.617 0.497 -1.373 0.13
19.649 0.559 -1.376 0.17
19.693 0.623 -1.38 0.29
19.709 0.685 -1.381 0.27
19.739 0.748 -1.384 0.26
19.762 0.811 -1.386 0.27
19.771 0.843 -1.387 0.26
19.774 0.905 -1.387 0.26
19.773 0.967 -1.387 0.26
19.754 1.029 -1.386 0.11
19.737 1.09 -1.385 0.16
19.745 1.153 -1.386 0.31
19.742 1.215 -1.386 0.2
19.72 1.244 -1.384 0.18
19.692 1.305 -1.382 0.18
19.716 1.368 -1.385 0.31
19.703 1.43 -1.384 0.37
19.713 1.493 -1.385 0.36
19.722 1.556 -1.386 0.19
19.737 1.619 -1.388 0.38
19.732 1.65 -1.388 0.22
19.725 1.712 -1.387 0.18
19.759 1.777 -1.391 0.39
19.757 1.84 -1.391 0.22
19.751 1.902 -1.391 0.17
19.783 1.968 -1.394 0.39
19.773 2.029 -1.394 0.19
19.799 2.064 -1.396 0.38
19.805 2.127 -1.397 0.21
19.81 2.19 -1.398 0.25
19.803 2.253 -1.398 0.21
19.8 2.315 -1.398 0.17
19.808 2.379 -1.4 0.39
19.804 2.442 -1.4 0.23
19.801 2.473 -1.4 0.18
19.81 2.538 -1.401 0.41
19.798 2.599 -1.401 0.24
19.796 2.662 -1.401 0.19
19.796 2.726 -1.402 0.41
19.795 2.789 -1.403 0.23
19.78 2.85 -1.402 0.19
19.801 2.885 -1.404 0.41
19.804 2.949 -1.405 0.24
19.793 3.011 -1.405 0.19
19.816 3.078 -1.408 0.41
19.799 3.139 -1.407 0.24
19.81 3.205 -1.409 0.18
19.818 3.27 -1.41 0.4
19.814 3.333 -1.411 0.2
19.826 3.367 -1.412 0.38
19.819 3.43 -1.413 0.19
19.838 3.498 -1.415 0.37
19.837 3.562 -1.416 0.18
19.841 3.627 -1.417 0.37
19.829 3.689 -1.417 0.19
19.828 3.753 -1.418 0.26
19.82 3.784 -1.418 0.21
19.823 3.849 -1.419 0.17
19.811 3.912 -1.419 0.39
19.801 3.974 -1.419 0.23
19.786 4.036 -1.419 0.21
19.752 4.094 -1.417 0.32
19.737 4.155 -1.417 0.37
19.77 4.195 -1.42 0.16
19.76 4.257 -1.421 0.48
19.753 4.321 -1.421 0.25
19.768 4.389 -1.424 0.16
19.725 4.445 -1.421 0.51
19.693 4.503 -1.42 0.29
19.71 4.572 -1.422 0.18
19.738 4.611 -1.425 0.39
19.735 4.676 -1.426 0.19
19.749 4.745 -1.429 0.36
19.769 4.815 -1.431 0.19
19.771 4.881 -1.433 0.23
19.802 4.955 -1.437 0.18
19.795 5.019 -1.437 0.13
19.814 5.057 -1.44 0.17
19.836 5.129 -1.443 0.29
19.849 5.199 -1.445 0.27
19.863 5.27 -1.448 0.27
19.885 5.342 -1.451 0.26
19.878 5.407 -1.452 0.11
19.88 5.475 -1.453 0.15
19.889 5.511 -1.455 0.11
19.898 5.581 -1.457 0.16
19.919 5.654 -1.46 0.29
19.922 5.723 -1.462 0.2
19.933 5.794 -1.464 0.16
19.932 5.861 -1.466 0.13
19.934 5.93 -1.468 0.17
19.975 5.976 -1.472 0.21
19.979 6.046 -1.474 0.17
19.975 6.113 -1.475 0.13
20.001 6.19 -1.479 0.18
20.012 6.262 -1.481 0.21
20.019 6.334 -1.484 0.17
20.026 6.405 -1.486 0.13
20.036 6.443 -1.488 0.17
20.048 6.516 -1.49 0.28
20.051 6.587 -1.492 0.27
20.056 6.658 -1.494 0.26
20.052 6.727 -1.496 0.26
20.061 6.8 -1.498 0.1
20.074 6.875 -1.501 0.15
20.065 6.942 -1.502 0.23
20.092 6.987 -1.506 0.25
20.083 7.055 -1.507 0.25
20.08 7.124 -1.508 0.11
20.083 7.197 -1.511 0.15
20.104 7.275 -1.514 0.28
20.09 7.342 -1.515 0.24
20.079 7.374 -1.515 0.27
20.11 7.457 -1.52 0.22
20.138 7.539 -1.524 0.16
20.148 7.615 -1.527 0.13
20.148 7.688 -1.529 0.17
20.165 7.767 -1.533 0.21
20.159 7.837 -1.534 0.18
20.19 7.885 -1.538 0.21
20.172 7.952 -1.539 0.19
20.18 8.028 -1.541 0.22
20.17 8.098 -1.543 0.19
20.17 8.171 -1.545 0.22
20.154 8.238 -1.546 0.2
20.163 8.316 -1.549 0.22
20.159 8.389 -1.551 0.18
20.177 8.433 -1.553 0.23
20.158 8.5 -1.554 0.18
20.169 8.579 -1.557 0.22
20.153 8.647 -1.558 0.18
20.168 8.729 -1.562 0.22
20.161 8.801 -1.564 0.2
20.166 8.879 -1.567 0.23
20.163 8.915 -1.568 0.19
20.18 8.999 -1.572 0.22
20.161 9.066 -1.572 0.19
20.178 9.15 -1.576 0.21
20.187 9.231 -1.58 0.18
20.185 9.306 -1.582 0.34
20.203 9.392 -1.586 0.19
20.211 9.434 -1.588 0.34
20.212 9.512 -1.591 0.17
20.229 9.598 -1.595 0.35
20.224 9.673 -1.598 0.19
20.228 9.753 -1.601 0.35
20.235 9.835 -1.604 0.19
20.252 9.922 -1.608 0.23
20.256 9.963 -1.61 0.2
20.273 10.051 -1.614 0.21
20.281 10.134 -1.618 0.19
20.279 10.213 -1.621 0.0
20.261 10.284 -1.622 0.0
20.335 10.402 -1.632 0.12
20.302 10.466 -1.632 0.21
20.304 10.507 -1.633 0.19
20.306 10.589 -1.636 0.21
20.311 10.673 -1.64 0.17
20.29 10.743 -1.641 0.13
20.283 10.821 -1.643 0.17
20.287 10.905 -1.647 0.12
20.297 10.993 -1.651 0.16
20.302 11.037 -1.653 0.12
20.304 11.121 -1.656 0.16
20.292 11.197 -1.658 0.12
20.279 11.273 -1.66 0.16
20.265 11.348 -1.662 0.3
20.255 11.427 -1.665 0.19
20.236 11.5 -1.666 0.0
20.241 11.545 -1.668 0.0
20.258 11.639 -1.673 0.07
20.249 11.718 -1.676 0.15
20.228 11.791 -1.677 0.17
20.201 11.861 -1.678 0.18
20.16 11.922 -1.678 0.18
20.126 11.987 -1.678 0.24
20.061 12.034 -1.676 0.36
20.04 12.065 -1.676 0.36
20.026 12.142 -1.678 0.23
20.052 12.244 -1.684 0.13
20.051 12.33 -1.688 0.17
20.038 12.409 -1.69 0.29
20.027 12.489 -1.693 0.2
20.005 12.563 -1.694 0.18
20.009 12.609 -1.696 0.3
20.0 12.691 -1.699 0.18
20.002 12.781 -1.703 0.16
19.992 12.863 -1.706 0.13
19.974 12.941 -1.708 0.17
19.957 13.019 -1.711 0.12
19.949 13.103 -1.714 0.17
19.961 13.155 -1.717 0.12
19.949 13.238 -1.72 0.16
19.954 13.331 -1.724 0.12
19.948 13.418 -1.728 0.17
19.939 13.503 -1.731 0.12
19.915 13.578 -1.733 0.16
19.918 13.672 -1.737 0.12
19.919 13.719 -1.74 0.16
19.925 13.816 -1.744 0.28
19.918 13.903 -1.748 0.18
19.905 13.988 -1.751 0.18
19.887 14.069 -1.753 0.17
19.877 14.155 -1.757 0.17
19.868 14.243 -1.76 0.18
19.888 14.304 -1.764 0.17
19.878 14.393 -1.768 0.17
19.875 14.485 -1.772 0.17
19.866 14.575 -1.776 0.17
19.853 14.661 -1.779 0.16
19.856 14.76 -1.784 0.17
19.841 14.846 -1.787 0.16
19.858 14.907 -1.791 0.16
19.849 14.998 -1.795 0.16
19.839 15.088 -1.799 0.16
19.831 15.181 -1.803 0.16
19.824 15.275 -1.807 0.16
19.811 15.364 -1.81 0.16
19.82 15.471 -1.816 0.17
19.823 15.523 -1.819 0.17
19.804 15.609 -1.822 0.18
19.806 15.712 -1.827 0.13
15.87 12.677 -1.429 0.15
19.763 15.881 -1.833 0.16
15.617 12.637 -1.411 0.21
15.516 12.636 -1.404 0.23
15.587 12.776 -1.416 0.28
14.929 12.277 -1.35 0.21
15.132 12.523 -1.375 0.27
14.936 12.44 -1.358 0.35
14.783 12.393 -1.347 0.32
14.74 12.435 -1.346 0.35
14.661 12.448 -1.342 0.39
14.517 12.405 -1.331 0.36
14.358 12.308 -1.316 0.28
14.178 12.231 -1.301 0.41
14.121 12.26 -1.299 0.37
14.013 12.244 -1.292 0.32
13.945 12.262 -1.289 0.42
13.827 12.236 -1.28 0.3
13.699 12.199 -1.271 0.39
13.577 12.129 -1.26 0.25
13.597 12.224 -1.266 0.49
13.471 12.188 -1.256 0.34
13.514 12.304 -1.265 0.43
13.452 12.325 -1.263 0.34
13.326 12.287 -1.253 0.34
13.229 12.275 -1.247 0.36
13.158 12.248 -1.241 0.39
13.126 12.295 -1.242 0.38
13.116 12.363 -1.245 0.43
12.945 12.28 -1.23 0.33
12.967 12.378 -1.237 0.35
12.904 12.395 -1.234 0.41
12.879 12.45 -1.236 0.4
12.735 12.349 -1.222 0.38
12.703 12.396 -1.223 0.34
12.656 12.428 -1.222 0.32
12.583 12.434 -1.218 0.46
12.453 12.384 -1.208 0.43
12.442 12.451 -1.211 0.34
12.447 12.534 -1.216 0.34
12.437 12.563 -1.217 0.41
12.445 12.65 -1.223 0.32
12.405 12.689 -1.223 0.44
12.369 12.733 -1.223 0.41
12.338 12.78 -1.224 0.32
12.236 12.755 -1.217 0.37
12.227 12.825 -1.221 0.42
12.185 12.822 -1.218 0.25
12.036 12.745 -1.205 0.41
11.977 12.763 -1.203 0.31
12.178 13.058 -1.231 0.43
12.161 13.123 -1.234 0.43
12.206 13.254 -1.245 0.34
11.349 12.404 -1.148 0.21
11.358 12.493 -1.154 0.47
11.58 12.776 -1.182 0.29
11.363 12.617 -1.161 0.29
11.176 12.488 -1.143 0.34
11.129 12.514 -1.142 0.44
11.059 12.515 -1.139 0.23
10.815 12.318 -1.114 0.31
10.913 12.508 -1.131 0.39
10.779 12.394 -1.117 0.42
10.585 12.249 -1.098 0.2
10.679 12.436 -1.114 0.53
10.483 12.286 -1.095 0.33
10.553 12.446 -1.108 0.32
10.551 12.524 -1.113 0.38
10.519 12.566 -1.114 0.41
10.494 12.616 -1.115 0.37
10.426 12.574 -1.109 0.43
10.304 12.507 -1.099 0.34
10.214 12.478 -1.093 0.34
10.123 12.446 -1.086 0.35
10.089 12.484 -1.087 0.5
9.933 12.371 -1.072 0.21
9.669 12.082 -1.04 0.43
9.674 12.167 -1.046 0.29
9.84 12.455 -1.072 0.46
9.799 12.483 -1.072 0.28
9.709 12.449 -1.066 0.3
9.768 12.606 -1.078 0.41
9.782 12.706 -1.085 0.37
9.733 12.683 -1.082 0.31
9.594 12.584 -1.068 0.4
9.508 12.554 -1.062 0.37
9.524 12.657 -1.07 0.38
9.445 12.634 -1.064 0.18
9.368 12.614 -1.059 0.66
9.404 12.746 -1.07 0.26
9.333 12.692 -1.063 0.46
9.27 12.689 -1.06 0.52
9.266 12.768 -1.065 0.3
9.231 12.803 -1.065 0.3
9.181 12.819 -1.064 0.29
9.176 12.897 -1.069 0.33
9.151 12.948 -1.071 0.39
9.101 12.964 -1.07 0.48
9.051 12.936 -1.066 0.41
9.031 12.994 -1.068 0.36
8.979 13.005 -1.067 0.42
8.929 13.02 -1.066 0.32
8.868 13.019 -1.063 0.57
11.054 16.327 -1.381 0.27
11.132 16.554 -1.399 0.33
11.016 16.437 -1.386 0.3
10.88 16.345 -1.374 0.37
10.925 16.524 -1.388 0.42
10.896 16.593 -1.392 0.24
10.658 16.344 -1.364 0.41
10.634 16.419 -1.368 0.32
10.787 16.771 -1.399 0.52
8.116 12.717 -1.009 0.18
8.103 12.741 -1.01 0.21
10.529 16.656 -1.38 0.49
10.365 16.512 -1.363 0.36
8.026 12.887 -1.017 0.22
10.241 16.545 -1.36 0.29
10.193 16.582 -1.361 0.46
10.034 16.44 -1.344 0.34
9.914 16.301 -1.33 0.36
9.997 16.554 -1.35 0.45
10.015 16.701 -1.361 0.29
9.715 16.319 -1.323 0.54
9.756 16.505 -1.337 0.35
7.926 13.515 -1.056 0.16
10.069 17.279 -1.403 0.21
9.47 16.313 -1.312 0.53
9.432 16.366 -1.314 0.21
10.079 17.611 -1.427 0.35
9.268 16.318 -1.305 0.25
9.2 16.317 -1.302 0.19
9.134 16.32 -1.299 0.56
9.09 16.361 -1.301 0.32
8.983 16.29 -1.291 0.35
8.952 16.294 -1.29 0.26
9.136 16.752 -1.33 0.42
9.088 16.789 -1.331 0.43
8.744 16.277 -1.281 0.36
8.708 16.333 -1.284 0.46
8.74 16.517 -1.298 0.26
6.754 12.874 -0.965 0.23
8.509 16.266 -1.272 0.45
8.463 16.304 -1.273 0.38
8.413 16.332 -1.273 0.34
8.312 16.263 -1.264 0.19
8.262 16.29 -1.264 0.33
8.208 16.311 -1.264 0.36
8.148 16.319 -1.262 0.25
9.382 18.856 -1.489 0.29
8.027 16.268 -1.254 0.45
9.43 19.252 -1.519 0.35
7.915 16.298 -1.253 0.37
7.842 16.278 -1.249 0.42
9.269 19.385 -1.523 0.19
9.227 19.454 -1.526 0.38
7.697 16.303 -1.245 0.37
9.119 19.461 -1.523 0.29
7.569 16.297 -1.241 0.54
8.984 19.493 -1.521 0.26
7.446 16.299 -1.237 0.32
7.394 16.32 -1.236 0.3
7.32 16.294 -1.232 0.25
8.626 19.353 -1.499 0.38
8.584 19.339 -1.497 0.55
7.173 16.309 -1.228 0.41
7.104 16.29 -1.225 0.3
8.384 19.379 -1.493 0.3
8.309 19.372 -1.49 0.65
6.933 16.318 -1.221 0.38
6.867 16.304 -1.218 0.26
8.146 19.413 -1.488 0.38
8.069 19.4 -1.485 0.68
6.724 16.321 -1.215 0.34
6.653 16.294 -1.211 0.25
7.877 19.453 -1.483 0.39
7.806 19.453 -1.481 0.67
7.735 19.454 -1.479 0.29
6.444 16.292 -1.205 0.23
7.642 19.486 -1.478 0.38
7.568 19.479 -1.476 0.61
7.504 19.493 -1.475 0.3
6.217 16.314 -1.2 0.39
6.612 17.512 -1.301 0.32
6.537 17.478 -1.296 0.27
6.512 17.496 -1.297 0.43
6.013 16.316 -1.194 0.49
6.333 17.519 -1.293 0.61
6.268 17.511 -1.291 0.31
5.783 16.323 -1.188 0.4
5.735 16.35 -1.189 0.36
6.128 17.642 -1.297 0.34
6.087 17.614 -1.294 0.32
5.582 16.323 -1.183 0.4
5.532 16.346 -1.183 0.3
5.919 17.665 -1.294 0.51
5.828 17.576 -1.285 0.21
5.356 16.329 -1.178 0.46
5.308 16.358 -1.179 0.31
5.28 16.358 -1.178 0.15
5.654 17.7 -1.29 0.47
5.156 16.327 -1.173 0.39
5.108 16.352 -1.173 0.2
5.053 16.357 -1.172 0.43
5.409 17.699 -1.284 0.31
4.933 16.331 -1.168 0.4
5.333 17.749 -1.286 0.29
4.855 16.352 -1.167 0.45
4.806 16.373 -1.168 0.31
4.736 16.327 -1.163 0.32
4.691 16.361 -1.164 0.33
4.642 16.387 -1.165 0.29
4.583 16.373 -1.163 0.39
4.55 16.355 -1.161 0.33
4.495 16.356 -1.16 0.31
4.45 16.395 -1.162 0.41
4.39 16.374 -1.159 0.29
4.331 16.361 -1.157 0.3
4.271 16.343 -1.154 0.34
4.225 16.378 -1.156 0.39
4.162 16.345 -1.152 0.32
4.138 16.359 -1.153 0.42
4.074 16.32 -1.148 0.32
4.029 16.358 -1.15 0.36
3.971 16.343 -1.148 0.25
3.922 16.365 -1.149 0.54
3.877 16.406 -1.151 0.3
3.823 16.407 -1.15 0.35
3.795 16.403 -1.15 0.41
3.741 16.403 -1.149 0.34
3.686 16.401 -1.148 0.36
3.634 16.411 -1.147 0.33
3.58 16.413 -1.147 0.42
3.527 16.414 -1.146 0.4
3.473 16.413 -1.145 0.38
3.443 16.399 -1.143 0.36
3.392 16.416 -1.144 0.37
3.337 16.407 -1.142 0.36
3.283 16.407 -1.141 0.36
3.232 16.422 -1.142 0.32
3.179 16.422 -1.141 0.42
3.123 16.41 -1.139 0.39
3.071 16.414 -1.139 0.33
3.043 16.411 -1.138 0.51
2.99 16.409 -1.137 0.33
2.937 16.412 -1.137 0.36
2.88 16.39 -1.134 0.21
2.823 16.368 -1.131 0.59
2.769 16.365 -1.13 0.19
3.337 20.066 -1.431 0.54
3.314 20.122 -1.435 0.58
3.25 20.13 -1.435 0.68
3.186 20.135 -1.434 0.38
2.532 16.363 -1.127 0.25
3.054 20.119 -1.432 0.38
2.988 20.112 -1.43 0.7
2.926 20.128 -1.431 0.29
2.322 16.364 -1.125 0.43
2.832 20.149 -1.431 0.29
2.77 20.164 -1.432 0.45
2.703 20.149 -1.43 0.7
2.134 16.333 -1.12 0.38
2.086 16.365 -1.122 0.45
2.038 16.399 -1.125 0.15
2.45 20.181 -1.43 0.7
1.952 16.337 -1.119 0.43
2.355 20.196 -1.43 0.23
1.852 16.367 -1.12 0.3
2.231 20.233 -1.432 0.36
2.165 20.224 -1.431 0.69
1.695 16.358 -1.118 0.19
2.047 20.322 -1.438 0.68
2.01 20.274 -1.433 0.18
1.945 20.27 -1.433 0.29
1.882 20.276 -1.433 0.55
1.82 20.304 -1.434 0.28
1.754 20.287 -1.433 0.68
1.693 20.319 -1.435 0.24
1.628 20.32 -1.434 0.51
1.597 20.332 -1.435 0.36
1.533 20.335 -1.435 0.41
1.469 20.338 -1.435 0.54
1.406 20.352 -1.436 0.39
1.343 20.365 -1.436 0.43
1.279 20.373 -1.437 0.42
1.215 20.387 -1.437 0.43
1.15 20.373 -1.436 0.69
1.118 20.376 -1.436 0.41
0.947 18.355 -1.273 0.33
0.887 18.304 -1.269 0.33
0.83 18.329 -1.271 0.43
0.773 18.347 -1.272 0.23
0.713 18.284 -1.267 0.61
0.662 18.459 -1.281 0.28
0.629 18.349 -1.272 0.32
0.571 18.351 -1.272 0.28
0.512 18.305 -1.268 0.48
0.456 18.354 -1.272 0.21
0.398 18.343 -1.271 0.55
0.343 18.46 -1.28 0.21
0.319 20.508 -1.445 0.37
0.287 20.517 -1.445 0.41
0.223 20.513 -1.445 0.52
0.159 20.536 -1.447 0.35
0.094 20.54 -1.447 0.41
0.029 20.525 -1.446 0.49
-0.035 20.552 -1.448 0.35
-0.1 20.544 -1.447 0.64
-0.164 20.566 -1.449 0.34
-0.197 20.583 -1.45 0.46
-0.261 20.593 -1.451 0.41
-0.326 20.598 -1.452 0.44
-0.391 20.593 -1.451 0.48
-0.456 20.611 -1.453 0.38
-0.521 20.6 -1.452 0.7
-0.586 20.618 -1.454 0.18
-0.618 20.617 -1.454 0.69
-0.546 16.329 -1.11 0.17
-0.748 20.635 -1.456 0.67
-0.814 20.662 -1.458 0.21
-0.879 20.651 -1.457 0.65
-0.607 13.072 -0.849 0.32
-0.644 12.987 -0.842 0.28
-0.662 12.934 -0.838 0.38
-0.702 12.918 -0.837 0.34
-0.741 12.892 -0.835 0.39
-0.781 12.879 -0.834 0.44
-0.823 12.893 -0.835 0.46
-0.865 12.918 -0.838 0.36
-0.906 12.923 -0.838 0.46
-0.949 12.952 -0.841 0.45
-0.975 13.026 -0.847 0.23
-1.603 20.76 -1.469 0.64
-1.319 16.339 -1.114 0.23
-1.737 20.789 -1.473 0.39
-1.802 20.778 -1.472 0.65
-1.472 16.314 -1.113 0.2
-1.936 20.8 -1.475 0.67
-1.553 16.354 -1.117 0.15
-2.045 20.905 -1.484 0.68
-2.17 20.831 -1.479 0.64
-2.238 20.849 -1.481 0.18
-2.305 20.862 -1.483 0.45
-2.372 20.865 -1.484 0.41
-2.408 20.891 -1.486 0.4
-2.485 20.974 -1.493 0.69
-1.995 16.354 -1.121 0.15
-2.612 20.924 -1.491 0.41
-2.678 20.916 -1.491 0.45
-2.741 20.892 -1.489 0.64
-2.769 20.594 -1.466 0.27
-2.795 20.545 -1.462 0.25
-2.861 20.544 -1.463 0.36
-2.913 20.446 -1.456 0.33
-2.938 20.166 -1.434 0.47
-2.994 20.11 -1.43 0.34
-2.961 19.461 -1.378 0.21
-2.995 19.279 -1.364 0.37
-3.038 19.157 -1.355 0.29
-3.068 19.148 -1.355 0.41
-3.116 19.066 -1.349 0.3
-3.123 18.737 -1.323 0.33
-3.156 18.574 -1.31 0.32
-3.185 18.389 -1.296 0.3
-2.944 16.676 -1.158 0.17
-3.014 16.763 -1.165 0.55
-3.03 16.703 -1.161 0.29
-3.077 16.66 -1.158 0.5
-3.137 16.696 -1.162 0.4
-3.198 16.729 -1.165 0.29
-3.252 16.727 -1.166 0.28
-3.306 16.724 -1.167 0.29
-3.356 16.698 -1.165 0.3
-3.356 16.566 -1.155 0.28
-3.388 16.457 -1.147 0.49
-3.44 16.449 -1.147 0.27
-3.533 16.633 -1.163 0.39
-3.553 16.47 -1.151 0.39
-3.653 16.68 -1.169 0.16
-3.701 16.647 -1.167 0.51
-3.711 16.451 -1.152 0.27
-3.76 16.544 -1.16 0.44
-3.788 16.427 -1.151 0.27
-3.843 16.431 -1.153 0.3
-3.885 16.378 -1.149 0.61
-3.953 16.436 -1.155 0.27
-4.0 16.406 -1.154 0.39
-4.155 16.813 -1.188 0.16
-4.203 16.896 -1.196 0.43
-4.134 16.393 -1.155 0.49
-4.319 16.907 -1.199 0.31
-4.268 16.488 -1.165 0.2
-4.368 16.658 -1.181 0.52
-4.389 16.529 -1.171 0.36
-4.446 16.532 -1.172 0.26
-4.468 16.408 -1.163 0.43
-4.612 16.834 -1.199 0.29
-4.607 16.612 -1.182 0.33
-4.603 16.396 -1.165 0.41
-4.671 16.437 -1.17 0.28
-4.765 16.574 -1.182 0.5
-4.813 16.543 -1.181 0.34
-4.836 16.43 -1.173 0.16
-4.925 16.637 -1.191 0.52
-4.927 16.453 -1.177 0.45
-4.929 16.27 -1.163 0.3
-4.929 16.088 -1.149 0.24
-4.968 16.035 -1.146 0.39
-5.021 16.027 -1.146 0.45
-5.079 16.035 -1.148 0.23
-5.103 16.026 -1.148 0.61
-5.161 16.032 -1.15 0.26
-5.216 16.031 -1.151 0.33
-5.276 16.045 -1.154 0.36
-5.352 16.106 -1.161 0.65
-5.373 15.998 -1.153 0.15
-5.44 16.032 -1.157 0.34
-5.492 16.021 -1.158 0.59
-5.525 16.035 -1.16 0.18
-5.58 16.031 -1.161 0.49
-5.642 16.047 -1.164 0.33
-5.689 16.018 -1.163 0.62
-6.034 16.826 -1.233 0.35
-6.039 16.674 -1.222 0.29
-6.056 16.557 -1.213 0.21
-6.14 16.707 -1.227 0.5
-6.205 16.723 -1.23 0.34
-6.225 16.616 -1.222 0.37
-6.23 16.471 -1.212 0.37
-6.386 16.723 -1.235 0.44
-6.413 16.638 -1.229 0.34
-6.5 16.707 -1.237 0.29
-6.434 16.461 -1.217 0.19
-6.617 16.775 -1.246 0.55
-6.618 16.622 -1.234 0.29
-6.704 16.686 -1.242 0.55
-6.666 16.442 -1.222 0.26
-6.855 16.758 -1.252 0.27
-6.962 16.868 -1.263 0.47
-7.005 16.897 -1.266 0.32
-6.911 16.524 -1.236 0.19
-7.2 17.064 -1.285 0.55
-7.245 17.023 -1.283 0.25
-7.296 16.993 -1.283 0.36
-7.208 16.642 -1.254 0.22
-7.35 16.826 -1.272 0.39
-7.362 16.71 -1.264 0.38
-7.349 16.609 -1.256 0.42
-7.564 16.952 -1.288 0.31
-7.416 16.481 -1.249 0.23
-7.604 16.759 -1.275 0.38
-7.641 16.7 -1.272 0.46
-7.602 16.477 -1.255 0.36
-7.655 16.457 -1.255 0.29
-7.67 16.421 -1.253 0.29
-7.89 16.756 -1.285 0.23
-7.935 16.713 -1.283 0.61
-7.85 16.4 -1.258 0.26
-7.935 16.446 -1.264 0.52
-8.221 16.905 -1.307 0.25
-8.068 16.456 -1.269 0.33
-8.141 16.54 -1.278 0.3
-8.317 16.765 -1.3 0.16
-8.415 16.83 -1.309 0.51
-8.28 16.429 -1.275 0.32
-8.341 16.423 -1.277 0.25
-8.579 16.762 -1.31 0.55
-8.71 16.888 -1.323 0.16
-8.511 16.373 -1.279 0.36
-8.572 16.427 -1.285 0.32
-8.783 16.706 -1.313 0.35
-8.809 16.627 -1.309 0.48
-8.753 16.397 -1.29 0.33
-8.908 16.562 -1.308 0.37
-9.028 16.659 -1.319 0.4
-8.958 16.406 -1.299 0.38
-8.992 16.408 -1.3 0.27
-9.268 16.787 -1.337 0.48
-9.165 16.477 -1.312 0.31
-9.206 16.429 -1.31 0.26
-9.368 16.596 -1.328 0.41
-9.515 16.735 -1.343 0.45
-9.382 16.379 -1.313 0.32
-9.458 16.393 -1.317 0.27
-9.692 16.739 -1.351 0.45
-9.968 17.093 -1.386 0.37
-9.614 16.364 -1.322 0.34
-9.806 16.573 -1.344 0.21
-9.934 16.671 -1.356 0.52
-9.831 16.379 -1.332 0.4
-9.9 16.377 -1.334 0.27
-10.07 16.601 -1.357 0.4
-10.144 16.605 -1.36 0.4
-10.071 16.369 -1.341 0.38
-10.167 16.408 -1.348 0.26
-10.559 16.925 -1.399 0.46
-10.552 16.795 -1.39 0.3
-10.36 16.374 -1.353 0.3
-10.613 16.717 -1.388 0.36
-10.735 16.792 -1.398 0.38
-10.539 16.371 -1.361 0.48
-10.834 16.715 -1.397 0.27
-11.015 16.878 -1.416 0.37
-11.022 16.773 -1.409 0.27
-10.812 16.34 -1.371 0.34
-11.089 16.647 -1.404 0.35
-11.218 16.784 -1.419 0.43
-11.011 16.361 -1.381 0.32
-11.253 16.609 -1.409 0.3
-11.363 16.657 -1.417 0.49
-11.398 16.597 -1.414 0.33
-11.31 16.358 -1.394 0.22
-11.56 16.609 -1.422 0.48
-11.817 16.922 -1.455 0.34
-11.505 16.365 -1.404 0.4
-11.793 16.664 -1.437 0.27
-11.86 16.646 -1.439 0.41
-11.903 16.596 -1.437 0.3
-11.807 16.353 -1.417 0.26
-12.021 16.54 -1.439 0.48
-12.026 16.492 -1.437 0.28
-12.017 16.372 -1.428 0.36
-12.149 16.444 -1.439 0.32
-12.228 16.442 -1.443 0.3
-12.249 16.362 -1.439 0.38
-12.342 16.379 -1.444 0.3
-12.435 16.396 -1.45 0.3
-12.465 16.381 -1.45 0.45
-12.545 16.38 -1.454 0.3
-12.639 16.396 -1.46 0.3
-12.701 16.37 -1.461 0.39
-12.791 16.379 -1.466 0.29
-12.886 16.395 -1.472 0.42
-12.943 16.361 -1.473 0.22
-10.506 13.23 -1.154 0.25
-10.515 13.157 -1.15 0.37
-10.53 13.091 -1.147 0.45
-10.574 13.061 -1.147 0.43
-10.616 13.029 -1.147 0.23
-10.643 12.979 -1.146 0.52
-10.721 12.99 -1.15 0.34
-10.809 13.013 -1.156 0.29
-10.846 13.016 -1.158 0.61
-13.765 16.425 -1.518 0.31
-13.819 16.384 -1.519 0.29
-13.884 16.358 -1.52 0.39
-14.018 16.411 -1.531 0.35
-14.253 16.58 -1.553 0.25
-14.149 16.354 -1.534 0.4
-14.253 16.371 -1.541 0.29
-14.901 17.063 -1.616 0.32
-14.365 16.343 -1.545 0.25
-14.508 16.402 -1.556 0.47
-14.852 16.686 -1.591 0.23
-14.655 16.36 -1.561 0.24
-14.846 16.47 -1.578 0.45
-14.838 16.356 -1.571 0.25
-14.895 16.368 -1.575 0.3
-14.972 16.35 -1.578 0.45
-15.024 16.302 -1.578 0.39
-15.133 16.318 -1.584 0.39
-15.206 16.294 -1.587 0.36
-15.307 16.3 -1.593 0.34
-15.36 16.253 -1.593 0.43
-15.436 16.282 -1.599 0.43
-15.493 16.24 -1.6 0.33
-15.632 16.283 -1.61 0.34
-15.741 16.294 -1.617 0.47
-15.862 16.316 -1.625 0.3
-15.921 16.275 -1.626 0.51
-16.193 16.449 -1.651 0.0
-9.801 9.91 -0.917 0.0
-9.771 9.818 -0.91 0.0
-9.754 9.74 -0.905 0.0
-9.759 9.684 -0.902 0.0
-9.746 9.609 -0.897 0.0
-9.755 9.558 -0.894 0.0
-9.745 9.488 -0.89 0.0
-9.724 9.409 -0.884 0.0
-9.699 9.355 -0.88 0.0
-9.711 9.308 -0.878 0.0
-9.719 9.256 -0.876 0.0
-9.728 9.207 -0.873 0.0
-9.73 9.151 -0.87 0.0
-9.743 9.106 -0.869 0.0
-10.674 9.761 -0.959 0.0
-10.69 9.714 -0.958 0.0
-9.866 8.85 -0.862 0.03
-9.897 8.822 -0.862 0.17
-9.921 8.815 -0.864 0.22
-9.961 8.795 -0.865 0.19
-10.011 8.783 -0.867 0.21
-10.062 8.773 -0.87 0.19
-10.118 8.766 -0.873 0.0
-10.173 8.758 -0.876 0.0
-10.232 8.753 -0.879 0.0
-10.803 8.81 -0.917 0.0
-11.486 8.725 -0.956 0.14
-11.563 8.726 -0.961 0.3
-27.444 20.622 -2.553 0.18
-27.419 20.535 -2.548 0.3
-27.423 20.404 -2.542 0.29
-27.426 20.273 -2.535 0.29
-27.439 20.15 -2.53 0.32
-27.437 20.015 -2.524 0.31
-27.436 19.883 -2.518 0.31
-27.444 19.757 -2.512 0.29
-27.412 19.669 -2.506 0.29
-27.413 19.54 -2.5 0.3
-27.419 19.414 -2.495 0.29
-27.426 19.29 -2.489 0.32
-27.418 19.156 -2.483 0.29
-27.418 19.028 -2.477 0.23
-27.661 19.068 -2.495 0.0
-25.919 17.745 -2.319 0.11
-27.385 18.688 -2.459 0.11
-27.416 18.583 -2.456 0.3
-27.419 18.46 -2.451 0.3
-27.428 18.34 -2.446 0.3
-27.425 18.214 -2.441 0.29
-27.439 18.099 -2.436 0.32
-27.384 17.94 -2.426 0.32
-27.094 17.688 -2.395 0.26
-27.194 17.632 -2.399 0.26
-26.973 17.369 -2.373 0.27
-27.001 17.267 -2.37 0.28
-26.974 17.13 -2.363 0.3
-27.041 17.054 -2.364 0.23
-26.872 16.829 -2.343 0.17
-26.989 16.844 -2.352 0.2
-27.09 16.789 -2.356 0.32
-28.848 17.755 -2.517 0.17
-29.034 17.744 -2.529 0.31
-29.23 17.738 -2.542 0.1
-27.246 16.415 -2.351 0.15
-27.104 16.213 -2.333 0.23
-27.242 16.238 -2.344 0.32
-27.29 16.151 -2.343 0.15
-27.339 16.064 -2.343 0.19
-27.148 15.837 -2.321 0.17
-30.61 17.732 -2.637 0.12
-27.076 15.567 -2.305 0.14
-27.093 15.465 -2.302 0.24
-27.078 15.399 -2.298 0.31
-27.128 15.315 -2.299 0.24
-27.146 15.213 -2.296 0.16
-27.145 15.101 -2.291 0.51
-28.291 15.623 -2.392 0.22
-28.431 15.584 -2.4 0.29
-27.169 14.78 -2.281 0.28
-27.247 14.767 -2.286 0.16
-27.154 14.607 -2.273 0.37
-26.841 14.329 -2.24 0.28
-26.995 14.303 -2.25 0.31
-27.187 14.295 -2.263 0.35
-27.251 14.22 -2.265 0.2
-27.283 14.128 -2.264 0.22
-27.263 14.009 -2.258 0.34
-27.344 13.996 -2.264 0.18
-27.908 14.175 -2.311 0.21
-27.883 14.053 -2.304 0.21
-28.332 14.168 -2.341 0.19
-28.328 14.055 -2.336 0.14
-28.295 13.928 -2.329 0.2
-28.299 13.819 -2.326 0.31
-28.837 14.026 -2.372 0.2
-28.937 13.963 -2.377 0.23
-29.239 13.996 -2.4 0.26
-29.51 14.012 -2.42 0.41
-29.83 14.049 -2.445 0.25
-29.903 13.969 -2.447 0.26
-30.062 13.929 -2.457 0.21
-29.937 13.757 -2.442 0.0
-30.046 13.75 -2.45 0.0
-32.531 14.766 -2.666 0.0
-32.69 14.714 -2.675 0.0
-32.833 14.655 -2.684 0.07
-33.004 14.607 -2.695 0.14
-33.214 14.576 -2.709 0.1
-33.421 14.542 -2.723 0.0
-33.574 14.545 -2.735 0.0
-33.645 14.451 -2.737 0.0
-33.706 14.352 -2.738 0.0
-33.773 14.255 -2.74 0.0
-33.818 14.149 -2.74 0.0
-33.844 14.035 -2.739 0.0
-33.951 13.955 -2.744 0.0
-33.993 13.91 -2.746 0.0
-34.008 13.792 -2.744 0.0
-34.078 13.695 -2.746 0.0
-34.17 13.608 -2.75 0.0
-34.246 13.514 -2.753 0.0
-34.307 13.413 -2.755 0.0
-34.392 13.322 -2.758 0.0
-34.495 13.3 -2.765 0.0
-34.575 13.206 -2.769 0.0
-34.645 13.108 -2.771 0.0
-34.755 13.025 -2.777 0.0
-34.861 12.94 -2.783 0.0
-34.927 12.84 -2.785 0.0
-35.013 12.747 -2.789 0.0
-35.089 12.712 -2.793 0.0
-35.164 12.615 -2.797 0.0
-35.222 12.511 -2.798 0.0
-35.295 12.412 -2.801 0.0
-35.361 12.31 -2.803 0.0
-35.416 12.205 -2.805 0.0
-35.509 12.113 -2.809 0.0
-28.847 9.784 -2.243 0.05
-28.807 9.67 -2.237 0.13
-28.784 9.562 -2.233 0.31
-28.763 9.454 -2.228 0.21
-28.736 9.345 -2.223 0.18
-28.75 9.25 -2.222 0.32
-28.72 9.141 -2.217 0.14
-28.737 9.047 -2.216 0.3
-28.719 8.992 -2.214 0.3
-28.724 8.895 -2.212 0.31
-28.737 8.8 -2.21 0.32
-28.741 8.702 -2.208 0.29
-28.755 8.608 -2.207 0.32
-28.782 8.518 -2.207 0.35
-28.774 8.417 -2.204 0.18
-28.937 8.415 -2.217 0.0
-29.053 8.35 -2.224 0.0
-29.166 8.284 -2.232 0.09
-29.46 8.268 -2.254 0.0
-29.747 8.248 -2.276 0.0
-29.994 8.215 -2.294 0.0
-30.318 8.202 -2.319 0.0
-30.616 8.231 -2.343 0.0
-30.953 8.218 -2.369 0.0
-31.307 8.207 -2.396 0.0
-31.689 8.201 -2.425 0.0
-32.065 8.191 -2.454 0.0
-32.285 8.14 -2.47 0.0
-38.053 9.471 -2.945 0.0
-37.862 9.298 -2.927 0.0
-37.577 9.165 -2.902 0.0
-34.406 8.275 -2.638 0.0
-34.465 8.174 -2.641 0.0
-37.271 8.719 -2.87 0.0
-37.242 8.588 -2.866 0.0
-37.15 8.444 -2.856 0.0
-37.062 8.302 -2.846 0.0
-36.931 8.211 -2.835 0.0
-36.85 8.072 -2.826 0.0
-36.77 7.933 -2.817 0.0
-36.687 7.795 -2.808 0.0
-36.631 7.663 -2.802 0.0
-36.585 7.533 -2.796 0.0
-36.505 7.397 -2.788 0.0
-36.399 7.316 -2.778 0.0
-36.273 7.172 -2.766 0.0
-36.163 7.032 -2.755 0.0
-36.183 6.918 -2.755 0.0
-36.053 6.776 -2.742 0.0
-35.98 6.645 -2.735 0.0
-35.915 6.516 -2.728 0.0
-35.852 6.447 -2.722 0.0
-35.81 6.323 -2.717 0.0
-35.753 6.197 -2.71 0.0
-35.662 6.066 -2.702 0.0
-35.549 5.932 -2.691 0.0
-35.434 5.798 -2.68 0.0
-35.346 5.67 -2.671 0.0
-35.278 5.602 -2.665 0.0
-35.185 5.474 -2.656 0.0
-35.109 5.349 -2.649 0.0
-35.035 5.225 -2.641 0.0
-34.986 5.106 -2.636 0.0
-34.929 4.985 -2.63 0.0
-34.874 4.865 -2.624 0.0
-34.814 4.746 -2.618 0.0
-34.736 4.679 -2.611 0.0
-34.632 4.555 -2.602 0.0
-34.537 4.432 -2.593 0.0
-34.474 4.313 -2.587 0.0
-34.347 4.188 -2.575 0.09
-34.166 4.057 -2.56 0.13
-34.22 3.954 -2.563 0.14
-34.244 3.903 -2.564 0.0
-34.302 3.8 -2.568 0.0
-34.341 3.695 -2.57 0.0
-34.384 3.591 -2.573 0.0
-34.429 3.486 -2.576 0.0
-34.466 3.381 -2.578 0.0
-34.51 3.275 -2.58 0.0
-34.53 3.168 -2.581 0.0
-34.523 3.113 -2.58 0.0
-34.509 3.002 -2.578 0.0
-34.508 2.893 -2.578 0.0
-34.497 2.783 -2.576 0.0
-34.516 2.675 -2.577 0.0
-34.522 2.567 -2.577 0.0
-34.54 2.459 -2.577 0.0
-34.548 2.405 -2.578 0.0
-34.549 2.296 -2.577 0.0
-34.572 2.188 -2.578 0.0
-34.595 2.081 -2.58 0.0
-34.607 1.972 -2.58 0.0
-34.635 1.865 -2.582 0.0
-34.645 1.756 -2.582 0.0
-34.673 1.703 -2.584 0.0
-34.682 1.594 -2.585 0.0
-34.695 1.486 -2.585 0.0
-34.694 1.376 -2.585 0.0
-34.686 1.267 -2.584 0.0
-34.712 1.159 -2.586 0.0
-34.693 1.049 -2.584 0.06
-34.713 0.995 -2.585 0.15
-34.535 0.936 -2.571 0.0
-34.583 0.828 -2.575 0.0
-34.62 0.72 -2.577 0.0
-34.642 0.612 -2.579 0.0
-34.671 0.503 -2.581 0.0
-34.666 0.449 -2.581 0.0
-34.634 0.34 -2.578 0.0
-34.589 0.23 -2.574 0.0
-34.507 0.121 -2.568 0.0
-34.444 0.013 -2.563 0.0
-34.454 -0.095 -2.563 0.0
-34.493 -0.204 -2.567 0.0
-34.512 -0.312 -2.568 0.0
-34.516 -0.366 -2.569 0.0
-34.514 -0.475 -2.569 0.0
-34.525 -0.584 -2.57 0.0
-34.529 -0.692 -2.57 0.0
-34.546 -0.801 -2.572 0.0
-34.546 -0.91 -2.572 0.0
-34.556 -1.019 -2.573 0.0
-34.553 -1.073 -2.573 0.0
-34.521 -1.18 -2.57 0.0
-34.513 -1.289 -2.57 0.0
-34.499 -1.397 -2.569 0.0
-34.515 -1.506 -2.571 0.0
-34.536 -1.616 -2.573 0.0
-34.588 -1.727 -2.578 0.0
-34.619 -1.783 -2.58 0.0
-34.906 -1.907 -2.604 0.0
-34.858 -2.015 -2.601 0.0
-33.288 -2.03 -2.475 0.0
-32.342 -2.075 -2.399 0.07
-32.222 -2.169 -2.39 0.15
-32.34 -2.279 -2.4 0.2
-32.611 -2.349 -2.422 0.27
-32.574 -2.45 -2.42 0.27
-32.814 -2.571 -2.44 0.19
-32.909 -2.683 -2.448 0.12
-33.046 -2.798 -2.46 0.0
-33.345 -2.929 -2.485 0.0
-33.488 -3.047 -2.497 0.0
-33.285 -3.082 -2.481 0.0
-33.162 -3.176 -2.472 0.0
-32.521 -3.218 -2.421 0.0
-31.396 -3.207 -2.331 0.0
-33.633 -3.647 -2.513 0.07
-33.675 -3.759 -2.518 0.09
-33.625 -3.86 -2.515 0.0
-33.589 -3.91 -2.512 0.13
-33.375 -3.991 -2.496 0.14
-33.334 -4.093 -2.494 0.32
-33.185 -4.18 -2.483 0.0
-33.474 -4.323 -2.507 0.0
-33.446 -4.427 -2.506 0.0
-33.296 -4.513 -2.495 0.0
-33.044 -4.532 -2.475 0.0
-32.893 -4.617 -2.464 0.0
-32.559 -4.675 -2.438 0.0
-32.152 -4.72 -2.406 0.0
-31.559 -4.734 -2.359 0.0
-30.846 -4.727 -2.303 0.0
-32.405 -5.121 -2.431 0.16
-32.337 -5.215 -2.427 0.18
-32.207 -5.298 -2.418 0.16
-31.852 -5.342 -2.39 0.41
-31.735 -5.425 -2.382 0.19
-31.217 -5.438 -2.341 0.31
-31.06 -5.512 -2.33 0.18
-31.01 -5.553 -2.327 0.26
-31.016 -5.655 -2.329 0.18
-30.98 -5.749 -2.327 0.32
-30.929 -5.84 -2.324 0.0
-31.637 -6.076 -2.384 0.12
-31.459 -6.144 -2.371 0.0
-31.32 -6.22 -2.361 0.0
-30.892 -6.236 -2.328 0.0
-30.638 -6.235 -2.308 0.0
-30.191 -6.243 -2.273 0.0
-29.724 -6.244 -2.236 0.0
-29.211 -6.233 -2.195 0.0
-28.815 -6.244 -2.165 0.0
-31.623 -6.953 -2.397 0.13
-31.517 -7.034 -2.39 0.28
-31.432 -7.067 -2.384 0.11
-31.253 -7.13 -2.371 0.14
-31.176 -7.216 -2.366 0.29
-31.223 -7.33 -2.372 0.26
-31.116 -7.408 -2.365 0.11
-31.04 -7.493 -2.361 0.0
-30.941 -7.572 -2.355 0.12
-30.797 -7.589 -2.344 0.0
-30.708 -7.669 -2.339 0.0
-30.27 -7.661 -2.304 0.0
-30.122 -7.725 -2.294 0.0
-29.798 -7.742 -2.269 0.0
-29.515 -7.767 -2.248 0.0
-29.16 -7.772 -2.22 0.0
-28.814 -7.729 -2.193 0.0
-28.422 -7.72 -2.162 0.0
-28.061 -7.717 -2.134 0.0
-29.615 -8.343 -2.268 0.11
-29.395 -8.381 -2.251 0.22
-29.227 -8.433 -2.24 0.19
-29.156 -8.462 -2.235 0.23
-28.754 -8.444 -2.203 0.15
-28.609 -8.499 -2.194 0.23
-28.315 -8.509 -2.171 0.2
-28.072 -8.532 -2.153 0.21
-27.769 -8.536 -2.13 0.18
-27.489 -8.544 -2.109 0.32
-27.195 -8.547 -2.086 0.2
-26.986 -8.528 -2.07 0.18
-26.87 -8.585 -2.062 0.2
-26.636 -8.602 -2.045 0.3
-26.573 -8.674 -2.042 0.29
-26.381 -8.704 -2.028 0.36
-26.346 -8.784 -2.027 0.34
-25.942 -8.74 -1.995 0.29
-25.849 -8.754 -1.989 0.34
-25.655 -8.779 -1.975 0.3
-25.454 -8.8 -1.96 0.29
-25.283 -8.83 -1.948 0.29
-25.028 -8.829 -1.928 0.23
-24.814 -8.841 -1.912 0.36
-24.638 -8.866 -1.9 0.29
-24.55 -8.922 -1.895 0.32
-24.35 -8.893 -1.879 0.37
-24.126 -8.897 -1.862 0.26
-23.959 -8.922 -1.85 0.36
-23.87 -8.974 -1.845 0.34
-23.727 -9.006 -1.835 0.29
-23.74 -9.096 -1.839 0.32
-23.474 -9.037 -1.817 0.37
-23.167 -9.002 -1.793 0.21
-23.044 -9.038 -1.785 0.27
-22.991 -9.101 -1.783 0.34
-22.826 -9.118 -1.771 0.26
-22.895 -9.229 -1.78 0.33
-22.72 -9.242 -1.767 0.29
-22.504 -9.196 -1.749 0.29
-22.348 -9.214 -1.738 0.32
-22.284 -9.27 -1.735 0.33
-22.198 -9.316 -1.73 0.36
-21.955 -9.296 -1.712 0.31
-21.797 -9.31 -1.701 0.2
-21.72 -9.358 -1.696 0.4
-21.744 -9.449 -1.701 0.28
-21.676 -9.46 -1.696 0.42
-21.56 -9.491 -1.689 0.32
-21.396 -9.499 -1.677 0.36
-21.238 -9.509 -1.666 0.24
-20.785 -9.385 -1.629 0.33
-20.764 -9.454 -1.629 0.24
-20.838 -9.567 -1.639 0.29
-20.743 -9.563 -1.632 0.21
-20.098 -9.343 -1.577 0.31
-20.278 -9.504 -1.596 0.34
-20.221 -9.555 -1.593 0.32
-20.225 -9.635 -1.596 0.28
-20.035 -9.621 -1.582 0.17
-20.01 -9.687 -1.583 0.39
-19.934 -9.728 -1.579 0.17
-19.804 -9.703 -1.568 0.51
-19.877 -9.816 -1.578 0.18
-19.907 -9.909 -1.583 0.35
-19.683 -9.875 -1.566 0.23
-19.546 -9.961 -1.559 0.54
-19.581 -10.056 -1.565 0.18
-19.535 -10.071 -1.562 0.21
-19.422 -10.09 -1.555 0.49
-22.746 -11.903 -1.859 0.18
-22.643 -11.94 -1.853 0.32
-22.477 -11.943 -1.841 0.2
-22.256 -11.916 -1.824 0.39
-22.17 -11.959 -1.82 0.34
-22.044 -11.936 -1.81 0.22
-21.948 -11.974 -1.805 0.35
-21.853 -12.011 -1.8 0.45
-21.674 -12.002 -1.787 0.29
-21.493 -11.99 -1.774 0.3
-21.438 -12.048 -1.772 0.32
-21.362 -12.094 -1.768 0.38
-21.197 -12.045 -1.755 0.3
-21.078 -12.065 -1.748 0.38
-20.857 -12.026 -1.731 0.31
-20.584 -11.955 -1.709 0.21
-20.507 -11.997 -1.705 0.49
-20.369 -12.002 -1.696 0.23
-20.268 -12.029 -1.69 0.25
-20.116 -11.981 -1.677 0.51
-20.336 -12.199 -1.702 0.11
-19.953 -12.055 -1.669 0.14
-19.651 -11.957 -1.644 0.21
-20.52 -12.573 -1.73 0.18
-20.317 -12.537 -1.714 0.1
-20.325 -12.63 -1.719 0.16
-18.929 -11.806 -1.589 0.17
-20.272 -12.73 -1.72 0.16
-20.19 -12.767 -1.716 0.13
-20.113 -12.807 -1.712 0.14
-20.044 -12.852 -1.709 0.13
-19.941 -12.875 -1.703 0.16
-18.429 -11.983 -1.563 0.24
-19.838 -12.986 -1.701 0.33
-19.796 -13.003 -1.699 0.16
-18.028 -11.925 -1.533 0.36
-19.651 -13.085 -1.693 0.2
-19.577 -13.124 -1.69 0.38
-19.487 -13.153 -1.685 0.24
-19.419 -13.197 -1.683 0.19
-19.353 -13.241 -1.68 0.42
-19.278 -13.234 -1.675 0.23
-19.2 -13.27 -1.672 0.17
-19.149 -13.323 -1.671 0.43
-19.061 -13.351 -1.666 0.24
-18.988 -13.389 -1.663 0.29
-18.889 -13.408 -1.657 0.14
-18.819 -13.448 -1.655 0.41
-18.761 -13.451 -1.651 0.16
-18.686 -13.487 -1.648 0.28
-18.597 -13.511 -1.643 0.21
-18.517 -13.543 -1.64 0.26
-18.439 -13.575 -1.636 0.26
-18.347 -13.596 -1.631 0.27
-18.269 -13.627 -1.628 0.27
-18.199 -13.62 -1.623 0.27
-18.125 -13.653 -1.62 0.27
-18.056 -13.691 -1.617 0.28
-17.969 -13.714 -1.612 0.26
-17.875 -13.731 -1.607 0.31
-17.795 -13.759 -1.604 0.29
-17.713 -13.785 -1.6 0.32
-17.669 -13.795 -1.597 0.28
-17.585 -13.819 -1.593 0.3
-17.496 -13.838 -1.589 0.29
-17.413 -13.862 -1.585 0.31
-17.337 -13.891 -1.581 0.27
-17.265 -13.922 -1.578 0.33
-17.178 -13.941 -1.574 0.29
-17.131 -13.948 -1.571 0.31
-17.055 -13.976 -1.568 0.32
-16.982 -14.005 -1.565 0.32
-16.925 -14.048 -1.564 0.32
-16.838 -14.066 -1.559 0.32
-16.773 -14.1 -1.557 0.31
-16.704 -14.132 -1.554 0.3
-16.647 -14.175 -1.553 0.37
-16.595 -14.175 -1.55 0.25
-16.529 -14.209 -1.548 0.33
-16.47 -14.249 -1.546 0.31
-16.405 -14.282 -1.544 0.31
-16.34 -14.317 -1.542 0.31
-16.271 -14.347 -1.539 0.28
-16.217 -14.39 -1.538 0.37
-16.168 -14.392 -1.536 0.38
-16.075 -14.4 -1.53 0.3
-15.973 -14.4 -1.524 0.29
-15.845 -14.375 -1.515 0.39
-15.778 -14.404 -1.513 0.4
-15.701 -14.426 -1.51 0.35
-15.597 -14.421 -1.503 0.33
-15.523 -14.398 -1.498 0.32
-15.433 -14.404 -1.493 0.39
-15.342 -14.411 -1.488 0.38
-15.241 -14.405 -1.481 0.36
-15.145 -14.405 -1.476 0.32
-15.053 -14.409 -1.471 0.4
-14.969 -14.419 -1.466 0.38
-14.886 -14.384 -1.46 0.32
-14.799 -14.39 -1.455 0.33
-14.713 -14.396 -1.45 0.39
-14.623 -14.399 -1.445 0.27
-14.535 -14.403 -1.441 0.37
-14.453 -14.412 -1.437 0.39
-14.357 -14.407 -1.431 0.3
-14.291 -14.385 -1.426 0.29
-14.213 -14.398 -1.422 0.39
-14.119 -14.392 -1.417 0.3
-14.032 -14.394 -1.412 0.33
-13.948 -14.398 -1.407 0.34
-13.864 -14.402 -1.403 0.32
-13.776 -14.4 -1.398 0.34
-13.715 -14.382 -1.393 0.29
-13.628 -14.381 -1.389 0.35
-13.546 -14.385 -1.384 0.41
-13.467 -14.391 -1.38 0.33
-13.379 -14.388 -1.375 0.39
-13.303 -14.396 -1.372 0.31
-13.222 -14.4 -1.367 0.48
-13.137 -14.397 -1.363 0.32
-13.068 -14.368 -1.357 0.33
-12.992 -14.375 -1.353 0.36
-12.92 -14.386 -1.35 0.3
-12.839 -14.386 -1.346 0.44
-12.761 -14.389 -1.342 0.36
-12.683 -14.392 -1.338 0.34
-12.602 -14.391 -1.334 0.35
-12.548 -14.375 -1.33 0.37
-12.471 -14.378 -1.326 0.33
-12.397 -14.384 -1.322 0.46
-12.314 -14.379 -1.318 0.31
-12.239 -14.383 -1.314 0.36
-12.163 -14.385 -1.31 0.31
-12.093 -14.394 -1.307 0.29
-12.046 -14.384 -1.304 0.39
-11.964 -14.378 -1.3 0.41
-11.888 -14.378 -1.296 0.37
-11.822 -14.389 -1.293 0.38
-11.737 -14.379 -1.288 0.31
-11.669 -14.388 -1.285 0.39
-11.594 -14.387 -1.281 0.41
-11.526 -14.395 -1.278 0.29
-11.476 -14.379 -1.275 0.39
-11.407 -14.386 -1.272 0.37
-11.334 -14.385 -1.268 0.3
-11.266 -14.393 -1.265 0.41
-11.186 -14.382 -1.261 0.31
-11.116 -14.386 -1.257 0.4
-11.069 -14.372 -1.254 0.38
-11.002 -14.378 -1.251 0.31
-10.884 -14.317 -1.242 0.56
-10.856 -14.374 -1.244 0.23
-10.787 -14.376 -1.241 0.16
-10.715 -14.375 -1.237 0.19
-10.659 -14.394 -1.236 0.52
-10.609 -14.374 -1.232 0.2
-10.537 -14.37 -1.229 0.28
-10.397 -14.273 -1.216 0.25
-10.326 -14.27 -1.212 0.38
-10.261 -14.275 -1.209 0.38
-10.192 -14.273 -1.206 0.25
-10.126 -14.276 -1.203 0.39
-10.059 -14.276 -1.2 0.32
-10.019 -14.266 -1.197 0.36
-9.952 -14.266 -1.194 0.26
-9.907 -14.298 -1.194 0.22
-9.887 -14.365 -1.198 0.29
-9.821 -14.364 -1.195 0.37
-9.76 -14.372 -1.193 0.29
-9.689 -14.365 -1.189 0.36
-9.648 -14.354 -1.186 0.43
-9.592 -14.367 -1.185 0.33
-9.526 -14.366 -1.182 0.38
-9.464 -14.371 -1.179 0.34
-9.406 -14.38 -1.177 0.36
-9.331 -14.365 -1.173 0.4
-9.276 -14.379 -1.172 0.37
-9.233 -14.362 -1.169 0.38
-9.163 -14.352 -1.165 0.3
-9.101 -14.354 -1.162 0.23
-9.054 -14.379 -1.162 0.54
-8.989 -14.375 -1.159 0.29
-8.918 -14.363 -1.155 0.27
-8.857 -14.365 -1.153 0.29
-8.819 -14.354 -1.15 0.37
